1.298899 7.340575 -31.274965 -0.173935 -0.984692 -0.011370 
1.025266 7.365300 -35.224651 -0.136385 -0.990656 -0.000577 
1.376232 7.319854 9.842515 -0.193157 -0.981161 0.003627 
1.004871 7.367085 9.430480 -0.117575 -0.993049 0.005496 
1.656799 7.244677 11.866058 -0.232497 -0.972593 0.002919 
1.108050 7.358057 32.384693 -0.147689 -0.989012 0.006617 
1.389566 7.316281 32.950531 -0.191340 -0.981512 0.004848 
2.482811 7.023347 -8.824151 -0.332748 -0.943015 -0.001127 
3.164285 6.718851 28.800671 -0.424383 -0.905482 -0.000870 
2.428598 7.037873 23.399294 -0.326490 -0.945200 -0.000903 
3.479491 6.571868 -11.740935 -0.461546 -0.887111 0.002883 
4.391378 5.991366 25.726583 -0.590446 -0.807064 0.004575 
4.144156 6.164474 28.004539 -0.567552 -0.823335 0.002144 
3.851941 6.369085 -32.420963 -0.515115 -0.857115 -0.003066 
5.379912 5.122931 29.098785 -0.714184 -0.699956 0.001547 
5.183039 5.319804 23.909889 -0.702711 -0.711472 -0.002228 
6.247974 4.024905 -14.140454 -0.821376 -0.570384 -0.001799 
6.409267 3.794555 -13.398218 -0.859314 -0.511444 -0.002065 
6.487253 3.660950 11.152579 -0.870936 -0.491379 -0.004094 
6.459074 3.721379 17.947752 -0.866916 -0.498432 0.004676 
6.702784 3.198741 27.597040 -0.900082 -0.435715 0.002149 
6.722721 3.155986 26.901283 -0.907616 -0.419799 -0.001163 
6.641002 3.331232 28.516743 -0.906308 -0.422618 0.000000 
6.895740 2.784946 -35.614857 -0.927886 -0.372769 0.008401 
6.918489 2.736161 -34.988544 -0.930485 -0.366282 0.005943 
6.974175 2.616740 -25.612551 -0.935734 -0.352707 0.000094 
6.710113 3.183022 -5.112099 -0.898288 -0.439405 0.001127 
6.979798 2.604682 -5.357850 -0.936529 -0.350581 0.002716 
7.128604 2.089987 -13.743912 -0.964340 -0.264668 0.000252 
7.156409 1.986218 23.967291 -0.966153 -0.257971 -0.000131 
7.121804 2.115366 -27.028191 -0.962659 -0.270715 0.000357 
6.919112 2.734823 -43.420216 -0.925924 -0.377709 0.000234 
7.392493 0.714462 -7.074126 -0.996564 -0.082824 0.001081 
7.369232 0.980329 -30.477287 -0.992028 -0.125997 -0.002461 
7.454891 0.001242 -16.035164 -0.999981 0.001400 -0.006028 
7.375098 -0.913286 -16.982937 -0.991151 0.132711 -0.002747 
7.430705 -0.277700 27.215681 -0.999082 0.042838 0.000016 
7.437482 -0.200229 28.459656 -0.999318 0.036886 0.001840 
7.348185 -1.220899 -44.281933 -0.986751 0.162244 -0.000173 
7.371951 -0.949250 -15.541648 -0.991598 0.129317 0.003119 
7.323430 -1.362889 11.157714 -0.982955 0.183832 -0.002383 
7.342308 -1.288077 17.964861 -0.985142 0.171739 0.000831 
7.174426 -1.918977 27.578999 -0.966252 0.257598 0.000760 
7.184665 -1.880766 26.904675 -0.966121 0.258089 -0.001006 
7.230408 -1.710053 28.530081 -0.972046 0.234771 -0.002893 
6.972016 -2.621371 11.028490 -0.935437 0.353450 0.005506 
6.942793 -2.684040 23.597408 -0.930216 0.366985 0.004526 
6.724779 -3.151573 24.024841 -0.906308 0.422618 0.000000 
6.548466 -3.529677 -46.678791 -0.879909 0.475133 0.002960 
6.524348 -3.581400 11.133344 -0.881655 0.471599 -0.016669 
6.309615 -3.936874 27.755497 -0.846939 0.531690 0.000567 
6.225804 -4.056566 26.895773 -0.830830 0.556526 0.001089 
6.176589 -4.126854 28.656212 -0.825896 0.563816 0.002643 
6.362103 -3.861912 -32.285763 -0.852923 0.522015 -0.004683 
5.974337 -4.415700 -12.764896 -0.803510 0.595291 -0.000628 
5.685275 -4.817567 10.942407 -0.761370 0.648287 -0.006369 
5.119946 -5.382896 30.972109 -0.703828 0.710370 0.000769 
4.960091 -5.542752 30.228100 -0.683489 0.729953 0.003380 
5.227528 -5.275316 25.035553 -0.713457 0.700698 0.000859 
4.887231 -5.615613 -17.001293 -0.657604 0.753360 0.002422 
4.577071 -5.861344 -13.846033 -0.616374 0.787454 0.000526 
4.232326 -6.102737 -14.821247 -0.578383 0.815760 -0.003113 
4.019607 -6.251684 -41.654034 -0.542201 0.840246 0.002101 
4.374452 -6.003220 -6.015663 -0.573576 0.819152 -0.000000 
4.430273 -5.964133 -5.162855 -0.582401 0.812893 -0.003779 
3.759800 -6.433602 -1.816435 -0.506688 0.862129 -0.000375 
3.713816 -6.462600 2.632763 -0.496751 0.867853 -0.008337 
2.099442 -7.126070 -41.714310 -0.278772 0.960355 -0.001916 
2.231172 -7.090774 -17.322666 -0.270279 0.962779 -0.002457 
1.885657 -7.183354 19.626060 -0.241674 0.970351 -0.003536 
2.304929 -7.071010 19.851540 -0.296878 0.954893 0.006581 
2.127824 -7.118465 15.115452 -0.292442 0.956279 0.002907 
-0.911083 -7.375291 -38.536358 0.121275 0.992615 -0.002755 
-2.401010 -7.045266 -14.506503 0.321154 0.947018 0.004208 
-3.066311 -6.764538 14.366241 0.406179 0.913764 -0.007380 
-3.080888 -6.757740 29.085503 0.405894 0.913917 0.002396 
-3.063265 -6.765958 23.636826 0.417729 0.908564 -0.003858 
-2.916593 -6.834352 -11.820593 0.396967 0.917820 0.004921 
-3.447081 -6.586981 -12.127063 0.464394 0.885629 -0.000370 
-4.464056 -5.940477 26.756462 0.590866 0.806768 -0.001566 
-4.219179 -6.111942 28.081741 0.582046 0.813151 -0.002760 
-4.454357 -5.947269 -39.898472 0.601242 0.799060 -0.003353 
-4.460486 -5.942978 -12.697944 0.591685 0.806169 0.001065 
-4.999028 -5.503814 11.179673 0.671214 0.741262 -0.001774 
-5.648971 -4.853872 31.135302 0.756086 0.654469 0.001903 
-5.452637 -5.050206 -16.951214 0.736581 0.676349 -0.001304 
-6.026927 -4.340593 -14.090933 0.810160 0.586197 0.003661 
-6.269934 -3.993545 -14.589326 0.840428 0.541921 -0.001673 
-5.478102 -5.024741 11.661454 0.738722 0.674001 0.003415 
-6.016141 -4.355999 12.023830 0.808044 0.589089 0.006219 
-6.250586 -4.021174 -41.653137 0.839059 0.544038 0.001694 
-6.000731 -4.378005 -6.026509 0.819152 0.573577 -0.000000 
-5.904812 -4.514991 -5.074196 0.804253 0.594242 -0.007316 
-6.414814 -3.786633 -1.750195 0.860681 0.509123 0.004720 
-6.305962 -3.942091 22.492645 0.844376 0.535738 0.003640 
-7.076953 -2.282753 -17.390604 0.956508 0.291693 0.002890 
-7.202659 -1.813610 19.882244 0.971343 0.237681 0.000073 
-6.981646 2.600721 -14.444386 0.937634 -0.347596 0.004494 
-6.764725 3.065908 14.392150 0.914566 -0.404380 -0.006776 
-6.776196 3.041308 29.055275 0.914421 -0.404762 0.001199 
-6.788039 3.015912 23.683754 0.913674 -0.406423 -0.004621 
-6.459739 3.719954 -40.469711 0.867135 -0.498069 0.002067 
-6.271551 3.991234 26.956156 0.840672 -0.541544 0.001194 
-5.984954 4.400537 25.821478 0.818676 -0.574256 0.000516 
-6.275860 3.985079 -32.361786 0.840349 -0.542045 0.000746 
-5.813056 4.646034 -12.583036 0.782286 -0.622871 0.007719 
-5.503814 4.999028 11.179673 0.741262 -0.671214 -0.001774 
-5.109458 5.393385 30.972267 0.700346 -0.713804 -0.000109 
-5.312884 5.189959 25.132214 0.704913 -0.709294 0.000562 
-5.049886 5.452956 -16.951799 0.676864 -0.736105 -0.002118 
-4.327086 6.036385 -14.088575 0.583496 -0.812062 0.009349 
-4.329864 6.034440 -14.655181 0.588602 -0.808420 -0.002227 
-5.024741 5.478102 11.661454 0.674125 -0.738614 0.002363 
-4.363717 6.010736 11.991508 0.590159 -0.807265 0.005885 
-3.904840 6.332046 -41.195885 0.528350 -0.849026 -0.001362 
-4.377841 6.000846 -6.027135 0.573576 -0.819152 0.000000 
-4.514415 5.905216 -5.074793 0.593904 -0.804503 -0.007276 
-3.787550 6.414173 -1.750779 0.509853 -0.860252 0.004127 
-3.919581 6.321723 22.482338 0.528406 -0.848988 0.002614 
-2.596566 6.983583 -40.991077 0.355057 -0.934839 -0.003400 
-2.351293 7.058587 -41.518330 0.306021 -0.952019 0.003246 
-2.073375 7.133055 19.808912 0.273490 -0.961874 -0.000874 
-2.438555 7.035205 -42.343166 0.326437 -0.945208 0.004481 
-0.939966 7.372764 0.225504 0.128694 -0.991643 -0.009069 
-0.223672 7.435431 -5.924402 0.032450 -0.999463 0.004562 
-0.112575 7.445151 -65.471031 0.020292 -0.999773 -0.006493 
-0.644413 7.398621 -65.836250 0.091737 -0.995780 0.002589 
10.826996 -8.552563 -73.887192 0.768468 -0.639888 0.000001 
11.984050 -6.828450 -80.068626 0.867439 -0.497543 -0.000000 
13.453289 -3.136798 -62.980537 0.982011 -0.188793 -0.003358 
13.602822 2.284043 -80.038612 0.984971 0.172718 -0.000000 
-10.826996 8.552563 -73.887192 -0.768468 0.639888 0.000001 
-11.919292 6.941350 -80.049515 -0.867439 0.497543 0.000000 
-13.694687 -1.760152 -77.507050 -0.989173 -0.146727 -0.002838 
-13.580935 -2.408859 -80.083038 -0.984971 -0.172718 0.000000 
-10.125153 -9.395435 -62.834129 -0.749427 -0.662076 -0.003792 
-9.140565 -10.333467 -80.423538 -0.646399 -0.762999 0.000000 
-8.677371 -10.725880 -74.321083 -0.646400 -0.762999 0.000000 
-12.171083 -2.837915 -81.378036 0.000000 0.000000 -1.000000 
1.682338 -5.678493 -81.378036 0.000000 0.000000 -1.000000 
-11.707768 6.291498 -81.378036 0.000000 0.000000 -1.000000 
-5.678943 14.215358 -51.926651 -0.376707 0.926329 -0.002597 
-14.833250 3.813867 -42.629780 -0.967773 0.251826 -0.000122 
-15.090508 2.687179 -41.841122 -0.983652 0.180079 -0.000980 
-6.526542 -13.856422 -54.754658 -0.403200 -0.915109 -0.002411 
-6.883571 -13.698834 -55.366074 -0.440478 -0.897760 -0.002408 
-2.765894 -15.043714 -61.144936 -0.221255 -0.975215 -0.001544 
4.435781 -14.678088 -43.309715 0.286081 -0.958204 0.001701 
5.678943 -14.215358 -51.926651 0.376707 -0.926329 -0.002597 
15.100083 -2.632088 -41.795055 0.984326 -0.176341 -0.002312 
6.526587 13.856403 -54.755211 0.403323 0.915054 -0.002568 
6.891630 13.695005 -55.402218 0.441756 0.897135 0.001008 
-3.772899 -11.829724 -61.746037 0.000000 0.000000 -1.000000 
-0.860900 -15.277112 -29.775078 -0.075606 -0.997132 0.003476 
2.333657 16.409832 -15.965824 0.087156 0.996195 0.000000 
3.713910 16.139486 -26.211327 0.258819 0.965926 -0.000000 
8.908428 13.967022 -18.789085 0.573576 0.819153 -0.000001 
8.413316 14.313702 -13.135867 0.515430 0.856930 -0.001800 
11.315495 12.090840 -26.231295 0.707107 0.707107 0.000000 
13.228017 9.963833 -26.211157 0.819152 0.573576 -0.000000 
14.644392 7.757476 -26.244780 0.895424 0.445211 -0.001557 
15.367296 -6.207204 -26.232670 0.918469 -0.395491 -0.000844 
14.053812 -8.784479 -26.238129 0.833970 -0.551807 -0.001834 
12.096375 -11.309958 -26.218376 0.707106 -0.707107 0.000001 
7.608299 -14.713955 -26.209644 0.422618 -0.906308 -0.000000 
4.850212 -15.835015 -26.213411 0.258819 -0.965926 -0.000000 
-0.768237 -16.546787 -26.209719 -0.087156 -0.996195 -0.000000 
-3.724430 -16.136667 -26.222610 -0.258818 -0.965926 -0.000000 
-6.210876 -15.365585 -26.237684 -0.398513 -0.917161 -0.001776 
-8.784479 -14.053812 -26.238129 -0.551807 -0.833970 -0.001834 
-11.314432 -12.091902 -26.229784 -0.707107 -0.707107 0.000000 
-13.240493 -9.946015 -26.218349 -0.819152 -0.573576 -0.000000 
-15.367296 6.207204 -26.232670 -0.918469 0.395492 -0.000843 
-14.053812 8.784479 -26.238129 -0.833970 0.551807 -0.001834 
-12.096375 11.309958 -26.218376 -0.707106 0.707107 0.000001 
-7.608299 14.713955 -26.209644 -0.422618 0.906308 -0.000000 
-4.850212 15.835015 -26.213411 -0.258818 0.965926 -0.000000 
-32.816639 -3.466680 -5.940035 0.000000 0.000000 -1.000000 
-14.990873 -17.027184 -5.940035 0.000000 0.000000 -1.000000 
-25.139683 -22.480782 -5.940035 0.000000 0.000000 -1.000000 
-24.204451 -0.241697 -5.940035 0.000000 0.000000 -1.000000 
33.570381 3.377887 -5.940035 0.000000 0.000000 -1.000000 
-3.377887 33.570381 -5.940035 0.000000 0.000000 -1.000000 
0.099134 -28.049297 -5.940035 0.000000 0.000000 -1.000000 
2.130000 16.761276 -61.253754 1.000000 0.000000 0.000000 
-2.130000 16.181894 -51.247772 -1.000000 0.000000 0.000000 
2.130000 -16.181894 -51.247772 1.000000 0.000000 0.000000 
-16.969976 2.130000 -52.657784 0.000000 1.000000 0.000000 
-15.529725 2.130000 -44.987076 0.000000 1.000000 0.000000 
-11.467223 13.233430 -43.928234 -0.707106 0.707107 -0.000000 
0.368618 7.422750 17.490068 -0.061141 -0.998116 0.005084 
0.297944 7.428933 -8.501348 -0.036760 -0.999323 -0.001544 
-0.284278 7.430129 -7.694936 0.034818 -0.999391 0.002311 
1.158621 7.353634 -72.272484 -0.156426 -0.987668 0.006608 
0.648318 7.398280 -71.690056 -0.087156 -0.996195 -0.000000 
0.856186 7.380094 28.407352 -0.103494 -0.994623 0.003870 
2.459327 7.029640 -22.336121 -0.325757 -0.945453 -0.000665 
3.002963 6.794076 -65.005524 -0.405300 -0.914182 -0.001496 
4.752583 5.738449 -20.484482 -0.635812 -0.771837 -0.003389 
4.198003 6.126770 -20.067276 -0.560434 -0.828184 -0.004920 
6.494825 3.644710 -34.313778 -0.873988 -0.485774 -0.012971 
7.396931 0.663730 -34.285713 -0.996155 -0.087609 0.000186 
7.443881 0.127092 -34.538837 -0.999555 -0.029787 -0.001899 
7.432333 0.259081 -74.533867 -0.998853 -0.047790 -0.002820 
6.592483 -3.435282 -74.495300 -0.896936 0.442159 0.001349 
6.487017 -3.661455 -66.326569 -0.872741 0.488175 -0.002835 
4.834263 -5.668580 -70.362083 -0.650823 0.759229 -0.000995 
4.215286 -6.114668 -72.924095 -0.574942 0.818194 0.000702 
2.602791 -6.980680 4.288317 -0.350446 0.936508 -0.011827 
1.492215 -7.288776 -9.372712 -0.210920 0.977478 0.007007 
0.862854 -7.379510 -3.528361 -0.088418 0.996083 0.000557 
1.114324 -7.357509 13.689075 -0.141072 0.989999 0.000131 
1.537693 -7.276590 27.168159 -0.208400 0.978019 -0.006975 
2.189241 -7.102009 -68.097694 -0.290101 0.956991 0.003165 
2.563645 -6.998934 -69.506790 -0.343931 0.938995 -0.000573 
0.356557 -7.423806 30.188524 -0.057659 0.998324 0.004884 
0.754760 -7.388967 -63.609955 -0.107249 0.994231 0.001537 
1.032375 -7.364678 -49.565674 -0.130835 0.991402 0.001839 
-0.583157 -7.403981 25.921230 0.087156 0.996195 -0.000000 
0.236996 -7.434266 -66.727486 -0.024710 0.999691 0.002549 
-0.523838 -7.409171 -66.256271 0.066038 0.997803 -0.005349 
-2.128286 -7.118342 -29.718391 0.291441 0.956586 -0.002283 
-3.630101 -6.501638 -18.286057 0.480913 0.876766 0.002073 
-3.006829 -6.792274 -65.085991 0.392294 0.919802 0.008376 
-6.956465 -2.654720 4.324754 0.933696 0.358057 -0.002764 
-7.283473 -1.512008 -9.320335 0.978745 0.204936 -0.007717 
-7.377529 -0.885495 -3.556076 0.995971 0.089672 0.001066 
-7.357785 -1.111169 13.686881 0.989850 0.142092 0.002527 
-7.275841 -1.540491 27.173304 0.977902 0.208925 -0.007587 
-7.056030 -2.360840 -69.315781 0.950179 0.311655 0.005625 
-7.288064 -1.494873 -52.444920 0.977945 0.208847 0.002476 
-7.027678 -2.466652 -60.967773 0.943386 0.331674 0.003965 
-7.408813 -0.527923 30.036692 0.997711 0.067598 0.001771 
-7.404538 -0.576782 -62.045780 0.996690 0.081241 -0.002921 
-7.445215 -0.111845 -47.887100 0.999830 0.016420 0.008445 
-7.452735 -0.025892 -49.271774 0.999971 0.004723 -0.005980 
-7.113132 2.147728 -29.663586 0.956596 -0.291384 -0.004394 
-7.012121 2.524706 -16.579586 0.940832 -0.338247 0.020574 
-6.503359 3.626408 -18.293348 0.877796 -0.479012 -0.004595 
-6.797697 2.995199 -64.961273 0.915911 -0.401355 -0.004612 
-2.943236 6.821928 4.386591 0.396571 -0.918004 0.001093 
-2.882906 6.850060 -70.042191 0.393098 -0.919484 0.004790 
-3.113530 6.742518 -55.960861 0.415724 -0.909484 0.003485 
-1.506734 7.284886 -64.950134 0.214778 -0.976662 -0.001069 
-1.688250 7.236249 -50.363228 0.238562 -0.971116 -0.004668 
-1.598280 7.260357 -61.889473 0.222654 -0.974893 0.003100 
-1.613339 7.256321 -26.088966 0.222206 -0.974994 -0.003350 
-0.856609 7.380056 22.586218 0.105235 -0.994447 0.001321 
11.655581 -4.766168 -81.378036 0.000000 0.000000 -1.000000 
0.303240 17.466000 -58.090836 0.000000 1.000000 0.000000 
17.466000 -0.303240 -58.090836 1.000000 0.000000 0.000000 
-0.303240 -17.466000 -58.090836 0.000000 -1.000000 0.000000 
-12.635442 -9.623168 -57.691662 -0.707107 0.707107 0.000000 
-17.466000 0.303240 -58.090836 -1.000000 0.000000 0.000000 
5.904326 4.515686 -4.335125 -0.791321 -0.611401 -0.000100 
7.354083 1.153481 -3.655661 -0.988066 -0.154019 -0.001771 
7.248960 -1.640810 -6.427724 -0.974469 0.224479 0.004379 
4.525668 -5.897336 1.832866 -0.610885 0.791659 -0.009785 
4.350567 -6.019943 -3.573908 -0.578892 0.815404 -0.001014 
3.290452 -6.660018 -12.156817 -0.435547 0.900161 0.002893 
3.303330 -6.654013 -5.943976 -0.439950 0.898021 -0.001791 
-6.032808 -4.332194 1.821666 0.813853 0.581050 -0.004927 
-6.196994 -4.097713 -3.396547 0.836739 0.547596 -0.002428 
-6.650318 -3.311253 -12.154695 0.893165 0.449729 0.001060 
-6.653699 -3.304003 -5.940553 0.898539 0.438889 -0.002079 
-4.332031 6.032923 1.821720 0.580950 -0.813924 -0.004967 
-4.128858 6.175187 -3.626150 0.560136 -0.828386 -0.004889 
-3.288704 6.660833 -12.164713 0.445484 -0.895273 0.005521 
-12.113772 6.602287 -61.746037 -0.613372 0.351816 -0.707107 
0.735537 7.390649 -46.663593 -0.087156 -0.996195 -0.000000 
1.009922 7.366643 -37.645748 -0.137437 -0.990510 -0.001292 
2.691221 6.939445 -40.360668 -0.362865 -0.931802 -0.008653 
2.636718 6.964859 -40.906002 -0.354376 -0.935089 0.005148 
4.066746 6.218677 -4.961264 -0.555395 -0.831581 -0.003262 
4.801878 5.700965 -10.248203 -0.645942 -0.763385 -0.001467 
5.371533 5.131310 -37.448219 -0.719716 -0.694268 -0.000925 
5.348625 5.154217 -35.750462 -0.722699 -0.691162 -0.000654 
6.953158 -2.661812 -6.675632 -0.932664 0.360675 -0.007147 
6.930500 -2.710404 -41.811752 -0.929182 0.369581 0.005496 
5.944044 -4.458963 -8.346078 -0.799948 0.600056 0.004000 
5.021647 -5.481196 -35.887920 -0.674550 0.738221 -0.003334 
3.688752 -6.474288 -10.418692 -0.494320 0.869241 0.008307 
3.888774 -6.343294 -9.111336 -0.526905 0.849919 0.002832 
3.825328 -6.387720 -7.424959 -0.516868 0.856054 -0.004343 
3.844745 -6.374123 -6.145742 -0.520562 0.853820 -0.002456 
4.203693 -6.122787 -6.825161 -0.564175 0.825655 -0.000816 
-2.724125 -6.924101 -40.586124 0.364085 0.931363 0.002245 
-3.744961 -6.443993 -4.232488 0.502661 0.864484 0.000459 
-4.882495 -5.620348 -10.395658 0.661945 0.749509 -0.008092 
-5.479646 -5.023197 -35.885399 0.737823 0.674984 -0.003665 
-6.473186 -3.691113 -10.433563 0.868123 0.496087 0.016112 
-6.354996 -3.872062 -9.100628 0.852443 0.522817 0.001566 
-6.383353 -3.831563 -7.425785 0.855306 0.518104 -0.004509 
-6.372989 -3.846365 -6.146194 0.853839 0.520525 -0.003450 
-6.108769 -4.223711 -6.841786 0.825278 0.564726 -0.000912 
-6.903604 2.768082 -40.526791 0.928947 -0.370212 -0.000415 
-6.445004 3.743517 -4.218292 0.864659 -0.502357 0.001623 
-5.657226 4.845618 -10.370799 0.756670 -0.653786 -0.003678 
-5.079922 5.422920 -35.859005 0.679324 -0.733837 -0.001709 
-3.591921 6.519441 -10.433038 0.482965 -0.875606 0.007703 
-3.818381 6.392584 -9.132123 0.512133 -0.858906 0.000526 
-3.980748 6.278893 -7.411536 0.539463 -0.841968 -0.008381 
-3.846966 6.372569 -6.136765 0.523675 -0.851910 0.003803 
-4.221942 6.110007 -6.810966 0.559946 -0.828529 -0.000007 
-6.180383 -13.990566 -58.084530 -0.384665 -0.923051 -0.003152 
1.671372 7.240771 -51.731987 -0.223354 -0.974735 -0.002142 
3.503271 6.560780 -50.745823 -0.461749 -0.886990 0.005955 
-0.215775 -7.436122 -8.904614 0.033008 0.999451 0.002971 
-1.912712 -7.176105 -51.805981 0.270376 0.962754 -0.001034 
-3.441967 -6.589366 -50.696537 0.454698 0.890630 0.005231 
-6.566607 3.490772 -50.754490 0.887563 -0.460649 0.005892 
13.528595 2.707342 -67.984993 0.984971 0.172718 0.000000 
16.160513 -2.130000 -54.977600 0.000000 -1.000000 0.000000 
13.378883 7.437891 -59.533417 0.855501 0.517793 -0.002835 
1.513915 16.481550 -10.798394 0.087156 0.996195 0.000000 
13.463085 10.450811 -44.976204 0.707106 -0.707107 0.000000 
0.673535 7.396073 1.045419 -0.096069 -0.995374 0.000749 
1.230423 7.347352 -60.782715 -0.163685 -0.986504 -0.004202 
7.191983 -1.853455 -55.680000 -0.965104 0.261859 0.001910 
7.362413 -1.058266 -74.650459 -0.989585 0.143666 -0.008997 
6.839631 -2.905271 -67.226997 -0.912203 0.409728 -0.002846 
4.052152 -6.228896 -56.831734 -0.555562 0.831420 0.009553 
3.486632 -6.568538 -51.685093 -0.468438 0.883496 0.000266 
1.166793 -7.352918 -36.392246 -0.154649 0.987969 -0.000827 
1.191869 -7.350725 -37.226303 -0.160249 0.987075 0.002024 
-1.382165 -7.318264 -40.716667 0.193600 0.981079 0.001687 
-2.143221 -7.114341 -35.080643 0.280853 0.959751 -0.000219 
-1.218169 -7.348423 -62.249069 0.163069 0.986613 -0.001713 
-6.233187 -4.046023 -56.835884 0.833281 0.552848 -0.001333 
-6.763105 -3.069382 -51.899750 0.906308 0.422618 0.000000 
-6.525197 -3.579579 -57.179047 0.877790 0.479038 0.002740 
-6.473822 -3.689751 -51.622219 0.869230 0.494407 -0.000767 
-7.415136 -0.455649 -31.003563 0.997797 0.066342 0.000903 
-7.182030 1.890597 -41.629143 0.963820 -0.266543 -0.002568 
-7.248418 1.642836 -61.207760 0.965926 -0.258819 -0.000000 
-6.781216 3.030542 -52.298386 0.908094 -0.418767 0.000571 
-4.313591 6.045834 23.705030 0.580976 -0.813921 -0.000579 
-3.902626 6.333595 -56.866631 0.521959 -0.852967 0.002513 
-3.270937 6.669118 -51.605270 0.435760 -0.900058 0.002924 
13.792885 -0.570049 -73.269356 0.999998 -0.001776 0.000790 
-13.487346 2.942576 -73.269440 -0.984685 0.174343 0.000733 
5.622391 -6.246561 -81.378036 0.000000 0.000000 -1.000000 
13.942601 6.305992 -49.428204 0.918355 0.395756 -0.000184 
-15.992334 -4.263089 -16.735237 -0.965926 -0.258819 -0.000000 
2.130000 15.928386 -54.181297 1.000000 0.000000 0.000000 
1.322625 17.466000 -53.609215 0.000000 1.000000 0.000000 
-2.130000 16.708275 -53.512444 -1.000000 0.000000 0.000000 
17.466000 -1.322634 -53.609211 1.000000 0.000000 0.000000 
13.253364 -11.447291 -60.074097 0.707107 -0.707107 0.000001 
-2.130000 -15.928386 -54.181297 -1.000000 0.000000 0.000000 
-1.322625 -17.466000 -53.609215 0.000000 -1.000000 0.000000 
2.130000 -16.708275 -53.512444 1.000000 0.000000 0.000000 
-17.466000 1.322634 -53.609211 -1.000000 0.000000 0.000000 
-13.253364 11.447291 -60.074097 -0.707107 0.707107 0.000001 
1.153163 7.354111 16.165142 -0.153753 -0.988109 -0.001135 
3.115014 6.741827 25.737911 -0.422618 -0.906308 -0.000000 
3.259200 6.674592 20.749306 -0.434215 -0.900806 0.002337 
2.896074 6.843920 21.583681 -0.389730 -0.920927 0.001911 
3.776472 6.421929 -7.328496 -0.508726 -0.860920 -0.003843 
4.286761 6.064621 -2.899403 -0.588170 -0.808735 0.001852 
3.953038 6.298295 20.677862 -0.531795 -0.846869 0.002672 
4.343725 6.024734 20.525312 -0.586909 -0.809647 -0.003098 
4.464866 5.939910 -3.623034 -0.604802 -0.796356 -0.005584 
4.982115 5.520729 16.995640 -0.671656 -0.740863 0.000407 
4.750962 5.739584 16.248295 -0.638056 -0.769990 0.000279 
5.962525 4.432568 0.125925 -0.807434 -0.589956 -0.001335 
5.684082 4.818761 17.778585 -0.762123 -0.647432 0.000612 
6.000363 4.378531 15.741964 -0.812692 -0.582687 -0.002954 
6.207983 4.082018 14.931111 -0.837588 -0.546289 0.003762 
6.188000 4.110558 6.847456 -0.833159 -0.553033 -0.000095 
6.122972 4.203427 0.713156 -0.823702 -0.567017 -0.002721 
6.574668 3.473486 4.348849 -0.884942 -0.465701 0.000349 
6.528502 3.572491 0.770556 -0.878208 -0.478236 -0.006447 
6.889524 2.798277 -1.786209 -0.925890 -0.377741 -0.006256 
6.746490 3.105012 22.056822 -0.907989 -0.418989 -0.002228 
6.452681 3.732554 22.404209 -0.865283 -0.501269 -0.003756 
7.126856 2.096509 17.025122 -0.962010 -0.272999 0.003023 
7.039695 2.421801 16.335613 -0.945750 -0.324870 -0.004055 
7.058856 2.350289 15.576628 -0.951118 -0.308828 0.000342 
7.120734 2.119359 -0.284306 -0.959747 -0.280778 0.006945 
7.432417 -0.258127 0.043690 -0.999334 0.036480 0.001156 
7.414054 -0.468016 15.814962 -0.997796 0.066339 -0.001311 
7.363895 -1.041322 0.446737 -0.992101 0.125381 -0.003853 
7.273712 -1.548435 4.396838 -0.977557 0.210671 -0.000435 
7.355333 -1.139199 1.316985 -0.987917 0.154985 -0.000067 
7.268133 -1.569259 0.646999 -0.974669 0.223591 -0.005190 
7.232046 -1.703937 21.937832 -0.973357 0.229293 -0.000616 
6.919631 -2.733712 16.378712 -0.930493 0.366302 0.002258 
6.925703 -2.720689 15.549133 -0.928922 0.370274 -0.000973 
6.658592 -3.293512 14.651932 -0.898711 0.438540 -0.000799 
6.719427 -3.163052 15.728130 -0.906308 0.422618 0.000000 
6.660131 -3.290210 -32.458202 -0.899644 0.436601 -0.004567 
6.540572 -3.546605 6.633527 -0.878076 0.478503 -0.004140 
6.543099 -3.541186 0.672606 -0.878690 0.477389 -0.001923 
6.245119 -4.028983 4.356897 -0.840238 0.542185 -0.006007 
6.052031 -4.304741 -3.029641 -0.809960 0.586485 -0.000514 
6.515171 -3.601079 22.610390 -0.874576 0.484887 -0.001327 
6.056090 -4.298944 21.206493 -0.808217 0.588884 -0.000468 
5.797378 -4.668424 -3.665364 -0.779526 0.626320 -0.007873 
5.301044 -5.201799 14.677427 -0.713083 0.701079 0.000214 
5.222819 -5.280024 15.941218 -0.705582 0.708610 0.005071 
5.176865 -5.325978 15.285258 -0.701296 0.712870 -0.000674 
5.767498 -4.711097 16.305487 -0.774583 0.632469 0.002110 
5.766117 -4.713069 15.658570 -0.772500 0.635015 0.000395 
5.753129 -4.731617 16.965143 -0.777173 0.629286 0.000911 
4.889958 -5.612885 -3.410922 -0.658296 0.752729 0.006726 
4.548646 -5.881247 20.321903 -0.609307 0.792898 -0.007569 
3.457216 -6.582255 3.003961 -0.451093 0.892442 -0.007920 
2.102479 -7.125257 -29.686010 -0.256383 0.966574 0.001697 
2.079428 -7.131433 9.597090 -0.258819 0.965926 -0.000000 
-1.363625 -7.323233 18.290695 0.184982 0.982742 0.000672 
-2.279233 -7.077896 -22.068935 0.306844 0.951727 -0.007899 
-3.475057 -6.573936 -3.356549 0.461794 0.886987 0.000557 
-2.883915 -6.849590 -2.702797 0.386149 0.922431 -0.002998 
-2.625691 -6.970002 23.234121 0.353498 0.935430 -0.002990 
-3.014206 -6.788835 21.480820 0.403077 0.915161 0.003134 
-2.765614 -6.904755 -41.232201 0.375469 0.926835 -0.000831 
-3.515515 -6.555070 -7.060206 0.475053 0.879948 0.003903 
-4.070505 -6.216045 -3.513928 0.552372 0.833570 -0.006858 
-4.192938 -6.130316 20.662514 0.572931 0.819604 -0.000560 
-4.733775 -5.751618 -3.651512 0.634180 0.773113 -0.010558 
-5.403550 -5.099293 14.595612 0.729826 0.683628 -0.002489 
-5.291828 -5.211016 15.961954 0.714793 0.699335 0.001655 
-5.374656 -5.128187 15.297272 0.728288 0.685269 0.001885 
-4.760877 -5.732642 16.314339 0.639275 0.768969 -0.003688 
-4.951865 -5.550978 15.567266 0.672314 0.740265 0.001496 
-6.137854 -4.182175 2.678617 0.831228 0.555932 -0.000410 
-5.613840 -4.889003 -3.394195 0.754467 0.656288 0.008124 
-7.165503 -1.952281 -29.465267 0.965926 0.258819 -0.000000 
-7.342461 1.286324 -58.762299 0.984999 -0.172548 -0.001920 
-7.124137 2.106657 -2.078044 0.959558 -0.281473 -0.004684 
-7.255616 1.615972 -1.671753 0.975016 -0.222125 -0.001884 
-7.120527 2.120132 -17.018370 0.958993 -0.283405 0.003840 
-6.558949 3.507198 -3.371570 0.886130 -0.463435 -0.001679 
-6.751599 3.094058 -2.798944 0.904036 -0.427457 0.000173 
-6.949311 2.670061 23.191380 0.933050 -0.359741 -0.002069 
-6.764262 3.066901 21.293438 0.914346 -0.404925 -0.002727 
-6.692890 3.219960 -39.973644 0.904385 -0.426713 -0.001968 
-6.210849 4.077925 -3.514745 0.831400 -0.555671 -0.001861 
-6.137524 4.182643 20.542368 0.821211 -0.570613 -0.003536 
-6.354146 3.873275 -41.287945 0.848395 -0.529363 0.000007 
-5.751613 4.733782 -3.651526 0.773147 -0.634144 -0.010266 
-5.099293 5.403550 14.595604 0.683543 -0.729906 -0.002352 
-5.210689 5.292154 15.954050 0.699380 -0.714748 0.001756 
-5.128196 5.374646 15.297238 0.685344 -0.728217 0.001874 
-5.732518 4.761053 16.357227 0.770304 -0.637663 -0.004094 
-5.551155 4.951688 15.567467 0.740463 -0.672096 0.001365 
-5.482382 5.020461 17.188915 0.732473 -0.680766 0.006352 
-4.182048 6.137942 2.678520 0.555712 -0.831375 -0.000459 
-4.887488 5.615355 -3.417651 0.656220 -0.754530 0.007776 
-2.523313 7.012495 -30.442228 0.336345 -0.941736 -0.002536 
-0.367034 7.422889 -37.693344 0.056491 -0.998388 -0.005450 
-0.245354 7.433535 -25.124243 0.036172 -0.999295 -0.010047 
-0.124118 7.444141 -30.905716 0.014825 -0.999874 0.005605 
13.336679 -3.679441 -63.549492 0.961662 -0.274226 -0.002431 
12.237195 6.387108 -63.025871 0.867439 0.497544 0.000000 
9.171940 10.306887 -80.457184 0.646400 0.762999 0.000000 
8.558643 10.826462 -67.747070 0.646400 0.762999 -0.000000 
-12.179901 6.486994 -63.755276 -0.867440 0.497543 0.000000 
-12.740859 5.326119 -63.234844 -0.930562 0.366123 -0.002741 
-14.498309 4.937679 -60.018642 -0.940844 0.338830 0.002693 
-3.052781 -14.979311 -60.648682 -0.221929 -0.975061 -0.001758 
5.332969 15.705660 -9.775872 0.293973 0.955787 0.007138 
5.968518 15.478598 -9.526717 0.380796 0.924658 0.001255 
6.679470 15.147077 -9.734006 0.422618 0.906308 -0.000001 
7.278278 14.867847 -9.503048 0.422619 0.906308 -0.000000 
7.990996 14.535500 -9.732602 0.456608 0.889642 0.006760 
8.565678 14.207019 -9.502943 0.535483 0.844543 0.002218 
9.208599 13.756839 -9.732597 0.573577 0.819152 0.000000 
9.749697 13.377958 -9.502940 0.573576 0.819153 0.000000 
10.393768 12.926975 -9.732602 0.604172 0.796825 0.006758 
10.902588 12.503747 -9.502943 0.674006 0.738723 0.002216 
11.457551 11.948783 -9.732597 0.707107 0.707107 0.000000 
11.924636 11.481699 -9.502940 0.707107 0.707107 0.000000 
12.480610 10.925725 -9.732602 0.733361 0.679806 0.006758 
12.908204 10.420572 -9.502943 0.792044 0.610461 0.002215 
13.358362 9.777681 -9.732597 0.819152 0.573577 -0.000001 
13.737210 9.236630 -9.502940 0.819152 0.573577 0.000001 
14.188081 8.592722 -9.732602 0.840233 0.542183 0.006772 
14.521467 8.021093 -9.502943 0.886001 0.463678 0.002222 
14.853154 7.309783 -9.732597 0.906308 0.422618 0.000000 
15.132394 6.710953 -9.502944 0.906308 0.422618 -0.000000 
15.464647 5.998434 -9.732627 0.921577 0.388139 0.006604 
15.692943 5.380441 -9.501666 0.952974 0.303046 0.002155 
15.890514 4.643085 -9.706415 0.965926 0.258818 -0.000000 
16.601145 0.146913 -25.794344 0.999830 0.017611 -0.005527 
16.567249 0.534359 -25.097012 0.997596 0.069285 0.001570 
16.406950 -2.366585 -10.148342 0.994875 -0.101097 -0.001530 
16.248531 -3.306947 -9.491341 0.971508 -0.237008 -0.000289 
16.030027 -4.122414 -9.473969 0.965926 -0.258819 -0.000000 
15.844525 -4.814721 -9.422564 0.965926 -0.258818 -0.000000 
15.654777 -5.522872 -9.454363 0.947878 -0.318621 0.002775 
15.379375 -6.181304 -9.420967 0.912616 -0.408817 0.000417 
15.069099 -6.846692 -9.454310 0.906308 -0.422619 0.000000 
14.768071 -7.492246 -9.420965 0.906308 -0.422619 0.000001 
14.457936 -8.157331 -9.454313 0.878154 -0.478370 0.002775 
14.072358 -8.757995 -9.420967 0.827764 -0.561077 0.000418 
13.651241 -9.359409 -9.454310 0.819152 -0.573577 -0.000000 
13.242642 -9.942949 -9.420965 0.819152 -0.573576 -0.000000 
12.821650 -10.544188 -9.454313 0.781718 -0.623626 0.002762 
12.337523 -11.068813 -9.420967 0.717742 -0.696309 0.000415 
11.818409 -11.587927 -9.454310 0.707107 -0.707107 -0.000000 
11.314801 -12.091535 -9.420965 0.707107 -0.707107 -0.000000 
10.795860 -12.610474 -9.454313 0.661547 -0.749898 0.002762 
10.228005 -13.043040 -9.420967 0.585922 -0.810367 0.000414 
9.626650 -13.464114 -9.454310 0.573577 -0.819152 0.000001 
9.043308 -13.872575 -9.420965 0.573577 -0.819151 0.000000 
8.442253 -14.293440 -9.454313 0.521316 -0.853360 0.002775 
7.808019 -14.620825 -9.420967 0.436324 -0.899790 0.000418 
7.142616 -14.931106 -9.454310 0.422618 -0.906308 -0.000000 
6.496990 -15.232168 -9.420965 0.422619 -0.906308 0.000000 
5.831782 -15.542359 -9.454313 0.365175 -0.930935 0.002762 
5.150205 -15.754632 -9.420967 0.273427 -0.961893 0.000414 
4.441094 -15.944638 -9.454310 0.258819 -0.965926 -0.000000 
3.753230 -16.128950 -9.420965 0.258819 -0.965926 0.000000 
3.044477 -16.318859 -9.454313 0.198008 -0.980196 0.002775 
2.336522 -16.409578 -9.420967 0.102264 -0.994757 0.000417 
1.605141 -16.473566 -9.454310 0.087156 -0.996195 -0.000001 
0.895560 -16.535646 -9.420965 0.087156 -0.996195 -0.000000 
0.164513 -16.599606 -9.454313 0.024797 -0.999689 0.002775 
-0.548466 -16.566015 -9.420967 -0.072025 -0.997403 0.000418 
-1.279867 -16.502028 -9.454310 -0.087156 -0.996195 -0.000001 
-1.989527 -16.439939 -9.420965 -0.087156 -0.996195 -0.000000 
-2.720710 -16.375969 -9.454313 -0.149217 -0.988801 0.002761 
-3.417108 -16.219013 -9.420967 -0.244152 -0.969737 0.000414 
-4.126219 -16.029009 -9.454310 -0.258818 -0.965926 -0.000000 
-4.814082 -15.844696 -9.420965 -0.258819 -0.965926 -0.000000 
-5.522835 -15.654786 -9.454313 -0.318617 -0.947880 0.002774 
-6.181303 -15.379375 -9.420967 -0.408814 -0.912618 0.000418 
-6.846692 -15.069099 -9.454310 -0.422619 -0.906308 0.000000 
-7.492246 -14.768071 -9.420965 -0.422619 -0.906308 0.000001 
-8.157331 -14.457936 -9.454313 -0.478370 -0.878154 0.002775 
-8.757995 -14.072358 -9.420967 -0.561077 -0.827764 0.000418 
-9.359409 -13.651241 -9.454310 -0.573577 -0.819152 -0.000000 
-9.942949 -13.242642 -9.420965 -0.573576 -0.819152 -0.000000 
-10.544188 -12.821650 -9.454313 -0.623626 -0.781718 0.002762 
-11.068813 -12.337523 -9.420967 -0.696309 -0.717742 0.000415 
-11.587927 -11.818409 -9.454310 -0.707107 -0.707107 -0.000000 
-12.091535 -11.314801 -9.420965 -0.707107 -0.707107 -0.000000 
-12.610474 -10.795860 -9.454313 -0.749898 -0.661547 0.002762 
-13.043040 -10.228005 -9.420967 -0.810367 -0.585922 0.000414 
-13.464114 -9.626650 -9.454310 -0.819152 -0.573577 0.000001 
-13.872575 -9.043308 -9.420965 -0.819151 -0.573577 0.000000 
-14.293440 -8.442253 -9.454313 -0.853360 -0.521316 0.002775 
-14.620825 -7.808019 -9.420967 -0.899789 -0.436325 0.000418 
-14.931097 -7.142640 -9.454300 -0.906308 -0.422618 -0.000000 
-15.231726 -6.497936 -9.420904 -0.906308 -0.422618 -0.000001 
-15.534615 -5.848392 -9.461410 -0.928928 -0.370256 0.001992 
-15.722404 -5.270481 -9.537413 -0.960186 -0.279356 0.001797 
-15.892506 -4.635656 -9.708982 -0.965926 -0.258819 -0.000000 
-16.406950 2.366585 -10.148342 -0.994875 0.101097 -0.001530 
-16.248531 3.306947 -9.491341 -0.971508 0.237008 -0.000289 
-16.030027 4.122414 -9.473969 -0.965926 0.258819 -0.000000 
-15.844525 4.814721 -9.422564 -0.965926 0.258818 -0.000000 
-15.654777 5.522872 -9.454363 -0.947878 0.318621 0.002775 
-15.379375 6.181304 -9.420967 -0.912616 0.408817 0.000417 
-15.069099 6.846692 -9.454310 -0.906308 0.422619 0.000000 
-14.768071 7.492246 -9.420965 -0.906308 0.422619 0.000001 
-14.457936 8.157331 -9.454313 -0.878154 0.478370 0.002775 
-14.072358 8.757995 -9.420967 -0.827764 0.561077 0.000418 
-13.651241 9.359409 -9.454310 -0.819152 0.573577 -0.000000 
-13.242642 9.942949 -9.420965 -0.819152 0.573576 -0.000000 
-12.821650 10.544188 -9.454313 -0.781718 0.623626 0.002762 
-12.337523 11.068813 -9.420967 -0.717742 0.696309 0.000415 
-11.818409 11.587927 -9.454310 -0.707107 0.707107 -0.000000 
-11.314801 12.091535 -9.420965 -0.707107 0.707107 -0.000000 
-10.795860 12.610474 -9.454313 -0.661547 0.749898 0.002762 
-10.228005 13.043040 -9.420967 -0.585922 0.810367 0.000414 
-9.626650 13.464114 -9.454310 -0.573577 0.819152 0.000001 
-9.043308 13.872575 -9.420965 -0.573577 0.819151 0.000000 
-8.442253 14.293440 -9.454313 -0.521316 0.853360 0.002775 
-7.808019 14.620825 -9.420967 -0.436324 0.899790 0.000418 
-7.142616 14.931106 -9.454310 -0.422618 0.906308 -0.000000 
-6.496990 15.232168 -9.420965 -0.422619 0.906308 0.000000 
-5.831782 15.542359 -9.454313 -0.365175 0.930935 0.002762 
-5.150205 15.754633 -9.420967 -0.273427 0.961893 0.000415 
-4.441118 15.944632 -9.454300 -0.258819 0.965926 0.000000 
-3.754226 16.128683 -9.420898 -0.258819 0.965926 -0.000000 
-3.061907 16.314190 -9.461112 -0.203172 0.979141 0.002039 
-2.454772 16.399233 -9.531384 -0.108103 0.994138 0.001734 
-1.721934 16.463348 -9.679920 -0.087157 0.996195 -0.000001 
-0.978766 16.528368 -9.708920 -0.087155 0.996195 -0.000001 
-0.147568 16.601088 -9.721003 -0.021692 0.999759 -0.003499 
10.301956 13.314230 -55.068130 -0.707107 0.707107 -0.000000 
10.425575 -13.437850 -58.885529 -0.707107 -0.707106 -0.000000 
-10.562290 -13.574564 -45.129852 0.707107 -0.707106 0.000000 
-10.425575 13.437850 -58.885529 0.707107 0.707106 -0.000000 
0.400829 7.419932 -59.775665 -0.051503 -0.998671 -0.001830 
2.349461 7.059078 -35.009857 -0.321299 -0.946978 -0.000671 
1.964707 7.162173 -66.853485 -0.254881 -0.966971 0.001344 
5.123282 5.379560 -65.627083 -0.696777 -0.717288 -0.000324 
5.811273 4.648578 -71.400726 -0.784829 -0.619693 0.004863 
6.647732 3.316801 -69.084404 -0.894873 -0.446321 0.000551 
6.901496 2.772602 -68.341850 -0.927227 -0.374477 -0.004080 
7.063159 2.334234 -64.920494 -0.951491 -0.307634 -0.005072 
7.055835 2.361566 -54.210876 -0.948609 -0.316047 0.015977 
7.385997 -0.788706 -63.256821 -0.993906 0.110170 0.003541 
7.086132 -2.248497 -41.538338 -0.958256 0.285908 0.001482 
6.414001 -3.787794 -26.892363 -0.859565 0.511018 -0.002985 
5.439482 -5.063361 -65.566902 -0.722172 0.691714 0.000467 
4.519970 -5.901326 -38.992195 -0.609122 0.793041 0.007503 
3.786184 -6.415128 -38.497852 -0.511707 0.859145 0.004986 
4.050633 -6.229958 -36.340034 -0.547788 0.836617 0.000302 
3.382987 -6.616868 -22.541508 -0.453918 0.891043 0.000489 
4.239623 -6.097627 -70.020203 -0.576374 0.817185 0.001222 
4.781081 -5.718494 -71.799202 -0.642516 0.766228 -0.008200 
0.414615 -7.418726 21.652449 -0.067583 0.997713 -0.001009 
0.553297 -7.406593 -71.132027 -0.076229 0.997090 -0.001126 
1.143254 -7.354978 -70.794586 -0.153932 0.988079 0.002149 
0.942857 -7.372510 -66.347908 -0.119012 0.992892 0.001260 
1.367003 -7.322327 -62.952347 -0.182590 0.983142 0.009635 
0.244587 -7.433602 -73.709740 -0.042642 0.999089 -0.001826 
0.062698 -7.449514 -72.882179 -0.008690 0.999955 0.003899 
-0.154151 -7.441514 18.353458 0.049367 0.998781 -0.000109 
-0.245017 -7.433564 19.117258 0.067919 0.997680 0.004704 
-0.539139 -7.407831 24.463017 0.102177 0.994766 0.000192 
-2.715261 -6.928235 -26.524054 0.366266 0.930510 -0.001097 
-1.875764 -7.186005 -67.988998 0.248871 0.968536 0.001197 
-3.337564 -6.638050 -23.650461 0.439132 0.898409 -0.005001 
-5.904930 -4.514824 -38.989693 0.792567 0.609771 0.004183 
-6.193823 -4.102240 -36.282005 0.822877 0.568220 0.000217 
-6.612158 -3.393089 -22.545357 0.888589 0.458704 -0.000152 
-6.133471 -4.188432 -70.359535 0.823652 0.567096 -0.000185 
-6.044057 -4.316128 -72.352783 0.813064 0.582166 -0.003109 
-6.115578 -4.213987 -68.910187 0.826259 0.563291 0.000686 
-6.776149 -3.041411 -56.890354 0.915600 0.402075 -0.003487 
-7.139663 -2.048713 23.001019 0.962093 0.272708 -0.002652 
-7.242321 -1.665589 -33.562695 0.973926 0.226865 -0.000852 
-7.449633 0.061351 18.835711 0.999938 -0.010990 -0.001917 
-7.383805 0.813760 24.369999 0.993220 -0.116239 0.001434 
-7.056843 2.357804 -26.332073 0.949343 -0.314176 0.006450 
-6.891041 2.795024 -26.727089 0.925797 -0.378022 -0.000209 
-5.449278 5.053565 -65.559563 0.725943 -0.687743 -0.004122 
-4.520981 5.900619 -38.991627 0.610070 -0.792306 0.008109 
-3.786715 6.414757 -38.497471 0.511991 -0.858978 0.004720 
-4.046173 6.233083 -36.335815 0.541562 -0.840660 -0.001477 
-3.364202 6.625628 -27.852566 0.434968 -0.900416 -0.007280 
-3.613990 6.509151 -22.454172 0.484697 -0.874664 0.005688 
-4.202864 6.123366 -70.314056 0.580715 -0.814106 0.001370 
-4.519936 5.901350 -72.248138 0.594319 -0.804227 -0.002143 
-4.278728 6.070245 -68.911278 0.593165 -0.805081 0.000168 
-3.054972 6.769825 -59.092617 0.422618 -0.906308 -0.000000 
-2.207874 7.097016 -63.151405 0.294199 -0.955693 0.009911 
-1.706731 7.231297 -31.802284 0.237420 -0.971365 -0.009043 
15.625979 2.130000 -43.259605 0.000000 1.000000 0.000000 
11.752491 -12.948164 -42.644424 0.707107 -0.707107 0.000000 
1.289147 7.342214 -46.983292 -0.173250 -0.984875 0.002196 
1.874322 7.186391 -46.307873 -0.249016 -0.968496 -0.002554 
3.688576 6.474370 0.731046 -0.490687 -0.871317 0.005714 
3.183318 6.709977 1.085405 -0.432039 -0.901831 -0.006513 
3.074375 6.760777 -50.314240 -0.405940 -0.913894 0.003147 
4.448932 5.951067 4.070417 -0.594000 -0.804453 0.004400 
4.867410 5.635433 3.285662 -0.653339 -0.757064 0.001151 
4.203754 6.122742 -1.583177 -0.572875 -0.819643 0.000077 
4.045026 6.233885 -0.060073 -0.540248 -0.841505 0.000850 
6.268240 3.995963 -58.323669 -0.845794 -0.533502 -0.002749 
6.834469 2.916341 4.236286 -0.915886 -0.401437 0.000661 
7.024306 2.479233 0.132982 -0.943030 -0.332703 0.002054 
7.180025 1.898081 -4.003585 -0.966507 -0.256587 -0.005268 
7.416415 -0.441027 2.390393 -0.998656 0.051680 0.003864 
7.152518 -2.000739 4.595513 -0.961754 0.273911 0.001498 
7.028661 -2.462982 3.658462 -0.944161 0.329479 0.002188 
7.179691 -1.899328 -1.705528 -0.965583 0.260094 0.000506 
7.131053 -2.080847 -0.395943 -0.957844 0.287273 -0.003139 
7.262472 -1.590386 -58.577801 -0.975089 0.221803 0.002115 
6.119235 -4.208763 2.656176 -0.824562 0.565769 0.002064 
5.771625 -4.705202 3.276383 -0.776627 0.629947 0.004128 
6.263579 -4.002619 -1.466413 -0.837943 0.545757 0.000858 
4.119051 -6.182052 -61.105927 -0.558651 0.829392 0.004192 
3.601179 -6.515124 16.570560 -0.485302 0.874339 0.003709 
3.573774 -6.527904 -58.085312 -0.477583 0.878566 -0.006029 
0.658593 -7.397380 -33.181152 -0.086656 0.996238 0.000272 
1.259395 -7.344817 -33.558769 -0.169232 0.985501 0.012148 
0.406785 -7.419411 -47.283802 -0.055934 0.998433 0.001798 
-0.598363 -7.402650 4.659921 0.079813 0.996801 -0.004170 
-2.355866 -7.057362 -2.056639 0.318782 0.947823 -0.003027 
-2.747702 -6.913106 6.657739 0.373122 0.927773 -0.004096 
-4.467653 -5.937959 4.212675 0.594227 0.804286 0.004412 
-4.325559 -6.037453 2.859633 0.578645 0.815575 -0.002619 
-4.838693 -5.664150 3.108567 0.649590 0.760277 -0.003591 
-4.128103 -6.175714 -1.497296 0.562133 0.827039 0.003532 
-6.601283 -3.416410 15.167843 0.890473 0.455007 -0.005178 
-6.689744 -3.226705 -58.323433 0.896114 0.443819 0.002158 
-7.013538 -2.519418 -62.505753 0.941543 0.336866 -0.004319 
-7.377666 -0.883933 -33.707481 0.993189 0.116511 -0.000706 
-7.415739 0.448761 4.779301 0.997578 -0.069423 -0.004266 
-6.913005 2.747921 6.657667 0.927760 -0.373156 -0.004111 
-5.948775 4.452205 4.214550 0.804886 -0.593412 0.004453 
-6.038350 4.324279 2.859991 0.815598 -0.578613 -0.002682 
-5.664615 4.838228 3.108626 0.760421 -0.649420 -0.003671 
-6.164227 4.144508 -1.471781 0.825297 -0.564698 0.001223 
-3.511518 6.556934 15.528843 0.463151 -0.886277 0.001852 
-3.121389 6.738854 14.861132 0.422618 -0.906308 0.000000 
-2.589271 6.986985 -59.355690 0.349297 -0.937004 -0.003896 
-1.053922 7.362793 -48.162491 0.124754 -0.992180 0.003911 
13.653780 -1.993443 -68.350197 0.984971 -0.172718 0.000000 
12.896315 4.896488 -68.569580 0.940337 0.340244 -0.000000 
-13.134192 4.239059 -68.381744 -0.942618 0.333863 0.002448 
3.256161 -7.944856 -81.378036 0.000000 0.000000 -1.000000 
2.082505 16.431805 -21.340761 0.091584 0.995797 -0.000271 
12.091873 -12.608781 -48.787086 0.707107 -0.707107 0.000000 
0.560446 7.405967 -17.934172 -0.071595 -0.997434 0.000378 
0.505139 7.410806 -45.821754 -0.075414 -0.997145 -0.003893 
0.568375 7.405274 -44.154163 -0.073681 -0.997279 0.002403 
0.919137 7.374586 -42.096649 -0.124951 -0.992161 -0.001827 
1.171344 7.352520 -42.817486 -0.158048 -0.987386 -0.009455 
1.681027 7.238184 21.137032 -0.229431 -0.973320 -0.003041 
2.309745 7.069720 10.678190 -0.302831 -0.953027 -0.005756 
2.274532 7.079155 19.348881 -0.307071 -0.951676 -0.004570 
1.301103 7.339985 -13.111868 -0.175537 -0.984472 0.000945 
1.046881 7.363410 -1.611443 -0.135438 -0.990785 -0.001495 
0.711630 7.392740 3.898256 -0.089387 -0.995996 0.000995 
2.103216 7.125060 -40.594784 -0.276893 -0.960898 -0.002230 
2.469087 7.027025 -39.083141 -0.329806 -0.943987 0.010781 
2.527617 7.011341 6.859984 -0.340482 -0.940244 -0.003539 
3.383106 6.616813 -2.339440 -0.449915 -0.893071 0.001024 
3.980932 6.278763 4.731183 -0.536265 -0.844024 -0.006532 
4.122658 6.179527 -34.029732 -0.558856 -0.829257 0.003629 
4.358345 6.014497 8.052949 -0.592500 -0.805568 0.001892 
5.571436 4.931406 5.546817 -0.746051 -0.665876 0.004178 
6.147367 4.168587 -33.010666 -0.832348 -0.554253 0.000510 
6.392126 3.819035 5.143192 -0.858258 -0.513216 0.001331 
6.853163 2.876251 8.272926 -0.915842 -0.401539 0.000129 
7.041075 2.416650 1.652112 -0.947523 -0.319686 -0.001179 
7.244287 1.658252 -32.380920 -0.975320 -0.220765 -0.003769 
7.189041 1.864435 -37.463470 -0.967917 -0.251269 -0.000707 
7.345960 1.246337 9.931974 -0.985935 -0.167071 -0.004375 
7.383304 0.819496 -36.668633 -0.992991 -0.118016 -0.006442 
7.363419 1.046772 -32.685722 -0.990753 -0.135156 -0.011931 
7.404268 0.579869 5.772162 -0.997854 -0.065441 0.002157 
7.424271 -0.351236 -34.354748 -0.997540 0.070083 0.001702 
7.361668 -1.066785 5.117326 -0.989484 0.144594 -0.003629 
6.906684 -2.761476 -3.861102 -0.926663 0.375781 0.009195 
7.086630 -2.246635 8.317482 -0.954347 0.298688 -0.002623 
6.084039 -4.259028 -32.721878 -0.815769 0.578378 0.000655 
5.894717 -4.529408 8.307724 -0.793529 0.608532 -0.001031 
1.439960 -7.302778 -28.331789 -0.194180 0.980966 0.000236 
-1.084001 -7.360162 -41.974407 0.145664 0.989329 -0.003213 
-1.704781 -7.231820 -11.965906 0.237492 0.971389 0.000670 
-1.577797 -7.265845 -6.408719 0.214348 0.976757 -0.001205 
-1.086401 -7.359952 4.069295 0.139987 0.990140 0.005107 
-3.428326 -6.595727 -32.245991 0.464137 0.885760 -0.002321 
-2.609187 -6.977697 -32.180077 0.350249 0.936656 -0.000782 
-2.973034 -6.808033 -32.077255 0.422618 0.906308 0.000001 
-3.631878 -6.500809 -1.652355 0.488058 0.872786 0.006583 
-3.983918 -6.276673 4.753580 0.527956 0.849270 -0.001982 
-3.987833 -6.273932 -34.199978 0.534480 0.845157 -0.006399 
-4.402312 -5.983710 7.936617 0.598453 0.801146 -0.004224 
-5.442525 -5.060318 9.012769 0.732845 0.680371 0.005802 
-5.739908 -4.750499 -31.040083 0.769692 0.638391 -0.005678 
-7.306090 -1.427599 -28.357021 0.981476 0.191586 0.000560 
-7.320042 1.375532 -9.012291 0.982466 -0.186436 0.001368 
-7.363752 1.042967 4.062587 0.991735 -0.128216 -0.004758 
-7.194634 1.843561 -32.455013 0.962519 -0.271183 -0.004219 
-7.163221 1.960795 -36.018574 0.964022 -0.265822 -0.000864 
-6.955590 2.656596 3.334717 0.933156 -0.359469 -0.001205 
-6.602982 3.412768 -32.247169 0.890337 -0.455276 -0.004948 
-6.916584 2.740246 -32.215942 0.931255 -0.364365 -0.001777 
-6.492512 3.649671 -1.666415 0.871936 -0.489584 0.005913 
-6.281632 3.976836 4.765712 0.848002 -0.529948 -0.006899 
-6.267129 3.997549 -34.140404 0.845275 -0.534323 -0.003131 
-5.983710 4.402313 7.936615 0.801129 -0.598477 -0.004214 
-5.060318 5.442525 9.012768 0.680371 -0.732845 0.005786 
-4.750543 5.739877 -31.040167 0.638396 -0.769687 -0.005670 
-1.995680 7.153874 -26.850693 0.262280 -0.964992 0.000321 
-0.564812 7.405585 -10.533631 0.071244 -0.997446 0.005102 
-5.714780 14.214622 -43.391418 -0.363110 0.931745 -0.001367 
-8.172806 12.937840 -53.371914 -0.532544 0.846398 -0.002586 
-14.086797 5.973924 -48.566341 -0.919602 0.392851 0.000288 
-15.008017 -2.943691 -59.497719 -0.975772 -0.218773 -0.002757 
8.172806 -12.937840 -53.371914 0.532544 -0.846398 -0.002586 
14.082789 -5.983150 -48.588596 0.919522 -0.393040 -0.000012 
14.894834 3.440566 -59.532833 0.975060 0.221929 -0.002540 
29.095718 4.052333 -5.940035 0.000000 0.000000 -1.000000 
-4.052333 29.095718 -5.940035 0.000000 0.000000 -1.000000 
12.968587 11.732069 -48.643684 0.707107 0.707106 -0.000001 
-13.333323 -10.321048 -59.481380 -0.707107 0.707107 0.000000 
-12.994249 -11.706405 -43.282356 -0.707107 -0.707107 0.000000 
2.270104 7.080342 -26.347107 -0.298958 -0.954266 0.000566 
2.662762 6.952715 -58.459591 -0.358318 -0.933590 -0.004163 
3.071185 6.762264 -57.636757 -0.409870 -0.912143 0.001309 
4.515774 5.904264 -31.088041 -0.609227 -0.792996 0.000333 
5.769467 4.708283 -28.545361 -0.775688 -0.631115 -0.001541 
5.910525 4.506833 -23.977417 -0.797073 -0.603882 0.001184 
6.373483 3.845661 -29.714529 -0.856476 -0.516174 0.003702 
7.432220 0.260386 -22.817734 -0.999501 -0.031343 0.003909 
7.330317 -1.337183 -25.366381 -0.982559 0.185867 0.005546 
7.334186 -1.322743 -53.503662 -0.983863 0.178918 -0.001244 
5.853507 -4.588264 -31.249681 -0.789058 0.614293 0.005661 
5.126599 -5.376244 -25.406509 -0.691398 0.722470 0.002442 
5.099687 -5.403156 -30.401413 -0.688684 0.725061 -0.000036 
4.603693 -5.842702 -27.515135 -0.618707 0.785613 -0.003744 
4.444714 -5.954021 -22.786627 -0.596430 0.802664 0.001322 
4.030385 -6.244137 -30.307049 -0.556204 0.831038 -0.003777 
2.844727 -6.867864 -5.176266 -0.393827 0.919184 -0.000878 
1.151341 -7.354271 -47.310616 -0.150206 0.988634 -0.006462 
1.754104 -7.218604 -47.486465 -0.245168 0.969475 -0.003432 
1.937621 -7.169430 -43.669914 -0.264127 0.964487 -0.001384 
1.312896 -7.336825 -43.444469 -0.177572 0.984105 -0.002443 
1.448330 -7.300535 -38.987747 -0.192169 0.981326 -0.008394 
1.227717 -7.347588 8.410859 -0.164312 0.986408 -0.001017 
0.085298 -7.447537 -35.261440 -0.014240 0.999899 -0.000177 
0.137041 -7.443011 -34.423817 -0.023153 0.999732 0.000268 
-0.280071 -7.430497 -4.982907 0.043883 0.999034 -0.002394 
-0.575564 -7.404644 -13.100595 0.067062 0.997742 0.003806 
-0.688616 -7.394754 -29.418678 0.079548 0.996825 0.003604 
-2.750854 -6.911637 -29.061832 0.366940 0.930238 0.003501 
-2.507608 -7.016703 -24.614876 0.335486 0.942045 -0.000796 
-2.513237 -7.015195 -58.693264 0.339379 0.940647 -0.002201 
-3.111728 -6.743359 -57.591461 0.418189 0.908358 0.001911 
