0.587532 8.429045 32.883879
0.588321 21.301414 16.060225
23.668218 18.586060 26.703785
19.444458 6.946783 11.598524
7.504852 17.226560 5.517996
28.695888 19.736032 41.233204
35.586452 22.442612 31.031362
0.546455 28.124872 34.891931
23.765970 29.361740 13.684964
17.936430 19.414636 16.698636
12.740916 27.710706 19.522257
14.466455 31.456520 30.502518
5.765685 19.775638 42.565218
35.586452 34.174253 27.776138
16.806902 28.893683 37.691025
14.111483 24.569615 11.229086
25.751539 20.081072 16.388720
5.207661 32.245813 33.450396
26.061184 22.036135 15.979177
16.000475 38.204226 14.014680
8.592032 27.517491 12.394323
15.298327 5.995013 24.222445
9.091581 18.668565 11.640980
7.746455 17.356201 34.873585
7.559300 18.046769 3.592815
3.499230 16.380703 20.814130
19.845857 25.762041 17.116352
28.386456 34.225606 24.517244
32.687729 15.685768 34.772321
0.546455 18.442711 11.333159
19.362828 1.229715 20.956848
21.666456 26.724157 9.484635
14.414410 23.442277 10.737834
18.153426 42.379276 13.924825
28.386456 20.065729 5.469876
21.666456 9.362406 15.016858
8.349854 17.362874 31.739763
19.470832 20.816776 3.274266
32.089542 17.759036 42.969776
35.586452 29.786875 11.269245
2.590208 22.217950 15.964742
22.856426 16.609908 19.961996
11.072027 13.882071 28.994158
16.578751 12.686428 33.802782
16.049544 2.799376 20.343495
18.522528 16.434661 35.594035
15.537612 11.722453 33.959432
3.071869 19.000888 43.580811
7.746455 11.754680 12.459324
5.178868 39.753093 17.701903
20.280463 32.213185 10.163697
25.008197 11.406534 20.689442
14.466455 11.518404 14.733889
12.253623 17.835939 26.015005
34.628062 26.953534 25.655929
0.546455 32.215315 27.466910
12.637846 32.485896 18.147621
7.746455 21.473285 5.726042
7.746455 35.842745 20.819427
33.183303 30.542947 4.335266
12.014556 28.781388 13.200728
31.489276 27.445333 19.000930
7.452400 32.828922 12.225012
28.386456 30.018614 31.619930
0.546455 20.095122 11.752074
6.219769 7.752214 35.952162
0.546455 23.239048 27.952584
20.749234 31.593046 3.468434
24.430323 25.318929 11.484365
26.000631 23.949718 27.698238
7.746455 28.978454 33.848459
35.246855 39.713297 13.801556
35.586452 24.555097 8.058548
12.919973 33.056476 23.561007
28.386456 36.412546 14.585391
35.586452 30.269464 10.125007
7.746455 22.067783 34.201679
1.205118 32.134557 3.762270
35.586452 13.895317 22.514969
14.466455 30.731530 9.167800
32.686126 38.470295 25.536447
8.490178 11.872603 25.394985
7.746455 20.872323 34.161624
7.746455 31.331951 31.432506
14.466455 9.440899 22.965447
31.152475 26.848349 36.219843
18.955171 6.510296 7.617541
31.342615 37.357049 29.721751
33.560960 28.231771 21.947811
7.746455 36.448555 19.270651
1.081332 17.485258 2.174210
28.386456 33.790847 28.759825
35.586452 9.155008 27.142978
7.094558 19.236566 1.490888
14.777921 6.396043 10.639930
35.586452 16.715293 7.939966
0.546455 18.724052 36.865622
2.436326 20.964789 40.285336
35.042970 34.093543 13.545713
24.333477 16.685423 19.774068
14.100899 26.950318 25.660277
0.546455 21.979933 8.245490
9.659420 11.375557 20.981633
7.746455 9.289325 30.704000
8.881599 29.491996 30.131271
14.466455 34.322499 14.743915
1.888733 17.207598 6.310529
3.443944 22.482291 27.943553
14.466455 9.687753 25.506744
26.978584 20.329441 32.719770
35.586452 23.340805 28.386711
4.517478 17.976842 43.567692
0.661851 32.189252 6.577229
16.006843 9.625674 8.831943
35.571640 20.666796 39.008740
28.386456 11.865285 28.415953
29.596997 18.504030 0.169087
21.666456 13.153000 12.604421
2.733589 43.258326 14.642684
15.519231 1.954914 20.640232
1.386167 17.780665 1.195245
35.000420 41.558182 28.809938
21.666456 37.566950 19.053309
30.904484 42.252309 15.809994
14.466455 9.335756 14.327152
6.499179 19.095598 0.454164
35.586452 20.609253 14.929099
28.393320 28.934943 6.287048
17.342056 0.514321 22.590719
35.586452 18.387710 11.532098
8.835248 23.385024 32.832308
19.101383 17.927894 43.441695
5.172285 33.575570 4.802436
33.567231 9.015300 14.992918
30.680474 16.373301 35.511970
17.305505 29.569014 38.561107
30.945578 9.041517 28.062071
8.755628 25.704970 26.843209
4.404579 7.954020 12.733867
4.614487 22.380263 27.952237
21.625630 38.801614 25.727513
27.336927 22.364868 27.953547
0.585462 38.123844 14.496265
6.960332 6.779410 36.249432
21.668713 11.724593 17.358530
7.741310 38.786607 18.198462
16.960050 22.906641 36.854433
26.087911 12.508672 17.002990
17.856639 26.945141 25.667277
35.504100 26.522437 26.148167
17.904648 17.383133 2.410357
1.671465 6.408994 10.859027
35.586452 27.328888 14.329581
35.586452 15.963746 27.576917
17.414636 17.355211 41.369418
17.119653 9.044246 28.472985
31.196864 8.052238 35.847373
29.448742 32.978759 31.490688
0.546455 28.779649 30.192376
28.386456 30.202999 32.803322
21.666456 34.936270 23.667987
5.473334 35.753697 14.221564
5.827200 16.462440 23.485849
35.586452 25.382157 28.085950
0.546455 34.748078 27.347979
25.113870 15.194102 13.635251
16.104571 41.967927 16.086965
19.749745 5.341075 8.841258
32.423171 16.605704 35.835957
25.224368 13.245195 28.159559
35.586452 19.266095 32.968230
6.302459 1.605773 20.787491
35.586452 35.015506 29.086937
7.746455 21.424194 35.142490
3.185253 39.159404 30.069019
26.343875 16.381667 20.809657
7.746455 18.610569 6.006058
17.063998 2.737127 20.362814
28.386456 17.634018 6.229352
5.688284 16.792480 24.421042
35.266187 7.666800 9.048213
11.801828 11.700548 24.814762
5.850879 20.944666 40.339867
16.556968 41.971074 27.842970
6.610413 5.848408 34.001159
18.881395 32.784390 7.777037
7.746455 23.974253 9.342514
28.622717 40.410441 27.917065
8.328080 32.341710 26.147683
34.131254 24.939027 36.037930
32.318235 22.707951 37.019756
4.824550 8.533240 13.557731
31.174103 14.542475 34.096325
35.586452 19.569793 11.757004
26.356935 12.810085 27.446751
35.586452 8.141057 19.096163
14.466455 26.903371 9.212235
32.617256 7.944565 31.203749
35.586452 17.160304 37.248370
14.901376 32.796181 7.749558
14.466455 6.364249 20.765572
4.737343 20.771095 16.151157
13.856044 18.778097 11.598660
32.848529 23.456080 27.826771
20.791868 17.488451 18.323176
19.404365 10.909786 9.630478
15.395708 28.238361 22.102958
35.549343 29.339463 5.828480
0.546455 36.733826 14.735818
6.123688 40.130551 26.445116
17.622905 36.217325 14.288492
14.466455 16.990052 34.175166
1.980916 6.438240 7.601865
1.383168 35.575813 29.730991
19.896376 36.910238 23.627416
21.032543 19.660112 1.471925
33.773093 1.637811 20.773068
35.586452 23.461374 29.393129
5.845424 25.843918 26.749296
28.022629 18.123180 11.804116
1.951409 2.702795 20.373468
9.250274 29.562077 13.855132
5.391386 40.878973 26.941132
1.199262 33.177941 4.382637
16.792214 39.800625 17.674197
0.583227 8.908985 10.599626
34.312442 27.631685 19.325605
35.586452 30.884762 30.919431
35.443645 39.474435 15.169983
27.484197 13.984571 29.112047
17.435472 34.387048 13.731745
27.111867 25.320756 16.831634
4.213767 17.228412 38.330697
3.819615 38.352301 18.480621
32.283355 7.928073 18.484933
0.828793 6.521319 33.232605
33.145784 27.373971 18.885032
0.546455 18.663251 12.720609
31.566035 34.949485 14.003252
20.692134 16.668534 24.158815
0.910250 2.590421 23.497379
9.362230 20.138962 16.368266
31.277318 16.336301 21.020156
15.511033 9.020793 28.890596
35.586452 7.593491 22.751403
7.746455 16.836200 9.025081
21.666456 11.260159 29.318772
28.486358 28.209905 21.433089
35.582511 37.353782 29.540420
0.546455 30.701839 34.380634
17.720128 8.164276 35.801224
19.089607 12.232679 33.851838
35.586452 13.848206 26.884764
0.546455 12.968019 29.223583
1.134601 22.899030 7.067459
11.237473 20.037908 27.524913
21.666456 18.639871 37.652197
3.186421 8.265819 13.113923
5.964697 21.128333 4.084812
28.386456 10.215590 11.499463
7.746455 29.423712 34.956192
1.194243 23.963166 27.694736
35.586452 12.852838 12.843979
15.609750 16.544732 8.185631
35.586452 35.300726 27.794044
35.586452 9.875425 19.695819
28.962383 32.320994 39.768375
20.566940 16.711189 7.888287
4.240396 19.685261 42.697987
28.386456 34.813398 28.751441
31.091951 22.148498 15.982281
0.546455 11.990599 17.553411
35.274779 8.930939 16.594039
2.528522 26.665541 17.933086
29.233980 6.176824 8.039052
28.386456 10.479810 25.247831
5.952199 41.079581 13.785898
31.414086 22.115925 27.952141
1.626756 39.812854 26.259799
35.586452 21.737835 36.671933
35.570182 38.546259 16.900001
30.544514 3.329968 23.733876
0.546455 9.918324 24.861217
29.472472 39.750167 17.703643
7.746455 33.231749 13.531203
0.546455 35.150817 14.858341
7.746455 13.163861 33.756248
32.727169 42.801601 14.008695
2.579111 9.473637 35.181819
28.386456 30.088657 8.781622
28.386456 36.325826 17.353810
34.296043 10.388369 9.308555
0.603283 4.387880 20.921003
14.466455 29.238669 31.957701
25.194166 11.785006 18.812034
34.751948 5.551376 34.596970
7.744062 17.398512 38.073272
35.579320 37.660261 14.976414
21.666456 9.713503 13.490264
30.065682 1.909077 20.657595
24.172039 28.574706 13.055104
0.546455 18.799830 28.977055
33.665642 6.714787 24.514585
20.071837 33.649238 3.832507
35.586452 20.950731 33.443719
16.768999 24.228797 7.737762
35.586452 31.408268 34.162096
3.872136 16.748146 19.617976
34.743850 21.379056 39.028517
2.123156 30.736886 39.770938
29.928770 7.196695 11.899038
35.586452 30.023946 19.291527
14.804100 7.018437 11.684687
7.746455 22.019615 8.947922
7.746455 26.110224 9.071171
0.546455 34.393647 18.819627
17.015258 38.700507 13.924208
4.019689 5.525067 9.275376
9.437215 33.097577 20.753546
18.258303 41.522273 27.446517
13.233224 19.058067 16.897827
17.845702 28.076588 7.056378
33.536373 7.473505 12.211827
14.515088 32.272233 9.321479
33.539325 22.072460 27.948441
21.551908 31.150557 5.961058
0.546455 15.601221 31.114813
20.752575 16.699141 19.739929
35.586452 10.982892 32.096532
6.784352 5.624571 19.805931
28.835364 33.382993 5.289736
33.441736 17.222902 5.427420
19.129989 38.020877 18.748320
7.746455 35.524288 24.468909
12.292646 33.173874 21.769114
19.274857 23.043621 27.895776
10.530019 28.101125 23.269520
32.103390 1.205178 22.958978
2.677323 6.367639 10.794754
1.506390 32.260089 34.543338
6.866186 37.212552 24.214405
21.666456 21.145477 10.471885
21.666456 37.824153 26.259726
28.386456 12.869992 14.184011
19.583359 31.856963 3.278397
6.077843 20.399720 41.528556
16.003144 32.326681 9.043220
7.660195 30.831645 37.900775
16.630066 16.754225 36.121262
28.517180 27.114840 18.464177
35.586452 20.486118 28.296491
4.717462 3.204249 20.223752
7.176946 39.327699 30.087464
29.937553 17.196195 4.956215
28.441776 23.638785 36.420241
0.579800 15.484154 34.627483
35.586452 15.599057 19.986229
34.706945 0.901709 21.754797
6.912322 5.466526 34.965367
28.513124 28.627202 37.363796
4.791737 20.902338 40.454567
24.810124 25.731490 32.324154
28.388231 20.977717 27.810232
30.413895 19.314554 0.729258
16.259155 5.882525 19.743007
18.613464 5.284861 35.222903
7.454953 22.453001 6.673500
0.546455 17.466852 10.048488
14.466455 35.998319 16.578810
28.029046 32.963925 24.301775
17.908139 10.127084 9.137304
7.679699 39.303483 27.587886
21.652825 29.849032 37.183391
29.943947 0.001543 22.180096
6.718131 13.188396 33.794432
3.881744 41.126783 27.129515
23.429208 14.884391 13.898321
18.231033 6.210694 33.376043
35.560683 19.457507 4.912193
21.666456 10.959877 32.370647
35.480077 18.881389 26.903392
7.746455 30.909630 33.928654
13.721189 25.706148 17.071221
34.046802 11.719294 9.966228
1.968458 8.191008 13.009056
21.377206 40.826307 16.538539
18.460452 19.943130 27.482071
0.546455 16.660571 28.907155
0.546455 36.190924 24.880230
35.586452 10.611742 22.689241
21.702662 10.936718 22.427300
7.746455 17.535867 6.710563
35.576963 38.223827 25.342484
33.263067 34.918866 13.993598
0.546455 17.145367 6.967195
5.199850 21.367124 4.862993
27.436857 16.464285 20.426311
19.438099 23.772211 7.565840
21.666456 28.281754 9.603297
31.615100 7.195321 11.897387
5.788582 18.469887 17.330637
21.499662 18.212409 40.216157
19.230232 26.216482 26.441401
24.838966 16.378337 20.825107
30.923933 26.519910 26.150589
27.166872 26.900309 18.199835
14.466455 32.697510 12.168272
26.889742 25.598315 32.366568
18.051596 8.288121 30.775941
2.525661 11.963213 33.908063
30.517558 36.624813 22.691889
2.867500 8.708684 29.995359
0.546455 8.207957 23.747599
24.452806 32.756457 24.968235
27.801453 20.682426 16.176248
32.391538 18.175389 17.568428
13.517972 29.705361 13.976839
31.188039 17.237254 37.887080
35.586452 34.438135 25.313983
0.546455 16.122169 21.713364
34.063346 33.476753 38.479537
3.575840 43.163294 29.151837
12.135173 31.648118 16.415120
7.746455 35.300505 14.381084
20.377368 40.207532 13.777746
7.746455 22.885223 7.540036
12.754432 24.072447 11.189062
2.398467 17.337479 2.650868
35.586452 17.194943 6.435906
7.746455 9.557191 11.827403
0.551704 5.448213 22.836342
0.546455 35.205684 19.658505
18.551190 16.442782 20.526084
7.746455 27.520454 9.094074
28.897774 17.187240 39.305398
4.411054 36.051496 14.264554
24.451337 20.965614 27.807081
33.343438 22.840206 7.028308
34.543504 40.533076 30.152056
29.791272 8.142764 25.679153
29.709031 23.461357 7.427903
20.037358 8.779299 35.537007
16.026082 26.087846 26.564689
21.666456 25.547814 10.452270
6.264269 33.134368 12.655499
7.684194 8.097421 25.622189
7.746455 28.507661 8.313072
35.586452 18.305509 37.813906
31.948677 5.422634 34.886400
7.746455 32.839991 31.425511
7.746455 16.212434 32.634700
31.876080 24.547053 27.485294
35.115597 26.816008 7.720428
28.964056 37.358585 24.443630
0.567780 31.776805 36.264464
21.541831 39.669643 16.091959
14.466455 9.556032 18.920459
2.929647 21.037778 3.839384
26.028344 32.200808 17.471531
3.403044 32.451448 11.400241
14.606956 19.478480 3.671656
28.344525 15.725996 12.735680
33.139767 0.675670 22.681342
32.685600 25.130364 27.221621
3.393332 33.538003 38.855512
21.666456 36.237144 22.734319
30.454190 16.554855 20.099000
20.397995 33.552422 2.804813
7.746455 35.820491 22.955058
3.675229 21.044484 40.069378
0.618164 5.020097 19.893900
16.558840 20.610504 41.119150
7.273123 32.416463 39.350732
0.546455 11.295304 23.121707
14.466455 21.302252 9.000029
1.610978 8.433899 17.814934
30.138541 33.305271 12.859209
14.660658 5.108426 24.043439
7.693406 7.958599 31.187807
7.746455 14.203346 33.637360
14.466455 10.823167 33.417307
22.087643 25.012084 27.275088
9.954485 24.469726 27.520248
26.853406 19.395737 16.709193
29.190898 42.384783 28.445151
29.213610 38.343639 18.487617
14.466455 25.060017 33.429502
21.666456 10.795583 13.744997
6.612927 10.439470 9.342043
35.586452 27.742637 7.568991
33.111309 23.750141 16.155259
0.546455 12.985707 17.684626
21.570994 8.579512 9.992117
29.775387 31.700050 40.535492
1.952316 0.805808 21.177112
19.419728 5.450217 24.094443
12.288184 17.758907 18.015878
6.599178 21.659766 27.913315
19.442592 38.639713 29.992224
7.688562 4.413509 20.315917
14.466455 22.839306 34.604280
35.586452 13.056730 10.176831
3.876931 26.468029 26.200313
33.002939 5.031225 35.938299
14.200252 12.382320 17.050526
29.993690 38.906244 18.142215
28.386456 35.691228 29.543696
7.746455 26.784081 36.160008
23.861383 14.300602 29.454858
25.504067 18.793298 32.333246
21.579348 39.832553 26.489322
4.755821 25.943688 17.263022
22.013102 21.592733 32.915865
31.952242 32.328132 34.891076
32.028378 23.979888 36.268881
7.488802 32.675457 8.030695
1.192983 39.622276 30.119750
33.416386 21.324715 4.735792
34.383554 30.705780 39.742175
30.375974 18.433545 26.587764
0.546455 25.265368 30.625722
28.038920 32.275642 26.420005
21.666456 10.114922 32.951531
7.706846 32.340900 11.033758
34.631696 42.647060 15.055762
20.649608 33.507518 40.491953
34.421950 36.608888 21.359178
29.207503 14.606569 9.800178
0.546455 26.837981 32.564992
35.586452 31.782573 12.198281
19.596280 37.795822 14.110803
28.525173 21.039903 3.845085
15.409546 16.538346 23.733705
22.871771 23.590534 16.127892
7.746455 26.792367 34.588516
0.546455 24.705233 12.719035
21.282277 18.083689 41.276822
10.064234 11.481058 23.817611
32.463311 28.233053 21.978008
14.477030 38.259640 27.497316
7.520780 23.974761 7.655719
14.466455 21.779980 6.111217
19.182967 33.479694 5.429289
22.802273 17.635812 25.780364
10.307806 19.546566 27.302813
14.486777 8.632770 11.527923
28.084227 32.729356 25.293244
0.546455 30.566823 7.934197
11.899568 13.440733 28.432762
5.235847 8.180531 35.794405
29.486064 1.156254 20.992862
23.835162 25.784767 26.789275
35.586452 23.563566 34.753367
7.660653 7.496974 18.899582
13.605086 18.119889 17.613241
14.466455 19.247010 6.951808
7.746455 37.315778 16.838937
2.765096 37.352764 24.434493
21.217736 2.238542 23.149969
9.558190 32.865448 19.424132
6.820917 16.568556 23.832353
15.021849 17.689161 25.852497
17.692656 40.229662 17.423946
8.584935 32.667643 18.663709
3.720252 17.767332 0.931161
6.112053 25.582839 7.923914
0.546455 7.835359 22.572137
33.112863 33.015486 41.342744
13.263896 27.273028 31.668157
35.586452 28.424182 6.822973
5.524766 4.131371 23.907634
3.998959 21.308890 4.683230
18.868060 18.866994 43.733567
4.097255 9.047224 15.506919
14.466455 15.403038 11.622861
31.285714 16.371577 23.135764
8.949035 16.311213 22.664373
2.322799 15.392932 34.564452
15.840505 37.863485 25.041541
28.425757 38.112815 29.714982
5.371670 19.919616 16.445766
10.454291 17.655555 25.807059
3.596822 12.888293 10.132908
11.801356 14.057942 14.735241
28.901891 32.599944 4.533558
4.756339 42.709812 28.605244
12.747202 15.142478 30.247776
18.708110 25.617861 16.999934
28.173081 17.093537 12.180745
32.427783 17.265657 40.754610
14.466455 9.157573 15.949728
24.756420 14.905362 30.046367
28.400396 9.160291 11.084494
3.853468 17.694283 42.767353
20.623322 4.643722 23.988363
0.546455 33.513082 19.383806
30.309005 0.590710 21.290236
35.586452 11.426387 26.904844
19.410994 9.050870 8.523823
23.711483 20.804227 11.132091
0.546455 23.897545 13.363661
21.113217 32.232537 9.542933
1.487238 16.502004 20.251295
20.687451 33.301026 12.854910
3.463081 33.642498 41.073169
20.519880 39.500274 26.089853
7.441006 29.288370 38.210057
30.275873 29.491186 5.457710
0.553999 21.188316 39.003807
14.466455 8.758100 25.978008
35.586452 12.015306 20.776226
6.182135 4.920103 24.021119
14.466455 31.306400 12.360701
31.345309 28.945160 6.171467
0.611429 38.366370 29.928959
14.651771 21.195616 39.619869
0.546455 8.694622 21.297456
16.617093 15.370543 9.377895
3.622499 34.598799 13.838641
19.080552 39.343948 13.837630
21.666456 17.900454 8.014292
18.143426 8.996280 14.907127
1.780890 25.975635 26.660271
7.746455 21.295703 36.149274
35.586452 8.055778 25.387819
27.119277 33.037376 23.717969
17.120076 0.716807 21.223929
8.913691 31.279302 28.120836
28.386456 6.585485 21.863748
35.586452 12.928007 19.455861
34.752873 17.538587 25.648907
0.546455 31.957765 15.386941
20.712043 28.203096 21.272802
15.954448 36.614484 21.290277
30.996904 38.908538 13.888471
25.666513 12.122952 17.854807
0.546455 35.532243 28.220220
14.609824 38.538202 13.952089
14.466455 15.918433 34.315920
21.666456 13.103109 13.684238
7.723955 8.408281 32.190950
26.420515 14.937791 30.073913
0.546455 10.981351 29.788127
7.746455 12.882318 12.016741
3.584441 37.036853 20.004248
0.546455 11.397953 16.156087
35.586452 11.437396 17.178689
35.560267 10.455009 9.352231
21.666456 10.996921 25.722650
2.519008 16.587984 20.016556
7.591419 28.028164 20.403728
0.546455 16.132556 29.901607
20.578430 38.527482 29.972945
22.822076 18.738203 11.613234
18.924442 28.341897 37.101709
19.178901 6.809955 36.240814
0.546455 32.783527 26.233468
9.799214 17.948262 31.998900
23.788352 12.014118 18.140148
0.546455 9.556283 12.698940
0.593646 33.746717 13.293068
24.031688 11.381198 22.998455
31.260505 33.653120 40.748871
19.363638 33.477671 13.033772
32.486749 33.659755 40.439879
28.386456 36.606212 16.223038
6.140839 7.743933 12.499355
33.059861 23.530400 36.468335
17.602972 42.097523 27.966128
4.817744 1.707468 23.185177
17.717194 25.438405 16.897356
13.767093 16.394701 12.742429
15.165963 32.937954 4.078160
35.586452 36.975146 18.508071
17.098830 36.584353 21.661283
15.477654 8.234341 13.067162
11.124475 25.630883 11.569428
7.746455 8.150016 23.372672
14.468606 32.038064 8.299251
35.586452 10.258874 31.078748
2.661518 12.478418 10.115013
28.084365 32.993224 19.628237
32.773930 1.357040 20.899509
14.466455 10.748249 10.608707
1.678625 37.674013 19.097354
1.509684 17.199077 5.006648
0.546455 21.186867 11.874796
15.692074 17.297303 2.923222
30.478702 5.398936 34.944287
21.489982 24.510896 16.422163
6.949073 24.372252 27.564310
14.466455 10.337969 13.922201
21.666456 17.495608 35.831199
7.689244 29.259176 5.755943
18.618628 3.589203 23.797288
2.514563 21.495384 27.899324
17.052837 42.653535 13.979295
6.225319 2.279382 23.409557
31.131444 8.186152 25.743653
15.447531 10.429852 9.335742
4.644066 18.072763 17.659269
35.586452 26.525900 15.187775
28.502917 20.458095 40.234171
6.217211 32.667867 8.048366
29.317239 16.571395 35.776905
32.339329 41.650793 30.098593
28.386456 32.660939 14.878841
17.858679 40.767668 26.861019
22.650491 33.041206 23.694201
14.466455 36.400745 21.914654
18.240754 32.905020 12.332263
35.586452 12.721708 21.750642
31.212479 32.797284 7.746989
35.586452 28.088801 12.006064
35.586452 33.657843 21.105660
17.382639 41.014939 16.882384
28.386456 21.114215 7.427044
9.858818 24.110907 16.280837
1.673972 7.474564 36.049136
28.863714 39.773898 26.237107
0.546455 22.225797 36.020042
35.586452 23.149620 10.040220
30.763706 40.685314 17.120874
6.698815 36.660367 14.283259
29.642176 11.959031 10.017942
33.369090 8.331038 25.959033
16.964856 26.467676 26.200651
28.386456 16.484027 9.321060
2.049087 5.962206 33.797978
4.650292 17.420776 41.714837
0.546455 28.489224 13.838482
22.800435 29.689201 13.963112
16.436163 17.440563 2.107791
0.761733 26.384953 36.101973
25.000859 23.680626 27.768304
35.586452 9.412793 21.116981
1.064708 20.278277 2.169309
35.586452 14.805100 23.373385
13.132083 24.290726 16.344372
17.772254 32.946961 36.558666
14.003234 28.171135 22.781254
28.386456 17.691661 8.805863
5.287916 0.317254 22.471236
33.643389 27.315693 7.513451
14.466455 11.958076 13.818527
3.923546 33.634669 39.726095
22.568546 15.397533 30.464422
6.322988 11.650283 9.939638
3.683722 16.547874 35.745448
34.530907 20.806222 27.765578
18.595555 37.709123 14.131204
18.169097 5.607314 7.451410
12.871973 27.231768 25.279731
14.491937 17.049621 7.075803
13.746629 17.423985 18.396760
19.499014 21.111227 39.888487
35.586452 16.623699 15.921283
16.163264 16.770466 24.377380
0.546455 12.963596 18.826482
0.546455 16.021052 24.277751
31.536541 25.386857 7.930941
35.586452 31.819673 8.336136
9.428657 32.680613 25.220095
7.987049 21.025165 32.944779
21.666456 29.055126 36.223185
21.666456 21.244033 5.389084
21.666456 32.908770 14.270387
1.741027 32.711175 35.979374
20.133922 24.806499 7.876520
1.280632 30.264263 39.326237
29.728994 41.955710 30.059808
24.105723 28.142950 23.001354
27.344326 27.734668 31.412085
33.731870 21.438191 38.853234
21.666456 34.029161 13.511970
21.041967 5.600899 24.117347
19.545750 42.660375 28.550845
2.315535 15.148708 9.531174
14.463553 17.250712 32.303620
35.586452 10.302260 25.339279
30.086272 6.065898 7.522125
35.586452 22.870694 35.604303
28.386456 33.501406 17.435676
1.154602 1.697288 22.927282
20.375959 8.428234 30.543411
35.586452 36.548490 21.221613
33.965249 42.201661 28.067550
33.571958 20.942552 3.581283
11.886000 11.644610 19.366241
0.802046 3.044397 21.870922
4.172596 21.591653 16.010459
3.917725 23.940342 7.640446
5.946134 28.171928 21.070799
0.546455 11.791063 30.657026
34.483680 17.930831 0.514436
14.466455 7.429365 22.299099
0.546455 29.088392 37.185935
8.921011 18.507741 17.300072
30.463736 21.744225 27.920504
21.666456 28.187883 32.923635
16.555439 25.357767 27.077877
0.932537 31.990883 4.758918
11.989966 12.916721 16.302895
14.466455 20.705291 7.922764
7.746455 34.168986 20.950047
0.546455 14.923734 9.700603
28.131240 26.333759 17.577982
0.546455 29.285037 23.570479
11.817911 23.554684 27.801096
9.914852 21.193298 16.078764
35.586452 36.185718 29.034337
2.408967 43.201174 29.444762
18.531805 24.642459 27.442168
2.258927 38.141160 14.029543
26.139981 26.455910 11.890864
21.666456 32.025444 8.503105
30.234728 27.950458 20.118901
35.586452 27.896939 29.797210
28.386456 31.603420 34.255362
27.089888 11.379818 22.985440
4.440468 33.644108 3.962234
0.546455 16.296742 17.619314
30.735504 36.475692 14.286713
7.254945 18.677150 26.765351
7.746455 31.370383 12.891403
8.307085 20.693198 16.172442
18.362370 33.626580 39.630515
1.158271 16.672533 35.964333
35.418537 3.574195 23.075801
32.212635 7.295783 31.908635
30.435831 11.304597 9.806447
35.586452 16.654389 28.436606
25.106004 30.381745 14.672730
23.454388 15.026156 30.148971
2.812742 4.585616 23.981476
34.942924 32.563769 4.059311
35.586452 16.940819 10.596645
31.477532 39.651037 30.122320
21.666456 8.611373 19.542486
0.596429 20.115573 4.276958
10.663501 16.135700 12.913970
17.240519 33.655089 40.657170
14.466455 17.601553 33.265183
0.546455 10.661311 14.415904
14.298064 12.120183 26.503118
20.874795 16.932607 36.495471
14.466455 20.789411 35.365957
13.588162 16.409979 23.314545
0.548319 29.383691 6.757823
30.691746 27.862485 24.048762
20.713108 13.947004 10.016617
28.424065 39.330202 17.588211
7.746455 29.960715 11.255879
35.586452 17.557892 27.205040
28.386456 29.181644 35.706730
4.191539 19.899984 16.452702
32.344107 29.732771 38.754526
18.648112 21.112223 4.041117
7.950270 16.312560 31.308399
15.974119 21.301320 39.268772
28.386456 20.241243 6.763147
19.173457 17.764919 0.938703
24.121241 20.007103 27.510988
35.551195 18.337834 4.918825
3.406267 17.380429 2.424583
18.061252 40.387077 30.153959
0.546455 10.700507 32.896856
2.057581 16.261647 22.277300
25.141725 26.984489 12.114256
21.666456 28.800658 35.122810
33.392048 30.262335 39.324222
7.746455 34.294912 23.931736
28.629605 8.662400 30.111160
14.491848 31.311956 7.267148
13.947255 33.068016 23.488287
17.444995 5.746345 9.734013
14.471716 17.191705 37.515185
17.390623 21.028499 3.814222
34.563168 39.293874 30.083757
35.586452 20.568914 10.174391
28.546472 14.617653 34.131953
28.418620 8.705875 32.916951
19.239153 18.441961 0.043198
22.642340 19.702185 27.373157
17.183841 32.866241 7.586446
21.576822 30.216486 38.263100
6.986707 41.855323 29.541091
0.546455 15.292769 14.329657
35.586452 19.051702 10.044031
12.551835 33.091696 20.698073
30.769184 10.631402 34.466036
19.939444 41.398038 13.809529
28.869301 6.758131 9.044327
0.546455 16.027216 33.693642
35.586452 26.657946 28.864244
0.546455 28.378038 6.901225
14.466455 20.310115 36.439935
34.070391 37.383510 29.727066
21.624900 20.871937 4.422628
5.768329 37.936883 29.849283
7.746455 14.270055 30.537329
7.570524 5.604835 24.117946
33.370984 40.907320 16.964195
6.372471 33.655424 3.285306
18.273530 1.255243 22.981524
0.546455 10.565270 13.396541
34.607298 42.358893 14.094231
30.488181 26.043923 7.892250
7.746455 25.426647 33.832877
29.513539 25.887030 26.720158
18.575674 18.742010 17.110912
16.782951 33.221215 2.609344
7.224213 1.966307 21.010550
14.466455 29.248488 36.869875
35.357918 30.288563 39.288388
22.094385 30.085661 29.598963
14.513576 30.434541 37.711414
28.386456 16.049239 11.477018
10.447022 18.647048 26.745005
19.260466 42.091744 15.966378
7.700717 38.979589 16.126004
0.546455 33.114697 21.684698
32.481301 9.037184 15.328134
30.664764 32.451722 11.401150
33.638234 10.238674 34.716450
33.031389 2.711743 20.370692
7.746455 7.776383 20.072152
7.746455 23.407577 35.300408
15.089514 41.581959 14.851290
8.372483 16.286463 21.455370
16.685753 39.787245 26.244889
35.586452 11.377096 29.242737
14.466455 13.544090 33.706893
33.924648 9.343949 35.255923
27.544417 28.209306 22.483168
15.835877 32.526092 35.529462
19.621804 32.329848 9.027031
27.412833 18.232469 26.395049
4.628992 29.563272 5.372530
16.577870 1.276015 22.990878
4.444562 32.446220 11.382909
19.001496 17.226799 3.534522
10.895352 32.110392 17.271860
14.466455 30.301506 31.076730
27.491827 23.252596 32.839489
24.805257 11.489067 23.853997
35.586452 30.683147 35.403797
28.386456 23.715879 8.584041
14.466455 11.990026 33.850397
34.713644 41.944643 30.061311
0.546455 19.687430 37.895544
15.587111 28.476046 37.218617
28.386456 20.987757 10.366338
7.746455 20.463467 9.661815
7.746455 13.010247 30.419899
25.704038 32.660476 25.286964
35.586452 17.583065 29.968007
14.466455 34.389512 30.190312
4.770155 19.175860 16.832024
15.367164 32.222547 9.863375
33.617472 33.545986 5.022367
15.095899 27.293188 18.753833
32.321621 32.226413 9.739385
31.757112 11.879982 33.925429
16.737253 24.358784 16.368418
6.135994 20.752488 3.128129
28.386456 20.952243 37.569254
18.496542 42.796947 28.701112
32.291449 26.448759 36.116955
19.820731 17.240190 25.245448
0.952983 8.827105 14.227805
27.563683 27.511089 19.107725
16.889152 25.293573 7.922194
14.466455 8.549306 24.878638
28.217858 15.015415 13.545842
21.666456 23.805072 33.959034
35.586452 9.353487 13.071626
14.282545 25.940556 11.504138
2.675922 6.783065 32.542936
15.119486 23.388131 16.093186
6.186749 23.215003 7.274339
20.226295 6.543990 11.057938
14.466455 13.544455 11.323397
7.746455 25.893966 35.084865
28.386456 29.191549 32.396996
16.582127 33.540019 5.058985
28.386456 33.780411 26.045537
14.466455 17.161123 10.169303
20.385527 20.539662 16.226690
11.371070 17.447537 18.369664
14.457975 21.095248 33.332971
20.589979 34.848262 13.964576
14.499686 9.018425 27.844962
7.746455 18.079786 10.472864
2.854826 42.164803 15.895224
29.557175 7.457163 31.732463
2.670055 16.857275 24.549556
29.340215 24.995961 27.282375
14.577621 18.286048 4.112547
31.623063 33.513241 13.069788
18.523862 8.706640 17.273484
29.701929 29.002884 37.827829
0.546455 16.405402 20.621202
3.137345 16.279531 22.416959
14.081321 27.584938 24.658844
14.466455 25.298156 35.981965
7.692934 32.486382 36.612029
7.746455 15.107354 33.203577
22.643325 32.806909 24.768689
21.001807 6.370389 35.286987
7.930825 11.513404 19.180283
21.666456 21.381592 36.744757
15.715540 24.185442 16.307172
29.378706 27.508423 7.419686
7.746455 9.068099 22.817784
0.546455 6.378322 22.044414
34.443484 7.777684 12.535248
28.711577 2.742489 22.091511
32.273943 22.540633 6.753800
28.386456 9.946821 28.457623
19.529014 17.198196 37.556505
15.638252 27.588008 36.556506
9.218479 15.122812 30.231072
27.274313 19.006781 11.531011
35.586452 20.885786 37.301709
18.887345 28.225839 21.808186
34.881479 33.506307 4.392450
21.659061 20.167095 5.222039
13.525227 12.131212 17.836565
4.980460 17.402662 2.307449
0.546455 7.455599 21.612875
3.334539 6.321725 33.203478
18.006053 41.992268 16.063261
7.178472 27.114162 25.438745
0.972389 18.665220 41.585087
35.586452 10.207724 26.943332
7.157571 37.898360 25.079597
25.174511 17.393097 25.452191
7.457589 18.049034 40.845198
7.054925 27.498951 36.501319
21.643629 30.337395 6.773530
32.976895 32.254484 34.514696
7.746455 23.120810 34.052182
28.386456 6.280486 22.832519
16.299496 27.015065 25.572733
6.143453 41.593349 30.102856
7.746455 9.291830 23.876505
34.676989 6.783850 24.551638
4.829320 39.380734 30.093277
20.693890 7.662756 31.513834
28.386456 35.126371 21.592475
28.386456 37.872813 18.827699
16.735317 41.631421 13.826847
30.569155 26.275411 17.530870
0.546455 17.600239 17.415711
33.814894 24.855951 7.881157
29.013013 33.093648 6.959583
35.586452 20.010295 34.064439
28.386456 33.136699 29.854028
5.360793 15.954723 35.031399
14.466455 21.449092 9.991655
14.760898 17.534880 18.270422
4.805884 5.014158 7.893266
7.016142 40.937225 13.780090
0.730240 19.504781 3.346919
16.740504 37.318949 24.381415
21.229108 33.376830 5.927107
2.642545 17.367857 18.487917
12.097826 20.623810 16.196958
35.586452 22.593749 15.940552
16.756526 16.482332 23.550804
25.831217 16.258251 22.119522
14.792101 7.967359 8.677942
28.401419 38.440052 16.668548
33.172092 5.768445 9.779826
27.145563 20.726345 27.744780
18.420486 23.802207 16.171766
7.533537 23.403513 27.840458
4.273178 6.544192 32.868663
35.586452 29.419727 20.126040
0.546455 27.735643 32.103723
0.546455 18.208454 14.555639
24.240753 21.971888 27.939881
0.546455 14.577239 27.516942
21.302331 19.600205 16.594970
35.586452 25.778182 12.004793
0.546455 10.377670 11.539787
0.546455 17.426424 9.023914
21.666456 26.193496 7.894571
13.873524 15.201955 30.299025
35.586452 16.560348 14.910666
14.466455 9.149743 30.979310
0.562655 38.476294 27.235667
16.605535 18.635727 0.010453
10.595475 18.986205 32.390272
10.220642 19.562199 11.380035
29.762767 32.531068 2.850113
15.870161 26.429017 17.664344
3.940976 39.883764 30.133532
0.710267 7.830866 10.092477
0.546455 32.280497 28.770942
35.246585 40.338863 29.415122
0.774370 19.529166 40.844974
28.427111 32.904268 12.331202
21.419145 23.970143 27.692920
8.055714 20.659543 11.086261
7.249256 15.223255 34.447212
28.386456 10.081214 12.741590
0.760139 39.923703 28.973814
7.746455 20.655051 6.337980
30.756394 23.934636 27.702165
19.672389 8.781218 14.112997
18.940299 39.120120 25.898165
5.047762 11.730790 33.956558
18.661112 27.667579 19.414931
0.546455 31.269991 29.360976
4.255639 5.728747 34.229330
30.202737 33.606276 4.497778
7.652991 39.848362 26.629049
0.546455 30.167512 24.674354
27.837365 30.393877 14.679983
16.769583 24.263481 27.613477
17.669166 27.744939 19.607448
21.666456 27.772469 34.954406
35.586452 28.000002 31.627419
4.882711 4.646075 19.938209
22.484904 20.406008 11.192628
32.510782 28.116442 23.208358
32.790190 27.383557 25.058259
18.336953 33.649904 40.898602
28.949782 41.475585 28.832164
31.162368 21.089438 39.947478
21.666456 30.407203 11.560637
35.586452 32.722592 18.292413
35.586452 28.165335 32.891231
29.319160 12.701222 33.802136
14.480291 10.672502 9.485884
30.258348 31.269321 3.710828
0.546455 20.013568 6.585364
20.437772 17.203899 6.334071
19.869048 23.944832 27.699510
6.901311 21.342415 16.053195
20.949298 20.751349 27.751291
15.756644 19.282024 43.239680
15.764378 42.798950 28.703292
3.993424 32.692274 35.935361
33.335200 17.644502 18.145867
6.038933 35.592799 29.728539
29.194125 16.525893 20.171075
15.755220 23.603314 27.788434
35.586452 22.265420 29.474423
5.004472 32.523628 32.313218
32.828093 41.695810 13.831762
0.546455 24.304397 11.600367
35.586452 12.693365 14.361609
25.123066 22.691672 27.925731
17.412060 23.343547 16.085542
35.586452 25.462430 9.449728
32.419187 28.072879 20.611207
34.678818 23.988457 27.688151
2.731634 14.570560 34.109635
33.370928 7.027217 19.244667
29.151989 17.582429 42.389666
22.551965 20.689738 32.779501
12.557908 18.882243 11.564863
15.788403 7.367278 12.098871
35.586452 27.385645 26.881457
26.789757 32.709465 25.124286
34.330671 15.555426 34.676729
18.592677 32.123858 3.104562
14.466455 34.756406 22.027930
31.174957 21.028554 27.823469
28.386456 15.424799 31.522027
2.400958 33.513549 38.705402
15.037300 21.060218 3.900144
17.095386 4.609273 23.984294
21.666456 33.549045 15.138371
0.546455 15.183095 10.876591
0.546455 20.313585 10.728485
14.489375 24.530677 27.492697
2.848385 32.799850 12.178206
30.607048 13.752551 33.861559
15.966889 36.759631 29.645474
4.556408 27.489823 19.073186
21.666456 16.641762 11.090635
3.551608 15.131593 34.383878
14.417535 32.760865 26.095479
35.586452 27.168730 9.881100
28.094950 29.766259 30.012972
21.666456 31.885445 31.749655
9.175409 17.382397 12.177627
21.666456 35.949555 18.615067
12.598799 16.560906 23.807371
29.216893 7.208510 7.798515
33.305003 23.942498 7.641403
21.666456 12.969286 31.310581
10.549059 26.717782 11.995204
14.466455 34.117391 19.204336
35.586452 29.442356 7.647657
28.386456 36.184445 22.526528
28.386456 31.233950 7.929626
35.586452 29.627692 35.661336
30.724151 9.488039 8.753288
0.546455 20.828909 36.552559
13.733772 16.876742 19.297950
8.314039 21.796828 15.982631
32.037788 32.661349 35.863333
0.546455 37.682831 18.706854
0.546455 10.997822 31.356518
2.599066 17.207079 5.147960
1.266689 8.756508 29.875703
15.668696 32.508848 32.343427
16.412547 22.002892 6.145431
16.074114 17.061706 18.985136
35.586452 21.556271 34.431866
7.699450 8.768625 29.845387
33.324900 17.480034 25.569738
20.129033 37.492216 24.626092
0.646354 39.551451 16.314421
35.586452 19.955451 31.668929
5.132319 24.985992 27.286882
31.947554 21.860623 37.983010
32.660599 26.020604 26.629135
14.667426 38.284238 25.391279
21.666456 17.828652 6.902174
16.835780 8.827163 35.513396
28.386456 36.383000 21.400021
5.576743 17.514752 42.123080
28.386456 10.728249 20.382262
7.230338 27.003564 7.642739
2.913512 23.937218 36.287816
34.771411 16.723621 24.284468
31.122823 0.001016 22.106178
3.404830 7.195874 7.794945
14.538666 16.252506 8.576459
23.656164 16.337681 22.871064
7.746455 9.147555 17.742365
4.054049 25.083113 7.902458
1.929660 5.124625 7.759699
29.562931 37.488315 29.748116
1.125904 17.392871 41.567827
13.480182 16.003581 30.925401
6.895176 8.490754 30.439654
13.728833 16.411354 20.671907
35.586452 32.269293 19.836684
2.573376 13.058569 33.786535
3.563466 17.412120 25.477912
11.877543 32.964765 19.875331
11.261448 24.753577 27.391940
21.664229 10.648065 34.134840
4.137227 7.194304 32.030713
35.586452 7.073191 19.877636
15.156387 19.787037 42.548479
25.009038 33.158900 21.331974
2.835707 10.304198 34.673487
20.260124 9.041403 28.060997
9.734608 28.211902 21.480103
33.382386 18.101624 43.822000
16.560701 40.645033 26.779093
4.567985 31.376800 40.302735
2.985489 25.410803 16.881937
7.746455 30.990627 10.153132
14.473422 29.947751 6.963519
13.282313 12.101970 26.025733
6.843539 0.856350 21.261819
0.546455 26.429158 35.053814
6.973260 33.577517 39.733421
0.546455 29.528844 13.305744
29.597496 20.685305 2.975406
0.546455 20.756324 30.972800
21.666456 13.501952 30.189742
21.666456 16.617399 8.279368
10.448877 16.449647 20.494229
0.675259 37.193223 19.742811
7.746455 20.255870 5.413649
19.894501 32.784614 7.776527
21.571168 39.092493 28.771734
1.785255 28.236868 22.067803
25.010207 31.957640 16.943104
7.562820 3.460693 20.791416
7.746455 9.244681 28.264783
28.310251 19.923688 10.970798
4.299368 36.603311 21.427855
16.513264 15.999772 35.074794
21.731804 32.565943 26.435991
29.201483 40.611075 17.170470
1.780016 16.993250 36.679762
7.746455 29.397356 10.264176
5.744087 30.514132 4.361911
0.546455 22.199272 31.134528
16.980410 36.807535 20.538921
35.586452 10.101743 13.944810
20.073408 27.324823 18.805210
7.574225 9.995023 9.050718
31.426255 26.556405 7.784643
14.123536 18.056207 26.226115
14.957672 31.933344 4.239490
21.595052 12.918610 33.792645
19.656766 16.270037 8.553013
14.466455 35.719877 25.475784
21.641393 8.041832 18.363853
2.223299 22.611632 27.932544
7.746455 10.006190 16.122746
34.971194 6.526426 8.689820
30.534922 20.993345 3.718921
0.546455 16.238685 8.788964
18.150859 17.222785 5.425318
34.765845 33.598577 39.864046
23.422108 29.844677 29.821898
18.146479 24.011866 7.672184
35.586452 10.016263 27.947253
6.420060 6.354994 33.151773
27.460284 27.801068 24.230177
14.513422 38.587131 28.892805
18.418881 28.998052 6.105313
29.660708 15.935478 35.012861
14.466455 34.627007 27.836704
1.795610 24.186882 36.200066
34.022140 7.376121 31.818640
6.817852 17.215543 38.629286
34.407074 28.062057 23.397091
14.466455 22.242370 35.407411
14.184488 21.242684 16.070296
31.640383 17.816434 0.777556
13.540775 20.367171 16.287635
0.546455 14.051669 28.837022
28.541371 34.115873 13.561979
20.213679 40.179132 30.147762
21.666456 14.632327 32.231665
0.546455 22.282212 15.552977
4.636915 8.936447 14.637235
17.500301 6.244265 10.603009
3.915562 22.319941 37.378753
20.078512 25.453100 35.994052
5.108354 16.898776 19.249751
34.331207 12.996105 10.137615
7.746455 28.150390 10.641575
21.666456 18.961438 6.952642
0.546455 12.404759 16.634268
28.893109 6.002214 10.200329
6.617950 18.972177 16.945808
21.611031 21.800715 27.925312
16.869458 27.896525 23.937611
30.938991 5.030291 7.873759
8.908933 26.590793 26.082653
21.666456 30.853019 31.566680
23.758620 11.359396 21.134068
32.079959 19.803140 16.486920
10.751750 17.504270 31.808463
21.466868 3.320157 22.424969
0.546455 30.135623 23.023524
26.803606 20.528607 16.230596
15.719843 33.424964 2.768880
29.886944 32.654336 35.847005
28.386456 19.201542 5.978720
22.660053 11.406947 20.685553
7.721001 9.928671 34.201114
20.696067 21.536395 5.343650
5.633678 8.624428 26.474179
3.743800 26.240319 17.502535
35.586452 28.818534 15.244683
5.044733 38.632849 13.935813
9.879064 17.534171 18.271228
14.466455 24.283083 35.667692
7.746455 23.134062 8.744478
2.959197 32.224702 3.040900
23.780106 13.924896 14.879560
19.340680 33.651334 40.832199
34.625580 8.708066 13.929972
18.479145 16.922568 24.679056
28.386456 10.606896 17.214977
0.546455 17.264448 12.304683
35.586452 8.640743 20.321840
0.748861 18.161065 3.454349
1.677942 40.661851 26.790327
13.675181 14.091574 14.698759
28.396356 5.325304 22.232831
35.586452 21.918762 7.905835
34.959324 19.116458 1.588108
0.546455 29.866181 26.892750
0.546455 17.389365 15.247178
35.306772 32.303303 10.909117
16.016118 20.100588 42.056265
31.167169 29.848415 38.891105
35.586452 19.712955 13.922128
16.981245 17.221448 5.401711
0.546455 11.044565 12.369941
17.001099 8.222008 25.796954
13.941341 17.400284 25.461909
28.386456 18.978792 33.583152
19.619148 4.444936 23.964357
26.903945 30.993745 15.414184
5.401268 42.077297 13.883586
12.708372 20.490509 32.750224
0.546455 14.878248 33.310724
33.031220 11.751448 9.974629
30.338888 36.943657 20.221541
32.336414 9.011678 27.781529
26.489954 29.369028 13.691155
5.469206 0.310231 21.459915
21.666456 12.060130 13.808485
21.657662 38.277642 16.611472
35.586452 31.333699 26.667269
28.256058 22.612540 15.980531
0.546455 25.575313 32.804220
32.310125 40.485462 17.254386
16.961405 38.934910 30.042934
18.700809 20.218351 41.858304
20.111182 11.377573 34.092311
35.497464 17.220433 38.543085
21.481539 12.302543 10.089616
24.304018 28.205024 21.318184
7.746455 11.623397 30.236374
35.586452 36.605605 27.617037
35.586452 36.628884 14.678693
1.668422 17.573443 25.696036
18.722374 31.158170 3.801648
7.545183 17.822628 26.002248
31.056452 32.062015 3.143594
0.546455 27.669585 30.217827
35.586452 8.731640 31.561278
35.586452 25.543338 30.109368
31.622179 21.126501 4.079752
24.536715 26.967168 31.821036
33.764219 42.504881 15.547135
10.415838 27.759497 19.643677
19.141905 17.415024 41.684535
15.572916 20.346097 2.294169
34.535309 7.942996 18.469050
21.558722 31.238409 37.862164
17.823365 33.447541 5.614821
7.711705 38.227531 14.777806
35.586452 12.227587 15.441261
14.466455 9.951004 29.866806
7.746455 10.554518 18.067829
0.546455 16.118635 16.229126
28.408306 18.586766 5.169910
21.666456 27.912302 8.458720
35.586452 30.742319 27.815562
21.666456 9.697536 26.768766
31.011328 33.444202 5.629567
16.127896 27.102859 18.444719
28.406526 37.170902 19.777848
0.946816 41.320639 27.461193
28.347748 12.953664 15.508704
32.069826 8.650766 17.395283
1.710165 16.043562 35.116977
12.068114 23.530804 16.117650
1.828751 33.660771 3.534304
22.761701 23.579896 27.794532
3.637843 17.394491 41.576361
0.546455 18.965351 27.118538
27.861474 28.940358 30.607573
28.386456 26.791126 9.568814
7.664433 28.186247 6.960813
24.702475 17.333759 12.201258
7.746455 15.755528 10.894036
21.479467 23.360755 16.088492
2.458697 20.242914 27.617582
14.466455 14.375362 12.205519
16.392294 29.714190 5.194311
34.203559 37.126325 14.251467
30.868795 42.669383 13.982442
21.690954 11.496341 18.332987
5.462246 34.711436 30.031373
25.024295 32.355076 26.114664
14.797980 2.750216 20.751636
10.528763 25.910595 32.253285
35.540205 39.433662 17.706267
12.943199 28.910964 30.624805
28.504704 3.918920 23.615902
6.517969 26.480658 26.188209
26.905510 29.813110 29.852622
21.623855 10.017794 9.233928
35.058820 7.668436 31.507802
0.546455 17.352946 13.982011
18.092263 38.841769 13.899941
14.466455 9.742431 26.795185
0.546455 16.495682 27.754763
14.466455 27.071186 34.826289
34.912972 38.288896 29.931995
3.804485 33.011018 31.445223
30.759768 20.492634 2.578786
16.779695 38.506187 25.560011
35.402664 8.347472 13.249433
33.083192 39.427099 13.828517
7.687463 18.576170 17.244819
16.388331 21.051607 3.876826
21.666456 6.912887 22.919144
23.565408 32.866434 19.428611
9.531514 27.977071 23.674598
35.586452 9.705535 15.934386
11.935996 22.634191 11.053860
15.324594 26.686116 25.991293
28.386456 8.962066 12.674787
4.790290 39.865314 13.794232
21.496593 8.445521 34.603482
34.896263 37.894663 14.087531
35.222121 33.088531 36.953051
0.546455 11.867607 10.777921
22.168057 11.325742 21.595435
34.907768 6.477281 35.480561
24.424818 20.065103 11.257085
20.646079 9.487404 8.752937
30.678227 17.989224 0.327314
14.466455 16.051217 10.479451
0.546455 11.506300 28.754237
22.574585 19.338536 32.486044
35.586452 27.426837 25.721555
34.986579 16.390474 20.768792
10.506821 32.774785 24.907373
17.237768 17.221751 40.315238
28.386456 31.826376 29.775472
2.376846 32.374027 11.143580
1.676465 41.920428 16.133236
35.586452 15.817859 33.481808
32.490576 35.607446 29.726425
23.454478 11.488206 20.076793
15.633043 8.414597 35.696214
0.661953 24.797718 27.371987
7.746455 13.011051 32.049681
28.386456 11.855869 31.400061
23.780238 18.218555 11.820281
21.304786 7.528742 34.994883
27.069101 25.426594 27.031358
1.045730 37.256517 29.701559
31.798468 27.995337 7.117955
14.466455 18.072552 35.135533
17.904548 7.114723 19.192893
21.666456 25.074322 7.988183
28.386456 28.576300 31.587359
19.376138 27.553996 24.720215
29.614548 8.988066 27.559537
33.682914 6.545121 7.625111
31.292229 32.960407 2.614378
21.650303 5.194118 23.187882
20.743139 21.012701 3.771422
7.666082 39.754929 17.369590
14.466455 16.777276 35.506731
14.466455 9.971651 19.948247
11.526877 22.025206 15.972930
34.633843 36.781454 23.323496
13.951177 22.648419 27.929413
26.030180 17.062070 24.955743
0.546455 30.088784 12.355938
0.546455 16.842267 30.717237
7.746455 34.064111 16.785568
11.874909 20.793386 27.762236
35.586452 32.245237 33.129225
29.533224 3.372106 23.744184
7.746455 35.717394 18.454425
2.468060 35.869138 14.238229
21.666456 32.328920 15.305625
7.746455 17.345390 35.908254
0.546455 22.564319 34.636486
35.504481 32.962107 31.514157
20.902577 25.242060 16.787672
1.524134 32.919459 12.352612
22.586127 16.263600 22.292548
4.260958 32.543297 2.843370
26.539757 30.103671 14.371094
32.922062 9.639290 35.087140
28.386456 11.856503 32.427982
32.337383 8.136278 8.113908
14.466455 19.609271 8.345380
12.182629 12.000004 25.747657
35.586452 6.489637 20.732831
4.800761 21.793934 5.823201
15.531718 33.557721 4.950327
14.466455 26.459264 8.023096
33.379945 29.487345 38.464674
2.353320 17.796969 0.838499
28.597074 19.137070 3.213934
14.466455 34.868452 18.067671
1.551053 40.256489 13.775387
14.632905 3.594767 20.153791
35.586452 15.888639 25.779996
0.546455 15.083431 17.282295
7.447510 33.869442 30.544409
9.697167 26.470247 32.030299
30.171331 4.421375 23.960071
28.733130 16.368841 23.114401
19.976548 16.378700 35.519192
17.072371 6.575447 7.631703
35.586452 14.429381 28.915577
0.546455 28.674930 35.886560
7.746455 11.038288 32.395378
3.747523 28.172046 22.774138
19.370000 7.458793 24.997997
34.300943 40.605382 26.752603
35.586452 12.564812 16.423093
7.237017 17.093606 36.984741
23.090886 33.164463 22.505207
0.546455 26.873865 12.652329
23.426197 22.454702 15.977552
7.746455 10.191992 31.854948
3.010632 33.659125 3.582700
7.746455 5.869712 23.027553
21.625307 38.374881 14.836619
14.487354 5.091000 20.741170
28.437870 29.425032 38.290714
28.386456 10.922617 18.331826
20.504725 12.985512 33.789724
9.879679 12.445125 26.783550
19.660220 20.038289 42.160996
2.515155 26.098830 36.038395
21.666456 11.156292 9.828238
28.636158 7.887375 9.262698
18.205984 6.957267 11.611132
7.746455 19.381195 10.330863
0.546455 31.109740 20.678855
13.043665 28.599460 13.071499
7.742003 30.854874 36.397926
30.504575 32.725938 31.899732
0.546455 9.535226 22.226620
18.736557 37.323645 24.388787
1.584925 21.222522 39.530441
35.586452 35.147681 16.279297
21.659187 8.725791 11.877643
15.011721 28.060126 23.403394
24.476925 32.682264 18.712263
7.541746 40.128296 28.323836
35.381661 18.554032 40.573123
33.433262 32.676099 8.029179
7.746455 30.921352 29.698015
34.784398 32.030135 3.212735
20.257228 16.373865 20.845860
32.358636 30.728592 39.763268
7.705995 16.286821 22.473884
14.384857 14.051011 29.617541
28.386456 33.597674 15.670385
31.957097 42.471401 15.583976
29.847165 41.877547 27.752615
14.466455 35.066583 26.282724
31.974964 39.642760 13.804954
