28.386456 11.168347 26.981713
7.562857 22.555890 37.159094
17.440076 32.850835 36.304541
0.738196 39.479370 14.194938
30.535371 28.488904 6.697054
32.565910 23.932658 16.226646
30.820773 16.006381 35.081161
35.412458 21.187795 27.867200
33.775708 14.812394 34.224244
21.666456 34.426958 27.104996
17.015258 38.700507 13.924208
17.134749 36.726596 29.644856
35.586452 10.968519 14.273968
33.287510 32.290539 9.227923
7.746455 33.982537 18.667226
5.668844 8.763895 14.069656
35.586452 11.545020 33.927541
35.407355 39.231241 30.060226
35.031207 41.409341 28.944174
21.634875 34.307245 30.235417
18.156304 21.432880 16.034810
3.124575 38.776176 13.911199
20.838172 2.120995 23.349558
19.877129 26.501830 7.797458
14.473954 5.957825 19.717184
7.746455 34.022245 28.264065
35.586452 28.252093 22.020459
30.242303 18.115520 17.643583
12.156762 29.333911 13.661326
34.278791 7.663078 18.766985
28.378154 17.208034 11.711425
16.498016 41.115285 16.806102
2.185804 7.844653 31.317249
31.336191 8.467236 30.478684
35.586452 34.485133 21.144634
14.524935 19.291858 39.620361
28.702571 21.347127 39.123156
3.680633 21.746927 5.738148
2.960250 18.886496 26.906002
6.914611 31.959040 40.718270
35.586452 31.723294 34.615228
19.104426 16.982161 7.280812
32.771392 1.489698 20.839769
21.668985 12.087726 16.574591
35.586452 20.696029 10.020824
28.399949 38.068180 15.730865
7.680863 28.571777 6.621926
32.772767 8.268323 8.169301
15.339353 1.495949 20.836954
19.710794 32.476428 32.443820
0.569066 10.257496 9.340528
19.583243 32.377688 11.155715
32.883438 22.745399 36.985442
0.546455 19.886409 38.383236
2.882186 36.630989 22.716791
16.990908 19.299112 43.217586
7.596891 3.695382 23.515353
7.746455 34.983387 25.063829
32.465010 7.227911 31.990259
34.691086 23.684680 36.399876
4.171929 5.022893 7.882704
30.636032 28.629011 37.365717
0.546455 15.989262 19.843559
5.545714 15.262997 34.474672
15.077174 17.189813 39.083835
25.999372 29.479205 30.142136
21.666456 7.891913 22.448498
5.510469 5.603217 9.437355
14.466455 8.695151 17.765071
16.771916 36.323397 14.289561
19.376718 25.141773 36.018918
2.416539 15.892434 8.955479
16.889152 25.293573 7.922194
32.912766 20.181735 41.919857
0.546455 37.430776 15.050955
34.171162 23.087572 27.890042
11.033032 16.862966 12.459144
4.902201 19.804424 27.418748
28.386456 28.026991 36.415592
32.213709 19.809293 16.505858
2.733589 43.258326 14.642684
7.768107 32.863867 26.045101
14.508182 16.622140 35.867530
35.586452 25.219481 8.146103
20.287415 17.083686 36.954592
35.586452 23.022799 8.792750
7.746455 35.999145 28.685241
2.823604 34.197788 13.621650
0.713886 16.254695 21.894430
33.249924 10.299847 9.250537
0.560728 8.898164 32.520208
5.393388 39.119936 13.862181
5.119939 8.813105 26.903791
35.445367 9.247267 35.258623
6.520950 24.201668 36.196203
18.713741 23.941342 7.640890
18.143191 9.761502 8.909570
14.550500 29.826014 5.493239
35.586452 14.651301 19.606913
25.443521 29.012335 13.388178
15.309348 9.039537 15.883426
13.817955 14.873480 13.907590
31.898501 17.233495 6.105254
17.746369 16.683899 35.986168
0.548319 29.383691 6.757823
19.086559 19.736269 27.386967
7.781300 33.507543 23.080395
11.280762 16.316219 21.191205
30.614468 39.472732 26.075938
35.468043 17.112466 18.877806
14.466455 24.048581 9.285065
35.586452 9.937450 18.611212
28.386456 35.872402 28.852240
16.804355 4.959008 24.025730
35.586452 16.511162 8.405168
14.517977 4.517795 23.686742
1.303557 42.170585 28.037288
6.611774 17.790084 43.066926
16.672598 36.567804 22.061817
0.546455 27.618778 18.685154
29.212289 21.187159 27.867030
28.386456 33.523137 15.103133
23.932329 20.967731 32.816612
31.369179 37.666971 19.105234
2.357559 16.455605 23.437476
21.653469 9.110728 32.744999
3.191915 14.527093 34.089035
16.205846 7.187485 32.038888
14.222473 16.853418 19.390382
35.493807 16.340093 20.920497
35.586452 18.298835 34.541527
22.209879 19.675596 11.345383
14.466455 36.123137 22.230182
16.641778 31.137868 40.108641
31.461451 21.699372 5.652104
28.430746 19.251699 39.399578
21.633920 31.245171 36.887521
1.905382 22.841956 7.029912
28.386456 15.608183 10.406984
35.586452 15.978395 15.653313
22.454138 25.623213 11.567076
7.716801 30.647727 37.158933
4.115199 6.858366 32.440257
7.746455 28.472698 9.399603
34.017697 26.717244 7.746877
28.559431 8.514103 34.714217
20.256404 28.185916 21.246308
2.458697 23.298068 16.056608
0.546455 30.956422 9.829356
4.096683 25.563971 16.988071
35.307185 22.035778 37.739675
10.134204 25.610366 26.906318
28.386456 24.297566 9.080047
0.546455 6.769170 19.656042
17.494626 8.977147 14.820824
34.529374 5.735208 7.788906
27.739099 32.660417 25.287160
35.586452 36.507481 22.144992
14.255431 13.392377 28.585488
14.466455 18.613220 36.461561
16.331538 38.348018 18.484081
19.598864 17.033340 19.004539
28.386456 9.994098 11.253926
35.586452 28.783684 28.471688
32.472906 4.100051 23.901950
0.740014 40.408881 27.212935
5.304786 40.000521 30.139157
14.561682 29.753764 38.572159
11.747293 26.313570 11.834151
23.692937 28.181420 31.132253
16.997056 0.000074 21.973778
14.466455 33.995729 21.409988
7.746455 9.229444 29.683948
8.135465 17.668478 18.090626
21.666456 36.270970 28.215858
0.609934 17.944632 39.387673
28.386456 32.107675 34.368719
34.443686 41.314079 13.803296
13.522570 29.456402 30.161505
19.474743 37.102768 19.884797
5.969108 32.273782 10.688931
33.110875 32.502936 11.570932
5.704630 32.473404 8.532153
35.586452 20.003645 33.398590
17.750240 13.698779 33.855161
21.487904 8.354571 9.329262
21.666456 13.429897 10.398876
19.473024 36.591818 22.357507
28.647037 27.885202 7.186203
21.140513 10.560031 9.417348
28.882641 27.012378 25.581014
0.546455 13.627524 19.504203
7.727403 18.953885 5.155981
29.703753 2.241483 23.395199
16.076380 11.121397 9.735862
21.666456 19.239327 8.690262
26.181058 16.663217 24.128605
30.531091 21.779026 38.130650
21.282086 30.951168 4.203905
27.725548 16.302460 22.578404
7.863369 23.990395 10.938059
7.205660 16.373293 20.796593
24.503847 17.216353 25.197436
5.033588 11.555298 34.023835
32.933508 9.005073 28.980090
7.034454 19.511412 1.257055
5.535727 23.195186 7.261364
27.769275 25.991848 11.705965
2.919362 24.946686 27.300401
32.701392 43.249411 14.617638
19.504205 16.398056 23.222698
18.055043 21.550195 5.375715
17.327407 8.902195 29.444144
21.666456 7.396981 20.439786
7.746455 30.384450 7.799222
0.546455 11.461528 20.806462
4.655643 23.201717 36.661235
3.024820 17.190421 39.836639
2.262342 24.744350 7.870692
0.800152 23.794960 27.737127
31.820625 17.141278 25.090219
12.154046 12.304858 26.473789
14.783340 41.026272 27.232873
0.546455 12.125048 17.923256
33.516863 14.356693 9.898588
7.781930 17.439649 25.516336
28.602172 17.229699 38.276340
30.790508 26.892286 36.238043
11.128985 33.048730 20.292798
35.586452 22.415114 6.862834
1.448849 17.419081 41.705906
19.859731 26.588839 26.076248
28.386456 8.912466 16.879403
28.386456 28.648115 33.977375
32.495141 37.912843 29.843609
14.615869 39.092731 13.969033
29.045311 9.006723 27.734944
35.586452 29.174581 17.090695
10.392141 20.081495 27.547948
35.586452 9.441634 21.081585
14.466455 37.532466 16.583721
30.631738 18.714103 26.785290
17.025750 41.113542 13.788416
33.714325 25.150283 27.205463
32.319303 8.980064 14.833979
4.512865 23.257721 27.875156
8.636570 23.791023 27.738181
21.588808 31.908935 6.729241
20.392811 2.207381 20.544596
14.541813 7.973720 32.964455
3.199495 38.403770 18.439048
1.187583 8.943034 29.259929
19.649109 9.033443 15.261532
35.401910 34.977566 14.012106
25.618217 13.300999 15.687825
28.386456 21.769528 6.373987
28.386456 34.584992 23.901317
18.687948 35.661079 14.208194
7.746455 17.741541 34.214099
3.684022 36.751939 14.281547
28.747418 30.867032 4.265894
35.586452 32.823255 19.959337
21.666456 31.087034 34.393637
17.487700 23.722520 36.383085
21.420681 7.815720 34.558635
21.666456 20.759051 6.847407
0.546455 17.489094 17.856804
18.013409 33.017314 12.490527
0.580705 26.305492 26.359594
14.466455 10.089987 33.062476
15.015655 7.322751 24.893609
14.315056 21.368958 10.877350
28.281256 11.085101 22.708072
6.862879 20.764175 27.753691
32.548141 6.942379 11.593229
26.708105 27.692877 12.491611
30.167185 16.867618 19.359932
0.804990 17.446670 25.526362
14.466455 36.000590 25.900974
21.666456 27.692046 33.522222
27.700966 29.599673 13.887067
31.539339 5.852879 24.173702
21.866714 33.240912 20.660709
19.276688 3.834717 23.853957
4.743577 7.381631 18.988087
7.716350 22.187618 6.380055
0.939699 33.470184 30.900686
18.847714 9.723863 35.038819
21.096387 19.732720 27.385312
7.516178 38.931925 13.884452
18.903837 31.328283 3.662645
2.714915 18.005497 17.753607
30.042679 38.810375 30.021549
35.561146 17.674653 38.630153
35.586452 11.812259 27.664001
6.396775 5.495616 7.434180
24.521780 27.502976 12.386272
30.259553 7.807262 18.613521
21.666456 29.574107 8.536576
14.811450 20.475247 41.381861
20.927459 38.351327 25.445468
19.697541 40.780263 17.057442
17.828016 26.651871 26.013215
3.941357 8.658827 30.120098
7.503038 30.709223 39.149441
6.454078 21.332581 4.760604
21.510180 29.073423 6.004616
11.028650 20.914289 32.809478
28.456676 37.773003 18.986584
2.846421 19.931166 16.449028
32.631467 12.549482 10.118115
5.092809 30.896006 39.911012
21.290125 18.433113 41.315414
7.746455 34.073201 16.459568
17.663218 2.711792 20.370676
29.921156 21.109676 4.034160
21.666456 10.111247 17.289435
3.195026 17.533395 1.730370
18.192982 37.220081 24.226223
7.578731 32.651071 37.515172
10.012393 19.653166 16.578661
21.569344 16.788522 19.529553
0.559423 28.199986 21.407129
30.247637 14.388661 34.037500
31.019426 33.371258 5.951713
19.267390 15.601138 34.708314
30.557540 13.900469 10.030023
11.401712 14.765820 13.999037
14.466455 11.292901 30.248632
34.625580 8.708066 13.929972
35.586452 32.662529 23.227690
21.666456 12.295095 31.928512
21.666456 27.403984 9.614184
3.080553 2.203518 20.546059
17.715818 23.880525 27.714200
2.152892 7.593698 12.339600
2.108226 0.001759 21.716436
32.924621 16.585895 20.003152
19.464836 8.819368 26.926599
5.017299 21.601545 38.451779
6.046774 34.948712 29.923868
28.386456 21.933568 8.724472
7.612253 13.776321 33.864387
21.666456 16.606361 10.898238
28.386456 30.405886 36.337600
30.688818 7.672857 12.423790
1.583252 41.798298 16.242541
18.810423 38.623884 25.630438
35.576060 9.646764 33.275018
21.666456 33.925562 16.399056
13.663663 23.906103 11.160527
31.988258 39.433140 17.870875
0.546455 31.774851 33.242142
21.017029 7.155694 32.077140
7.695601 38.904289 25.783593
25.649270 22.823231 27.913169
1.621791 21.195606 27.869293
19.172166 28.081617 23.288537
33.582834 38.900157 13.889911
0.546455 25.880191 34.541745
29.828945 6.053371 10.291669
15.782430 22.031650 15.982424
0.561654 5.224595 23.474152
16.748762 33.863391 30.548817
30.751985 40.726312 30.149537
22.907247 16.494217 23.581576
17.371665 15.293317 9.431255
21.666456 29.253873 10.818585
6.225283 41.171151 13.792693
18.695700 26.474269 17.736059
5.869308 18.368978 0.055770
35.586452 11.145804 11.950341
7.746455 18.248212 36.991689
28.102662 27.534795 31.618064
15.642902 38.370201 25.460713
0.546455 29.041731 15.049040
5.258730 23.644416 16.149411
28.484082 16.506125 35.689612
11.715002 30.924620 15.326254
0.546455 31.768005 35.625077
8.469910 32.311372 17.715698
16.247561 15.792277 34.874919
8.051390 11.470585 19.794146
28.504188 19.474364 3.841088
0.546455 32.271525 25.354950
14.466455 22.343104 6.683246
6.438937 16.334393 22.943396
28.386456 36.045393 17.397354
5.987961 17.442666 18.406232
18.565915 34.804931 29.984175
14.466455 8.927478 13.945407
2.629801 32.228936 9.658450
2.775309 16.143236 35.212990
11.899568 13.440733 28.432762
17.034455 7.309257 19.043622
31.642898 26.602759 26.062327
15.107261 39.749471 17.704046
19.330109 8.906603 29.424261
0.546455 21.622491 33.977982
26.846427 26.857664 25.801967
0.546455 22.841953 11.033788
3.560966 9.927500 9.006458
35.581780 21.406837 5.046401
21.666456 9.066547 28.808826
32.318471 8.381873 17.892274
7.572829 7.796802 33.907705
0.546455 22.087850 37.574468
6.603112 23.261072 27.874863
14.466455 7.776076 22.902240
18.218681 18.396862 17.363720
3.056501 30.763203 4.131605
3.023085 5.590320 24.115739
5.445817 2.255823 20.526245
5.816178 33.532532 13.089321
0.546455 18.591808 9.865803
28.386456 15.214352 34.041553
14.466455 20.687114 35.707122
12.440219 17.981374 17.777730
35.586452 22.507711 29.478621
32.515241 28.070815 7.061409
17.691291 43.177398 14.415314
33.597196 36.876128 20.378991
21.666456 6.723778 24.170135
7.746455 37.068327 24.175837
35.561298 7.808064 12.169100
30.534870 7.739473 25.241204
20.892184 23.923883 16.224294
11.524190 23.997384 27.682887
2.916032 26.580135 26.084951
35.383552 5.664164 19.799912
17.277725 17.371947 25.419648
25.682110 27.887736 31.326766
28.877939 41.440485 16.550827
0.546455 15.023642 10.033920
35.586452 32.301219 32.203141
35.586452 15.720812 27.765950
0.881409 27.348062 36.426832
0.546455 30.611186 30.039135
34.784398 32.030135 3.212735
16.956058 32.527297 32.305720
7.746455 24.322287 8.040522
35.586452 20.107074 7.650261
21.666456 16.617399 8.279368
30.811104 22.876254 16.018346
14.466455 9.216520 30.409159
2.677095 39.712597 30.125286
31.172500 20.177637 2.000127
11.309345 29.448084 30.168571
3.940233 32.808270 12.195415
21.586187 29.811582 38.405567
35.091397 20.334392 41.655443
15.880628 5.004405 36.017229
2.926020 11.639287 9.935402
1.291338 31.711835 3.382899
18.310734 8.859435 16.854390
0.788330 13.945459 33.909814
14.468817 30.380646 36.616437
31.136114 17.300115 41.025787
28.468055 13.133770 33.787932
35.586452 29.861908 26.710942
35.189375 31.055188 39.722243
28.386456 7.050375 21.528412
35.586452 28.872545 14.964692
24.039336 32.834519 19.283617
21.607475 4.396551 20.420541
4.376138 27.467077 24.915683
32.619742 21.069209 40.002305
18.019642 32.228621 9.668552
20.388845 18.349435 17.409669
35.586452 11.429638 21.359385
35.586452 20.070989 29.650421
24.406852 16.745316 19.622209
17.133967 42.102772 27.971240
28.387755 9.591661 32.911942
26.218721 12.038128 18.073686
30.486012 11.306632 9.807231
12.611514 31.950714 16.929779
21.666456 13.933594 33.103215
7.746455 15.755528 10.894036
0.546455 32.058667 23.052781
35.586452 19.915959 37.954085
6.846910 27.435898 18.950712
31.936759 1.931793 23.277882
7.633713 39.627241 16.242871
1.089014 16.983661 7.276252
21.666456 31.967979 9.462957
7.745365 32.247869 35.413821
8.938031 21.805164 16.002239
14.466455 23.714514 35.867318
28.020441 16.915227 19.257833
10.864855 16.917605 19.252734
13.562351 16.830352 12.477236
5.223385 4.453596 23.965829
12.296166 21.697569 27.915224
1.426409 8.775901 14.099694
3.343381 31.833279 40.631426
29.363603 9.736086 8.895027
9.748756 12.072040 17.979809
21.666456 16.169320 34.692473
0.577781 10.207481 34.700189
27.905412 19.277145 16.754002
7.746455 33.629742 14.396656
33.949694 21.242617 16.051456
31.575656 38.814889 13.904559
0.546455 15.137125 23.723707
27.454366 11.450286 20.276762
33.370717 0.612651 22.648209
5.270769 38.215892 18.590801
14.472817 21.284810 4.973381
18.310954 28.248259 6.906771
28.386456 29.794882 7.878123
6.255107 43.098151 14.856140
35.586452 15.551319 30.096883
35.586452 29.208091 12.987910
28.386456 17.643477 33.825363
28.386456 35.697948 25.950772
28.386456 23.045876 36.466897
0.558630 31.964853 7.939148
35.586452 15.462018 11.670744
21.666456 23.693680 34.923859
20.859169 15.139209 9.537738
21.666456 9.926029 22.266821
18.260167 32.226156 34.179243
30.350138 32.217050 10.039709
35.179178 30.336064 4.526561
35.586452 9.470661 29.840393
14.747467 39.797113 30.129296
35.586452 28.719562 24.691405
21.311640 21.184643 4.270565
3.275162 34.397142 30.190035
14.921060 32.141239 39.426083
7.645499 32.913582 7.124754
25.026175 14.579479 14.176181
32.614940 28.285334 37.052416
19.759292 5.038435 19.891733
0.546455 37.399341 28.045068
5.228522 2.207279 23.382244
12.733504 27.588382 31.493229
2.553277 36.867250 20.399690
27.484780 12.917919 16.300904
6.967423 9.903316 34.936226
14.466455 9.639904 28.406585
32.716851 42.736986 29.931025
28.386456 26.468791 8.808955
33.398055 26.243014 17.504804
5.026482 16.365279 20.826501
21.619319 17.204548 38.823290
34.903850 1.821055 23.235932
12.391412 11.344117 21.278187
24.145405 18.435323 32.192963
0.546455 15.389141 32.188591
21.232621 22.915935 7.078528
0.546455 15.041689 25.808361
9.375383 15.389008 13.469696
16.171164 32.239877 34.440046
35.586452 33.906515 28.117521
29.114748 1.648620 20.768200
34.472063 36.759360 14.281408
7.433664 29.950975 4.927957
33.381566 17.191257 4.077468
30.073629 41.151485 27.148292
0.546455 8.734917 20.404161
28.386456 31.698157 13.153920
35.003342 23.386411 16.080279
35.586452 11.097739 31.325700
0.546455 32.637581 28.023192
35.571268 10.077783 10.046422
0.546455 30.006404 11.969247
28.386456 10.902182 16.596151
0.546455 27.335052 28.170729
0.546455 28.938360 8.955976
23.966777 31.416068 16.029452
22.026690 32.368482 17.719060
0.546455 16.724722 12.169815
17.081436 39.157658 30.068828
7.709471 7.357357 24.920163
27.883358 11.654015 24.642743
0.546455 23.376136 35.408869
29.415383 33.618767 40.464311
6.539523 18.777922 26.829977
29.326530 8.391972 30.603591
5.455910 17.335313 41.264591
34.231789 8.292176 30.769212
33.416386 21.324715 4.735792
7.386114 32.351162 5.102300
3.840185 32.236696 34.423787
23.467445 22.880662 27.908144
28.386456 9.647814 18.892600
33.430529 17.928052 17.831052
33.420755 19.535756 27.293466
14.466455 9.909017 11.697570
35.586452 22.142493 11.488534
35.586452 36.048393 26.445077
14.466455 34.440792 27.965742
0.546455 35.129065 28.898830
31.455123 24.732838 27.400120
35.586452 29.567415 10.863451
35.586452 6.457203 23.423926
15.764759 7.044439 7.752223
35.586452 26.281804 26.512184
25.478663 16.095691 12.940468
30.619844 30.304833 39.368623
7.692709 20.973611 39.787659
20.500982 0.236208 22.176662
30.443913 4.083933 23.899035
5.423930 15.533850 9.265057
35.586452 15.849689 34.656016
20.644164 18.995027 43.413719
33.370984 40.907320 16.964195
15.809777 41.920768 30.064555
7.746455 10.201184 27.921768
0.546455 9.855267 23.869340
20.121527 20.283059 41.749530
17.102879 17.236140 38.004457
28.565419 3.458197 21.910796
7.746455 9.493314 11.391332
25.028453 18.747755 26.808854
21.666456 33.875706 13.392139
28.292862 16.580193 31.629428
35.586452 29.734362 35.555120
0.546455 21.599929 15.929354
17.584671 17.230385 5.679481
28.548140 7.175360 32.977115
14.466455 11.593557 27.380076
35.586452 27.569115 10.110945
7.746455 16.926880 8.917952
14.530747 14.000276 33.925607
31.728305 28.143428 23.057856
16.155076 28.724262 6.447756
10.647495 28.067710 12.719312
19.157595 7.313259 24.886325
8.956898 21.616155 32.859627
28.386456 36.383000 21.400021
31.001023 35.950381 29.676919
35.586452 16.975825 24.831874
16.263442 30.609667 4.273573
34.456961 5.136777 35.691526
27.151404 31.312163 28.070115
35.586452 26.872557 12.839159
7.746455 12.288046 32.319186
17.680567 2.589516 23.518252
5.894781 16.848035 36.301468
0.546455 36.116716 20.750629
4.159551 28.586750 37.320848
30.717503 6.288526 33.255078
35.586452 14.816975 17.460654
0.546455 26.043734 9.494487
7.746455 10.019136 13.426819
24.372324 26.379205 17.640994
35.586452 27.657984 18.633063
33.555609 20.028807 1.749938
14.073593 28.117405 23.154974
28.596676 17.195322 4.015372
35.586452 13.605185 21.329462
9.674929 27.048147 25.529930
0.546455 34.037020 20.448312
31.613900 33.812032 30.586229
16.555127 28.692196 37.439015
14.558774 8.884162 9.686926
26.863264 20.948606 16.123766
0.666839 8.146076 10.207218
3.171051 26.895627 18.179126
21.732585 17.461672 32.152628
4.012579 28.180129 22.746717
7.917439 26.139909 32.359391
5.548068 30.628254 4.256386
5.829766 36.536993 14.285567
26.034080 32.203998 26.448300
5.513671 28.173600 21.105532
5.933828 6.262791 33.295073
19.321711 17.950949 26.118721
28.386456 11.580773 32.430369
32.843164 34.788474 13.934393
14.466455 29.558982 11.429888
21.666456 5.756185 22.025895
0.546455 19.288915 16.746412
0.546455 36.616599 23.302361
17.592436 21.987683 37.800761
33.469193 29.379387 5.594960
22.117568 32.570745 25.576808
12.375169 18.661858 11.643653
0.546455 8.892147 27.064514
35.586452 23.062221 14.170801
19.786136 17.298793 2.911497
4.055282 17.000205 24.851280
7.583350 3.612538 20.721685
29.193864 5.955912 24.209036
16.457591 21.165184 4.206021
14.466455 12.372160 11.110933
0.546455 20.201054 36.042098
14.044099 24.405271 32.699171
32.182001 25.517333 7.928413
6.040059 37.032314 29.660541
5.628219 33.650028 40.893233
30.390763 43.163043 14.775351
2.068461 5.266679 36.336820
23.327643 16.595497 12.609438
18.166574 7.245448 7.808935
14.502629 32.407257 7.574017
7.137091 41.395095 29.458363
4.661018 32.822190 36.237882
0.546455 34.718423 22.556170
2.076170 33.647476 2.915206
0.546455 5.633119 21.347509
16.227234 17.083083 18.919770
26.389389 16.467334 20.445629
0.546455 16.529189 15.979145
17.077936 13.042717 10.139650
29.770221 28.015547 20.391761
0.546455 19.949871 29.335563
28.386456 10.926434 13.613339
35.586452 31.011676 30.353305
12.143788 11.943309 18.336162
26.264018 27.043797 18.390733
18.647122 33.366642 37.954778
21.666456 25.770229 34.233848
12.754553 33.170659 22.276484
28.386456 18.735659 36.374306
29.652966 24.609904 36.089540
35.586452 24.448282 34.328726
32.863003 26.448189 36.116821
17.585530 20.604938 41.129962
4.867524 33.409701 38.144944
21.666456 21.391377 35.416615
21.666456 18.905405 35.510667
35.586452 27.301071 36.312778
28.386456 34.099946 30.254378
18.799754 29.310767 38.240020
34.849446 8.995672 16.295831
2.310232 13.756973 10.064790
14.495279 38.593982 27.774964
2.224812 37.742571 24.906238
33.393365 36.072314 29.659317
35.586452 36.152274 16.642213
9.209438 16.304075 21.330015
29.608072 20.290922 16.299993
26.298815 32.032032 17.098811
14.629944 33.537513 30.832511
21.145558 33.062335 4.785275
17.094777 6.860359 24.592686
28.386456 10.368839 30.568897
5.360739 28.232171 6.920791
23.935655 18.394440 11.750202
3.479868 32.860391 7.600121
28.406155 37.936934 28.918625
14.178003 16.715653 24.241054
7.746455 8.603148 17.621721
19.242993 39.936569 13.790800
19.421462 42.763144 29.925817
30.080746 32.972230 12.426987
7.746455 18.600821 10.150927
21.666456 9.700100 19.554576
0.546455 19.469252 7.956717
7.746455 30.643379 34.002219
2.983534 30.044733 39.096877
30.033383 5.153396 7.724911
17.208319 7.399637 12.133267
29.205450 32.639434 8.114555
7.696901 7.407705 12.122313
2.999648 43.209740 29.420694
28.386456 35.075312 19.882940
15.055720 32.832018 36.260702
31.011651 18.077425 43.817555
14.466455 11.265842 13.882124
2.698189 8.996607 27.639836
12.516119 28.236063 21.819483
14.466455 34.453606 23.410784
7.252312 23.855994 16.206104
17.173132 33.610880 39.474770
35.586452 11.678534 16.464508
0.546455 35.144098 26.785839
35.586452 33.817196 17.855987
0.884509 30.770772 39.609835
19.683776 32.974160 7.292424
15.566081 18.203066 26.370838
26.879185 18.156921 26.324694
30.253524 15.898211 8.949914
19.961929 40.269000 26.527881
29.527349 39.010906 13.874131
14.792787 24.085334 16.267555
16.339226 25.248351 27.159732
1.799333 32.643464 11.858581
11.962628 13.292499 15.699933
28.481018 39.658707 27.158617
19.753022 33.639170 39.839971
32.798415 16.466528 23.478239
19.793072 8.512723 8.271827
7.746455 19.665785 35.579678
22.487330 26.140834 32.161549
21.666456 11.575903 11.770151
18.417605 6.390439 10.830189
14.306100 12.525641 16.576462
6.566688 41.720525 16.309549
18.477064 21.618706 27.908324
28.386456 12.108909 10.464099
1.485010 25.429252 16.893740
30.754438 9.003828 16.219146
33.530116 16.921143 7.466242
33.624634 17.211322 40.155933
5.336496 7.328632 12.057738
21.616456 38.922968 18.133080
18.351308 27.651993 19.407746
2.694897 17.189232 4.832781
5.371234 26.421647 36.110589
25.557851 22.704990 16.003362
6.843784 17.090719 6.950908
2.439456 22.640821 37.081270
0.546455 30.476676 24.318319
9.978984 11.890211 25.443728
7.746455 9.992850 32.065098
35.577918 32.496833 11.550699
14.466455 9.955028 23.258336
21.156144 27.940205 23.816295
35.586452 18.207933 17.005189
3.243774 17.047032 7.083671
7.746455 32.119245 15.820601
31.194790 41.304900 16.661958
30.667436 32.027324 40.761373
4.595476 25.235951 7.916790
1.332294 41.883052 14.231176
15.834931 16.356394 20.859660
1.363354 19.289519 0.986196
22.780558 22.298928 15.967836
11.399260 27.890046 24.003488
35.586452 32.947676 25.704940
0.546455 36.848018 17.071692
7.649736 6.004708 19.701106
12.464689 26.483366 17.745156
17.093435 36.977570 20.142471
22.501902 14.819225 13.953674
34.125558 39.276698 17.949759
17.462388 26.099483 36.038440
15.287112 11.732982 33.956101
7.746455 15.340052 32.526178
16.518000 34.058820 13.520419
28.386456 20.681474 37.109989
30.829333 22.941443 7.095229
18.867024 24.702919 16.512804
0.546455 20.566716 32.104232
35.586452 28.677487 30.990499
2.676846 7.701832 25.201141
7.257425 33.438434 30.932834
21.625630 19.340814 39.334763
32.836449 18.860078 0.185405
20.842158 37.012272 23.865315
0.546455 18.380673 27.908878
19.896336 36.664568 29.643696
0.546455 14.348237 29.118793
0.546455 27.695105 10.945607
24.781024 27.024376 25.563879
28.706468 33.196940 38.114815
15.242107 17.326093 41.216017
35.586452 20.699686 35.946955
33.704015 17.841706 26.009478
1.088025 38.222358 29.916471
35.586452 25.560131 10.324208
25.214822 27.953149 20.158891
35.391474 35.015447 29.902826
9.747758 33.055909 23.566357
31.109167 16.258049 21.856086
0.850320 2.836236 21.802126
35.586452 12.780171 18.247444
13.332867 18.192320 26.360092
26.876371 18.362644 32.164005
24.206875 12.541121 16.940321
0.608140 39.256131 16.313980
2.278146 24.458470 36.129106
24.988413 25.432306 27.030998
25.008197 11.406534 20.689442
0.546455 28.482804 26.297387
24.217532 28.120257 23.144332
20.363216 21.583306 16.021649
21.666456 18.334048 6.715121
28.386456 9.171584 21.076083
11.974550 32.929812 24.210340
7.654840 18.728625 39.760788
14.466455 14.298124 11.760846
14.466455 35.750415 18.046292
15.961633 4.195531 20.007641
33.757076 27.174629 25.349295
35.564268 38.341682 15.895368
5.259278 17.209678 5.193859
0.546455 27.829995 13.444951
29.927664 39.880053 17.627878
6.371447 26.798848 25.866239
17.720037 17.403233 2.304459
32.431916 21.260408 27.876977
7.746455 12.002996 11.474976
35.586452 13.244027 31.902215
7.509423 17.199873 3.945844
5.664891 5.666294 19.799588
4.665274 36.646765 21.146473
21.587532 22.707612 37.020067
14.451793 33.020364 25.662206
35.586452 28.374052 8.094654
28.648152 6.170919 19.644107
21.666456 31.834676 11.777041
9.721131 13.267151 28.190835
35.553751 31.395286 36.798528
0.546455 23.561905 33.383788
28.525107 8.176029 9.967115
33.043262 33.226693 2.612456
15.228085 25.846198 36.021047
10.231757 27.832436 31.357852
3.331384 41.812919 27.696929
21.666456 10.900717 26.813319
32.936729 32.787452 31.774010
2.422551 21.418172 38.912575
21.327407 35.915684 14.244948
13.347979 20.020636 27.519569
14.639038 3.521588 21.408496
0.546455 28.405442 34.584655
24.222878 20.788145 11.134238
20.113378 32.448330 35.330599
30.746403 32.227290 34.215633
10.459073 18.859363 32.355109
1.078047 8.422872 8.234135
21.842236 28.039337 12.487107
2.494849 17.210938 37.637613
24.830335 20.602020 16.216634
7.746455 10.372943 15.851300
29.405484 4.254662 19.996935
33.460623 6.869334 24.597502
0.713941 31.419116 5.663902
8.112212 11.597598 24.578011
0.546455 22.554215 31.637972
28.474132 7.986290 25.503907
21.666456 37.467012 16.386504
0.546455 38.444159 25.930474
3.316777 4.947726 19.902474
28.482808 31.468245 6.293381
3.445121 8.926018 14.590195
8.888899 27.994297 23.614419
31.517615 12.669199 33.803534
33.830112 4.278060 19.992702
14.623020 37.211188 19.714611
1.386039 21.488832 5.223742
14.541910 36.487569 29.640385
27.730796 28.162532 20.979027
35.586452 24.197373 31.834932
29.420319 41.625892 13.826436
20.638296 21.565104 38.517714
14.740920 28.185218 21.238332
18.758140 16.331981 21.011050
24.816834 14.842941 29.993347
24.798730 16.269141 21.729312
11.406611 11.444068 23.591468
2.733635 20.635862 2.863020
23.438931 24.575174 16.453236
7.746455 14.307339 12.371708
35.041229 21.175080 39.688082
3.724190 33.622790 4.333970
21.663837 8.964401 11.740344
35.067661 17.803850 41.763404
28.386456 19.094820 8.325771
13.215734 25.134550 27.212799
6.176367 43.185537 29.179535
22.027722 17.343069 25.378405
21.031030 16.264617 21.781022
32.861142 40.027684 30.140466
27.314308 14.472224 29.641021
35.586452 17.295821 13.394186
14.466455 18.965919 8.414067
29.933321 27.897922 23.974094
35.586452 9.472939 23.371593
8.181968 12.313334 26.542340
0.548101 19.525012 5.442214
20.630425 8.412618 17.846570
11.376302 17.896506 26.064278
7.384785 41.126732 27.484739
32.909637 31.449274 40.354918
28.386456 20.695797 34.918158
13.567663 27.571205 12.424119
0.546455 18.453559 14.770570
16.392285 19.926261 27.475561
35.586452 37.553086 24.817168
19.830479 33.646596 2.874229
35.362800 40.668957 26.911798
0.632661 17.222006 4.519396
34.587260 17.634335 1.346978
15.798549 17.255307 3.253717
7.746455 11.122326 17.736085
2.865552 28.678414 6.505100
0.546455 34.424693 24.799341
29.943947 0.001543 22.180096
19.232390 11.995491 10.025549
2.180699 12.001344 33.900106
12.067956 21.884211 11.052717
12.485387 24.722080 16.521739
9.521373 30.294937 29.348310
0.546455 28.180940 30.260151
16.325094 26.726912 17.988701
21.279051 22.299621 27.958979
19.457391 27.486107 36.493360
33.527658 28.187414 21.263428
28.386456 32.371758 32.318406
22.870059 27.375241 25.062792
17.935702 11.364990 34.097159
20.933871 33.132601 37.089659
14.466455 27.863662 7.354845
8.910796 26.342946 11.845855
21.630274 38.937780 27.248023
25.998147 25.408747 32.418097
1.396363 29.181417 38.066861
7.746455 36.389688 16.509289
14.837857 40.785283 15.262163
22.156786 12.967162 27.728313
28.386456 12.869992 14.184011
0.546455 9.375282 12.318083
21.580686 4.166469 23.417156
23.066394 11.396613 23.143848
14.466455 13.128322 31.214632
28.386456 19.001983 5.978299
26.054666 11.336849 22.580137
26.852423 33.104974 23.103559
0.546455 23.378472 13.356141
14.466455 16.220397 10.777128
7.746455 36.655679 18.617003
5.812475 8.986003 16.386729
5.564772 10.930736 9.643245
5.514286 40.581691 26.736776
0.546455 15.830460 34.797375
33.439450 9.953514 34.903367
14.484136 19.232074 5.128454
9.983055 24.305458 16.327465
15.267984 2.256056 23.400719
22.945363 27.987254 20.286172
14.466455 21.680584 38.226382
0.546455 27.200568 16.357857
4.182334 0.002103 21.668075
27.346160 19.910835 27.468368
2.835019 28.163395 20.988897
1.139703 27.867956 24.055995
31.321088 33.655415 3.675987
23.677527 29.981779 14.238873
33.361250 33.314008 6.204547
35.586452 29.162095 20.235837
0.546455 14.791813 17.694053
14.569657 16.919849 7.470176
0.828793 6.521319 33.232605
0.546455 11.793872 32.697865
5.064352 33.114503 31.299375
21.666456 8.841984 14.020787
19.663099 30.535023 39.584284
20.821024 32.190088 40.753478
0.546455 18.995683 12.173917
4.110856 41.529406 13.819277
17.039986 16.506869 23.628795
31.440778 10.380650 34.623387
14.466455 7.729006 20.739848
4.404881 21.582316 16.021736
33.918248 6.196101 33.398723
6.609393 33.654183 3.707607
0.546455 12.407468 23.179405
12.779738 14.905366 30.046371
35.586452 35.048206 24.416940
35.586452 26.852471 14.842294
14.466455 31.161391 34.126603
0.546455 8.081190 24.808990
0.546455 30.385541 20.203413
35.453038 17.203197 6.338538
13.860629 21.447181 16.033559
29.493812 11.343581 34.105408
11.720093 27.699261 19.509112
0.546455 23.733884 9.067941
35.586452 25.292354 28.723273
14.466455 11.115965 18.729747
28.386456 30.253363 32.348326
28.386456 9.122368 23.595242
14.466455 28.388273 37.067251
0.546455 20.790029 13.245052
6.423343 5.355708 35.049839
27.880022 23.647760 11.122735
19.750748 13.713663 33.856932
11.812911 21.538021 16.025611
35.586452 31.891320 28.429866
14.635429 18.328712 17.430392
0.546455 31.622370 14.645985
11.289957 23.274640 32.838293
7.252408 7.703818 35.969065
20.832811 27.630766 19.362224
10.704048 20.128334 11.245129
21.666456 36.551063 21.909548
28.835364 33.382993 5.289736
0.546455 13.775601 15.583863
35.404135 7.683494 25.181622
19.660419 17.201282 5.045579
7.702793 38.440030 29.062645
21.163233 6.958499 11.612619
13.884320 30.899609 28.634963
28.386456 33.953903 17.867344
0.546455 17.653903 32.043946
10.483984 32.580649 18.409917
33.315761 22.474174 6.692902
21.666456 34.368887 18.504163
25.626157 25.557652 11.549255
27.920713 23.963967 27.691841
27.643851 28.091833 23.250413
7.604887 20.201456 3.560633
7.746455 24.452027 34.388617
14.466455 22.262335 34.298868
34.550214 42.770299 15.255072
0.546455 34.794097 18.306959
0.546455 9.510784 15.906477
28.905687 37.932063 25.106819
13.488314 16.295908 21.423368
25.654306 23.520811 11.109094
14.460614 18.576629 11.104456
4.613856 32.624227 2.798938
29.453108 17.172106 6.536440
0.546455 7.527665 22.478561
7.784887 19.696560 16.558426
0.546455 30.744451 27.166516
7.746455 32.050923 12.431753
0.546455 18.929267 34.300494
24.797411 20.879710 27.784649
2.420961 8.902580 16.697296
35.586452 18.883171 14.812760
34.013250 36.846631 23.479111
29.377063 32.838383 3.128181
35.586452 31.393409 18.012727
5.556973 40.253808 17.409144
33.558058 32.216217 33.675201
15.396425 26.874750 25.777566
18.710598 7.935292 31.214284
21.666456 36.838821 18.523645
22.732611 24.828207 27.355649
15.196827 6.127844 33.504806
30.990055 17.189490 4.117173
14.466455 21.331555 8.587969
0.546455 24.459903 15.171197
21.666456 11.392622 14.575455
0.546455 10.950773 13.855374
14.244985 29.270270 13.429914
23.637389 16.599003 31.319761
21.832426 31.505255 15.812148
6.523039 26.156831 17.418621
13.806024 30.800143 15.167915
14.918284 18.853557 2.192898
29.372818 32.722042 36.004641
7.734163 7.889433 31.454327
11.858379 25.331439 32.439111
9.849090 27.375954 18.865103
3.334667 6.454819 10.930247
31.514831 8.941766 27.372261
35.586452 14.523416 25.446678
7.919399 20.599244 10.989780
0.546455 20.651017 10.926143
10.939477 31.459273 27.825617
14.466455 25.684616 8.069278
8.632097 26.106432 17.368222
0.903073 40.412832 29.426731
7.952055 17.547391 31.992979
4.740262 12.717677 10.125459
30.855541 27.081199 18.444149
23.422108 29.844677 29.821898
1.901791 33.655069 40.658951
35.586452 22.204607 34.388424
4.544608 21.039961 3.845303
35.569618 29.656215 6.509862
25.857144 33.144516 21.196294
0.546455 10.943385 26.561520
6.007443 37.756905 24.922278
15.282070 14.657141 9.776210
31.927949 17.193260 39.022960
25.934147 30.640544 14.964900
34.005340 8.602037 26.425368
11.655354 24.042156 11.183335
21.666456 29.256713 35.261520
28.386456 13.864340 11.863953
0.546455 29.499184 32.325344
17.911367 8.050919 35.847834
0.546455 17.388714 37.125289
35.586452 13.256257 29.227778
14.466455 36.361505 14.667868
18.878185 18.040205 43.730792
1.305661 4.092048 20.026373
9.401438 11.387014 23.053316
0.546455 32.902565 17.517499
17.261583 8.665071 26.562775
33.184650 38.487751 25.547908
35.586452 33.234224 15.548465
21.666456 32.607743 31.410738
21.377113 40.310174 28.895966
28.386456 26.058685 33.597238
34.758246 2.334333 20.496503
7.746455 26.099734 9.915287
26.306158 25.195753 16.742617
0.546455 8.542977 17.916871
32.148050 5.854606 7.489540
0.546455 25.653848 30.234818
35.160155 8.233172 8.154555
14.798886 32.723896 5.477354
21.666456 35.343027 25.300688
28.414353 32.300396 10.891089
16.722616 32.850750 7.622509
1.518349 5.942053 10.092920
30.910178 2.777615 20.350248
27.159075 12.784491 27.404213
5.467708 7.874817 31.282983
9.682918 16.687946 31.370648
35.586452 18.821018 26.951726
29.524853 7.365426 36.084095
18.423351 20.915351 3.507580
5.288375 19.593755 16.606365
35.586452 30.647775 23.285505
13.211043 33.023358 20.141518
7.746455 28.375554 33.238299
32.257190 30.975641 3.950794
20.634241 11.771397 33.948086
13.939718 20.927290 32.817676
21.666456 12.163919 29.545227
7.746455 29.058159 35.298796
9.567406 31.165249 15.643571
30.142265 24.697673 7.860269
9.720320 16.568511 23.858844
5.436390 6.901041 24.614513
14.466455 33.739461 13.451847
31.225040 33.577951 39.148061
35.586452 17.968089 28.878117
28.756791 23.982362 16.239964
35.586452 9.877488 25.392049
7.905873 29.127859 30.696419
17.588730 33.646941 2.890295
10.274421 22.339976 27.955449
18.425588 31.961264 40.719671
35.586452 27.450683 34.224459
14.466455 16.316570 33.799060
1.929660 5.124625 7.759699
7.338204 20.015314 41.707897
7.528907 7.653775 9.734345
28.386456 12.823873 28.988889
19.947973 39.278228 30.082042
4.607197 9.789725 35.001199
7.746455 29.343613 11.722785
0.546455 12.866750 25.824771
35.586452 17.545021 10.498260
7.746455 30.422860 10.016662
7.770116 12.478978 16.175277
28.936354 8.948406 14.691179
14.523207 7.473936 12.212285
5.022784 19.817251 42.504087
21.666456 32.215402 29.331609
6.319751 28.055807 23.384863
16.128736 22.205128 27.959630
34.305400 29.462620 38.435474
23.528430 13.654488 15.222211
32.272436 5.804627 9.847547
19.199012 41.805767 27.690768
18.995827 37.751603 14.121208
35.586452 13.881735 23.368700
21.594645 38.611980 14.403187
5.000327 19.793843 1.388395
21.666456 19.336103 33.433015
16.456206 27.920336 20.036431
6.260687 9.256018 8.625012
18.652708 0.910405 22.804742
32.369931 36.945265 14.276583
14.466455 32.742303 15.679882
15.508692 33.397663 3.309266
29.113137 5.733307 34.817783
7.746455 22.311777 35.114715
20.437454 17.783562 0.880417
0.546455 24.884706 11.742280
4.596300 17.785483 43.052538
28.386456 19.298416 10.771137
16.434484 27.792904 24.216944
35.482117 7.574018 32.799663
27.061650 32.862262 19.409655
35.586452 21.004249 13.368003
11.946777 16.475850 23.513028
5.587858 36.724803 23.095071
4.213283 17.232900 3.441308
7.746455 36.258468 26.609448
29.953270 8.003591 8.062513
34.835282 33.194427 37.301707
19.172390 33.503254 5.284661
24.807742 31.082979 28.399183
25.947465 16.220130 31.068826
20.403787 24.394358 27.557956
28.386456 28.188549 10.319523
4.864248 20.933753 40.369437
31.691409 36.627483 22.702655
21.798654 33.354518 22.882445
30.330116 36.618174 14.284048
19.981236 7.693184 35.972778
32.282091 5.554385 34.590735
0.546455 16.612161 29.317615
35.586452 15.957959 22.978134
28.697681 17.306109 40.811841
33.184240 27.615980 19.330515
32.210699 24.515617 36.114175
35.298460 32.272138 9.321961
35.279870 19.644768 2.719224
35.586452 26.303663 16.947213
28.386456 35.781844 15.338711
21.217758 25.842110 17.182827
18.510996 42.071673 15.985924
28.836127 40.818167 29.505259
21.283833 40.988014 15.724596
19.251035 21.062563 40.020353
28.586782 7.017827 11.683953
30.675298 19.848776 42.457783
4.118326 5.621825 36.473235
10.302084 11.388790 20.856817
32.743115 6.131552 19.657608
14.466455 31.464405 12.823004
31.522837 40.976008 13.780602
7.746455 5.869712 23.027553
7.746455 8.345562 19.686360
21.178087 6.205879 9.707868
14.466455 30.063382 8.229864
6.825455 17.224287 38.475009
14.466455 31.456520 30.502518
3.971907 38.933375 25.799480
30.507501 20.922456 40.400039
26.248999 18.313213 17.445891
14.393882 17.370967 32.088923
28.386456 14.254152 31.399753
14.466455 19.056888 34.353098
0.546455 10.198391 30.990292
31.208865 5.265750 36.335728
7.642271 28.223757 21.678831
21.198418 19.507147 2.033840
33.520988 33.423662 41.201601
7.226028 1.963286 22.346657
6.359811 0.062993 22.317052
17.062524 28.242701 22.031515
21.095914 5.832326 34.193543
0.803551 35.093319 14.048603
28.573257 17.320618 25.346342
16.172389 32.491201 11.532028
25.510495 11.964799 25.650202
4.823914 7.557736 36.020086
19.621487 7.982016 12.765671
34.708771 16.875077 36.353415
8.523455 17.135325 12.308066
4.559183 17.221444 38.525183
21.666456 24.198541 10.363695
3.154247 26.756384 7.737686
21.590202 18.639554 4.300095
21.666456 30.502356 32.039769
5.479209 9.020733 28.891679
28.386456 30.110126 11.546981
19.081296 5.042977 35.903726
28.437870 29.425032 38.290714
24.047196 18.677181 17.167438
32.624538 32.896167 36.417190
6.496918 32.213666 33.778609
28.338050 30.453540 29.707784
12.370997 27.008954 25.585903
15.780813 7.487335 36.044672
15.160251 17.222776 5.425154
35.586452 6.794756 21.448171
30.963624 22.800213 27.915183
7.746455 19.472311 8.210366
7.746455 22.228430 9.150539
27.960004 15.197056 13.596450
7.354219 26.479444 7.802714
19.054127 6.403398 33.076545
21.666456 8.545379 25.508666
35.586452 21.496052 31.611146
14.466455 31.380372 10.083430
7.513019 25.444397 27.022531
2.148440 2.543031 23.503825
32.658282 16.665010 35.949882
25.267852 13.427602 28.416059
0.546455 12.201988 10.157029
14.466455 26.532564 32.785563
29.631609 19.231446 0.621869
2.759275 19.896690 42.387387
19.349465 17.199109 38.919446
29.362487 17.672906 42.700485
27.927071 20.374485 32.735434
1.667482 33.036406 36.807814
21.679827 21.892471 33.354528
2.579111 9.473637 35.181819
35.586452 36.276457 19.924666
35.176056 6.458303 9.896972
7.746455 35.958392 22.148994
20.442903 5.492848 7.483762
15.541112 17.842567 43.222126
35.586452 13.165325 12.783851
14.762928 6.867913 10.178958
16.856029 20.316478 2.236641
24.091853 23.185998 32.843099
0.546455 29.138527 17.077192
9.816650 14.755423 29.919008
17.681557 41.156920 30.135240
16.477851 23.069132 7.178832
28.386456 23.629111 34.050121
35.586452 36.756726 28.553059
14.466455 27.948828 9.435575
3.655153 36.929963 29.648660
34.691528 33.620904 39.574196
22.973334 18.805018 26.848950
21.666456 25.074322 7.988183
0.546455 22.120849 29.391551
30.885210 25.197130 16.743259
9.031250 33.046525 20.272007
4.543313 42.057939 30.045934
19.681999 41.956568 13.867186
14.381822 27.215771 18.636337
7.746455 27.037062 35.041801
18.308374 39.495900 17.839239
0.900958 32.566922 38.660409
35.586452 18.445606 31.284995
21.666456 27.266700 36.056415
6.820933 28.679087 37.422618
24.656240 33.042043 23.689004
35.586452 12.670872 10.182581
14.466455 15.216281 31.519264
17.720246 29.588264 5.343045
16.180583 9.725054 35.038127
2.990361 16.755849 19.599621
35.537265 4.455813 21.661961
23.517910 23.628864 11.123518
6.719509 21.346477 16.042369
10.118894 32.443615 25.896297
0.546455 12.833707 30.932786
35.586452 32.172215 13.649504
2.504237 7.089209 19.211408
0.546455 11.773382 28.690218
10.236230 28.238379 22.080919
35.586452 29.655397 33.465142
35.586452 30.337581 8.782562
31.010377 8.671229 35.588555
7.746455 31.634819 30.043290
3.025352 7.889199 8.022561
19.112942 19.920503 1.574464
7.746455 7.871117 21.938352
0.546455 12.651533 12.290756
35.586452 13.081073 14.837533
29.884726 16.529946 23.714918
28.552059 36.824606 23.427759
17.403071 17.236817 40.527650
16.257822 19.839090 16.491963
0.845357 20.289457 41.283639
35.586452 24.122588 11.786466
30.402195 36.669920 21.053106
3.081085 26.935854 36.256089
34.498041 4.642425 23.988235
33.130244 41.481850 27.411689
6.788210 13.945202 10.017136
16.320517 5.710281 9.659266
26.121113 21.954013 32.877946
0.740784 20.123663 3.180468
21.666456 10.716256 24.583290
3.059244 32.865371 31.650493
12.738374 18.786071 32.330855
22.846183 11.415573 20.604185
35.586452 11.476540 23.632788
35.586452 26.557054 30.599336
1.834412 7.573057 36.014735
7.746455 30.543285 13.855392
5.640824 33.450749 5.600653
28.386456 33.902092 28.229065
16.653241 33.144281 41.361222
18.035174 18.231245 0.081069
7.746455 10.255417 22.545262
19.736653 29.756914 5.143849
31.001073 42.642100 28.530709
7.750246 19.956632 33.211104
15.673221 43.152479 14.764724
9.621845 22.631942 11.053738
18.975112 7.698936 18.728819
21.674109 14.583588 30.444503
14.466455 9.919650 20.994686
0.546455 14.897826 13.754181
29.139695 17.556590 1.638987
2.385347 40.041835 17.533495
5.199318 7.389402 7.849547
32.836185 7.793891 35.937604
8.755258 18.796238 26.842803
14.466455 27.992711 34.607990
7.746455 9.461839 24.467604
8.789539 31.671784 27.472423
28.770989 31.317344 39.520200
14.466455 28.882354 32.722296
23.352583 31.871627 27.140282
35.313274 40.465485 15.660819
35.586452 19.073488 12.462388
12.837842 32.051553 26.784955
22.897515 11.916944 18.409146
23.089325 12.056280 25.903438
19.437739 17.326231 41.216745
27.837454 31.221614 15.716098
15.888217 18.028129 0.227168
9.841854 29.820545 14.081490
9.570642 13.438316 15.497188
17.125425 5.177337 7.695964
0.546455 25.440092 32.232988
35.586353 38.202220 26.926753
5.529456 17.483545 1.926742
7.746455 11.560675 29.678892
28.354625 26.324216 17.586006
0.844831 37.871982 18.875827
7.773622 14.092676 29.846327
21.624268 38.093465 29.694937
14.466455 25.834702 10.622246
31.556526 17.545515 1.682615
35.586452 37.784272 17.965981
3.886710 18.758575 0.069599
7.746455 35.349285 20.166932
21.666456 14.968867 12.105969
1.099969 33.193834 4.743268
35.040591 33.326958 4.849149
0.546455 21.262682 8.973582
33.913381 28.037786 23.452117
17.095785 33.570331 4.854363
17.481105 5.486599 34.731231
21.853817 24.312253 32.854604
2.641656 17.984101 43.586376
35.586452 16.565325 32.478050
13.765598 11.596630 24.342661
0.546455 30.940272 18.117113
33.041892 17.616624 42.524370
26.194029 21.467517 11.075309
34.601444 18.985984 43.323201
12.552516 16.490132 31.247654
21.673079 21.977534 10.523367
35.370865 17.642648 3.490301
3.672088 5.596232 34.503994
14.113156 22.911320 27.905462
7.739344 10.538540 9.566518
0.546455 10.340551 19.146483
9.293260 24.153896 32.722413
4.770155 25.828580 26.753524
17.244772 39.934872 26.330995
14.466455 33.264140 18.159996
0.546455 33.583501 15.623934
21.666456 31.911342 13.823291
16.055550 21.218616 39.543455
28.230093 21.515683 10.874358
26.407870 18.496905 11.709376
35.586452 25.993544 32.744488
35.586452 30.920196 15.673613
35.586452 15.065841 13.707388
14.466455 9.951304 26.101650
7.746455 12.495434 13.609132
9.147158 18.904956 11.558689
35.456373 32.789764 6.790769
