19.523094 22.426291 6.649025
35.586452 12.525347 25.495635
13.817955 14.873480 13.907590
18.632328 17.233722 38.106541
21.666456 23.693680 34.923859
3.080553 2.203518 20.546059
2.823604 34.197788 13.621650
32.771392 1.489698 20.839769
21.666456 18.870365 7.980308
35.575150 20.210031 16.343156
5.845141 17.213319 38.668542
14.173976 20.685725 27.734204
26.119271 25.751488 32.316679
14.475944 17.045710 19.011115
7.746455 9.493314 11.391332
35.261315 27.407657 25.010461
23.932329 20.967731 32.816612
14.466455 30.594207 34.632649
0.546455 20.014910 36.957861
0.546455 28.566739 6.883947
4.963184 9.936011 34.914798
9.308480 17.075929 24.983231
10.004970 19.992631 27.504447
5.530447 12.482850 33.811670
21.666456 38.116307 25.336622
32.122446 33.650015 3.033067
19.215895 10.245147 34.712189
10.939477 31.459273 27.825617
30.557540 13.900469 10.030023
11.839848 30.348242 14.636388
17.857239 29.255677 38.166253
34.758246 2.334333 20.496503
35.586452 23.141080 7.422816
12.518019 32.952580 24.106904
24.055186 16.574134 12.623587
7.746455 30.643379 34.002219
35.586452 17.996010 15.354275
35.586452 32.011588 9.374827
35.404135 7.683494 25.181622
14.781992 37.367686 24.457917
16.042957 33.651738 3.113237
11.303534 16.997701 24.828074
3.482112 26.829860 7.714690
6.683674 10.836881 34.340822
21.310855 31.075294 39.506622
2.762439 9.615807 8.826317
5.352470 28.275052 37.043455
15.797152 22.311080 27.958125
32.369694 14.657330 34.150756
26.482782 31.435048 27.865879
35.586452 21.059658 7.677709
21.588808 31.908935 6.729241
33.674777 16.946992 19.171444
26.744809 16.553238 23.782335
11.309345 29.448084 30.168571
25.239809 31.253667 15.769522
28.386456 21.769528 6.373987
25.563936 32.395802 26.024725
0.546455 8.294321 25.072335
7.746455 36.192844 22.872819
23.632784 18.863222 17.013041
21.666456 33.875706 13.392139
17.483282 27.349020 18.844509
2.733589 43.258326 14.642684
5.421669 7.276756 19.068560
15.039355 28.671532 6.513707
2.514563 21.495384 27.899324
0.546455 24.957235 13.185791
24.827214 24.266395 32.701142
30.055824 33.648363 2.956272
25.285645 27.449894 31.570049
24.667191 26.603196 17.862249
6.357492 17.980222 17.764416
14.865753 31.147873 4.243198
14.674447 21.282072 16.063542
31.136114 17.300115 41.025787
28.386456 26.382225 9.296633
28.249662 32.294235 26.770282
21.887679 24.306456 32.824740
35.586452 30.837490 21.080002
22.454138 25.623213 11.567076
31.743811 0.083158 22.329276
26.109159 22.833001 27.913702
7.746455 17.545028 9.399630
21.666456 13.429897 10.398876
17.185202 41.350342 16.627413
17.119653 9.044246 28.472985
6.077843 20.399720 41.528556
21.666456 21.243800 9.343104
30.996904 38.908538 13.888471
30.863710 23.209102 36.656400
22.501902 14.819225 13.953674
28.152900 32.925165 24.818352
30.340326 32.307026 9.143665
31.434460 41.158705 30.135107
16.438486 32.295345 10.852722
28.820940 21.006184 16.110847
21.626355 30.225349 37.646885
35.586452 37.195296 16.054741
18.867024 18.964778 26.959754
35.586452 29.027493 6.846023
7.710146 4.816199 20.154088
0.546455 28.992035 24.149063
21.666456 16.761507 36.077447
32.631527 20.167115 1.982439
0.546455 20.819956 32.382749
19.425339 36.141397 14.277532
17.510015 43.082136 14.156607
2.511954 23.951359 7.645335
10.325982 11.976577 18.244070
16.944408 21.171399 16.082519
0.546455 20.048452 8.228464
16.205846 7.187485 32.038888
33.283964 15.889329 8.958470
2.879811 4.619053 19.941410
14.713169 17.020823 24.873935
32.300108 32.436962 8.625349
2.397436 40.775534 13.777981
17.035807 21.542188 38.569766
1.717837 38.385937 25.473423
4.793741 33.204829 37.337381
35.586452 15.237512 10.341170
21.666456 17.567570 34.024180
7.746455 36.639976 15.398208
0.546455 35.235445 16.938414
7.239281 4.257326 23.930423
28.386456 15.588975 9.364303
11.747293 26.313570 11.834151
35.586452 30.390342 35.203303
19.075133 7.784723 12.542731
20.139300 43.106511 14.222123
18.924028 36.586357 21.636611
32.852997 34.315207 13.695477
3.350691 41.727804 16.303277
2.514341 23.626860 27.782303
14.490358 38.444779 27.876888
10.231757 27.832436 31.357852
28.548140 7.175360 32.977115
21.666456 9.052871 16.583830
7.578731 32.651071 37.515172
5.813789 41.537183 16.467513
0.546455 37.251519 27.894302
0.619612 4.267933 20.921093
0.546455 29.345864 26.165208
21.666456 31.911342 13.823291
9.747758 33.055909 23.566357
26.625016 13.675049 28.730819
7.540420 3.269011 21.617014
21.666456 29.574107 8.536576
23.103144 32.397833 26.020241
0.546455 31.450636 23.067194
29.828945 6.053371 10.291669
7.746455 14.152158 10.295382
28.665712 16.806774 24.449392
14.560207 20.279744 3.903757
22.785690 21.027120 16.107258
8.910796 26.342946 11.845855
0.546455 12.308610 10.781811
14.330631 24.717627 27.408190
2.605508 9.718829 35.041711
33.695066 27.104663 18.447648
0.546455 37.726502 15.854736
35.581420 9.528650 10.961354
14.918284 18.853557 2.192898
21.666456 29.688659 32.117605
12.650168 11.808538 18.733889
32.257190 30.975641 3.950794
31.341913 43.188616 29.480043
35.586452 27.869707 27.766230
0.615705 5.299385 24.071516
21.621549 19.181008 39.403243
17.651993 24.896683 27.327252
31.984038 26.169820 17.445611
5.371298 5.223381 24.059963
19.104426 16.982161 7.280812
35.586452 15.133242 25.345908
28.697277 2.834061 20.946211
35.586452 13.839421 14.863079
0.546455 10.625448 29.004374
25.297665 12.630395 27.148103
14.466455 19.475912 6.190649
3.707009 7.988066 25.505796
28.386456 21.446090 9.322435
34.482488 21.871050 15.984372
35.586452 28.405249 23.154015
34.448369 30.293182 4.570427
8.076808 18.988798 16.936523
21.666456 9.066547 28.808826
5.722517 8.608210 26.438824
15.148066 2.519798 20.430262
3.137345 16.279531 22.416959
26.676406 26.137062 17.419161
35.566937 31.203904 7.353193
31.857973 29.568676 5.366183
28.386456 19.817747 5.930731
16.857751 33.567669 13.124900
2.865552 28.678414 6.505100
26.181014 25.607121 11.562702
21.520557 3.706201 21.755139
23.867975 17.318006 25.350661
34.443686 41.314079 13.803296
17.490170 32.317709 9.089067
28.388959 27.442337 24.941677
21.666456 26.142316 35.943269
8.938031 21.666276 27.913869
7.034454 19.511412 1.257055
30.627932 23.846911 16.187561
28.386456 9.643441 20.122496
22.541549 26.782825 18.066347
11.222006 18.401942 26.557475
7.784171 11.481468 25.423308
5.612416 37.223810 19.694800
35.586452 14.947292 32.375646
14.547155 32.156889 37.069802
21.748880 23.565969 10.815873
7.526908 27.058729 18.379834
25.947465 16.220130 31.068826
0.546455 22.965664 14.280454
28.386456 28.475428 6.933443
2.553277 36.867250 20.399690
0.546455 29.125579 12.709453
0.589305 29.458605 38.138602
28.386456 36.045393 17.397354
14.527642 17.323441 39.217730
14.767525 34.337465 13.706714
5.360739 28.232171 6.920791
19.363638 33.477671 13.033772
11.128985 33.048730 20.292798
16.333432 26.178981 17.453008
0.546455 16.899141 29.936014
24.173221 16.429750 23.379104
0.546455 18.640261 32.652659
35.580881 32.433985 35.549047
21.073993 1.744900 21.290537
31.461451 21.699372 5.652104
28.702571 21.347127 39.123156
34.345917 7.367812 18.998691
7.842180 24.665798 32.907866
35.586452 27.645512 13.861717
7.622242 16.570344 23.838191
28.386456 17.343937 10.566179
35.586452 9.747985 25.765837
28.486337 22.651578 37.071413
28.502451 13.220683 10.128603
17.507291 18.038204 43.725643
14.465142 27.058490 11.503950
7.746455 23.361308 34.660372
28.386456 10.882469 32.086288
2.408967 43.201174 29.444762
29.813504 17.691004 25.854988
21.638704 16.765014 7.784889
28.386456 29.356556 34.822981
21.619319 17.204548 38.823290
31.186232 32.510781 11.587399
0.546455 21.186867 11.874796
4.397853 23.929193 16.216634
16.641778 31.137868 40.108641
3.885892 21.628712 5.524254
24.973715 19.092060 11.507830
21.666456 31.690141 33.241524
32.106891 34.173947 30.322592
18.760095 42.044967 27.914943
31.927949 17.193260 39.022960
14.475810 37.127056 19.846672
21.666456 34.931459 27.997289
21.809731 29.818968 13.793307
6.784807 23.958299 16.226917
14.804629 18.825962 26.865930
28.386456 34.801864 26.323373
29.107739 38.242144 14.005749
28.945078 8.604726 30.250507
14.568092 7.618215 11.103001
21.887713 22.185700 33.027364
6.609393 33.654183 3.707607
15.322960 17.124460 6.839717
8.482981 23.872871 27.718247
6.440398 26.445010 7.810800
14.683462 39.730859 29.492768
35.540205 39.433662 17.706267
29.912093 35.708761 29.711799
28.877939 41.440485 16.550827
14.577621 18.286048 4.112547
12.318663 12.492239 26.887596
31.225040 33.577951 39.148061
26.739970 26.621271 26.053442
17.440076 32.850835 36.304541
6.109205 12.947649 10.135499
1.827248 18.713573 0.018249
16.301115 14.310376 9.911931
4.900924 34.300778 13.688194
33.405761 36.611408 21.328143
7.467806 28.167906 22.806472
17.078925 20.886107 3.431868
16.584987 23.931279 16.217371
14.466455 36.369610 17.828857
0.967480 25.224365 7.915704
1.153329 24.302556 16.348551
34.882901 41.293634 16.670522
21.666456 18.766954 35.704399
1.759172 33.289422 2.800432
30.941236 35.026437 14.027515
2.108226 0.001759 21.716436
30.760577 33.078746 36.925793
33.540147 33.085071 36.943411
32.021552 17.187327 4.607845
33.041842 24.169943 7.722384
31.336191 8.467236 30.478684
21.244751 19.980880 41.762193
13.133564 33.052900 20.332134
30.829333 22.941443 7.095229
21.666456 27.403984 9.614184
35.445367 9.247267 35.258623
21.666456 17.959639 5.893864
4.801690 32.248196 9.444317
31.444247 20.362658 16.289229
18.308374 39.495900 17.839239
28.386456 37.847698 16.102629
35.586452 21.470338 30.468407
5.668844 8.763895 14.069656
0.641420 7.116451 32.124735
14.466455 9.995846 26.078855
19.187185 19.455594 43.015372
2.926020 11.639287 9.935402
26.393814 21.840318 32.871781
21.666456 8.841984 14.020787
7.701628 28.866517 6.269830
10.319756 25.366435 32.429598
35.586452 24.424239 30.752421
5.550269 39.611934 30.118617
7.633713 39.627241 16.242871
33.830112 4.278060 19.992702
19.640544 24.731112 7.869006
20.053168 41.686923 30.095912
14.139476 27.452985 19.013358
35.575994 18.806759 5.381375
35.586452 8.059924 23.033422
31.868923 7.791819 18.629957
35.586452 12.692934 33.793159
10.561473 24.854781 27.346193
14.466455 9.615556 24.092510
28.506566 7.176755 11.393231
35.586452 11.311305 12.330179
7.033047 31.692587 40.530119
22.134720 18.790679 32.347745
30.229816 41.449036 27.383417
0.546455 19.579898 29.649523
10.673724 24.697820 11.315533
0.546455 12.163959 19.999242
21.653235 27.133643 7.588859
28.248666 27.040198 11.901439
16.543133 19.845127 27.437771
6.659710 15.680177 9.159943
35.048926 20.189040 2.019296
31.336608 37.331249 29.716569
21.666456 9.262586 24.802884
0.546455 7.547362 23.103405
4.230176 36.594316 14.284495
3.580576 22.159530 37.582495
14.541813 7.973720 32.964455
21.216373 27.905719 23.907589
10.338324 31.380913 15.971024
0.546455 24.451152 32.753704
17.496309 1.970896 23.292695
35.586452 33.383992 20.499988
32.701392 43.249411 14.617638
3.017272 17.204852 3.869778
7.746455 12.482101 33.626520
28.386456 33.471443 13.665931
20.908603 16.260289 22.071558
20.206054 0.001268 22.141469
7.746455 10.201184 27.921768
33.009425 32.223903 34.106969
14.508182 16.622140 35.867530
7.746455 35.349285 20.166932
2.974157 27.205230 18.610979
20.542431 17.877650 43.312362
35.586452 29.251231 29.345024
21.583452 4.220176 23.839170
7.746455 10.153095 14.629715
15.999215 26.495113 26.174355
6.515342 9.736903 8.895521
5.894781 16.848035 36.301468
0.910250 2.590421 23.497379
35.586452 28.191957 9.027227
0.546455 10.209314 12.460489
32.822288 19.005406 16.927245
28.424065 39.330202 17.588211
6.989372 20.997844 27.815473
3.401739 20.192002 41.902602
35.586452 25.488404 16.530385
30.717503 6.288526 33.255078
10.622311 29.007057 13.383694
15.104347 41.763900 16.272181
9.140938 16.767307 19.570291
28.636158 7.887375 9.262698
17.019069 23.485760 36.488144
19.196325 3.376585 23.745279
3.051109 25.303658 16.822082
3.167913 26.831356 25.821124
14.651771 21.195616 39.619869
21.664653 9.986426 33.368864
14.466455 8.927478 13.945407
28.453208 30.283433 5.895558
7.746455 21.503947 37.168210
27.454366 11.450286 20.276762
30.243718 7.920564 8.033514
35.470634 9.033952 27.990944
14.969238 28.778629 37.547120
5.194465 19.347953 16.735887
0.546455 27.339102 11.387626
35.320922 16.549140 23.768952
0.546455 24.511467 27.583957
14.530747 14.000276 33.925607
35.586452 29.931417 13.576905
17.396643 22.127100 6.303190
28.412115 10.068665 34.199350
1.929660 5.124625 7.759699
0.546455 14.646104 17.292143
18.600279 40.096672 26.425364
24.438408 24.010080 11.177270
12.665161 23.979644 16.234459
32.465010 7.227911 31.990259
16.638926 19.917063 1.569414
7.746455 9.992850 32.065098
35.586452 15.976412 15.161431
27.384192 19.668251 16.556958
2.854087 33.354304 37.900287
24.106182 28.243050 22.219659
28.414353 32.300396 10.891089
35.586452 17.356207 31.701419
35.511345 9.017613 16.089549
24.145405 18.435323 32.192963
35.586452 11.879392 19.662849
35.586452 25.997766 9.514417
14.466455 9.898252 31.818779
32.848053 39.621092 30.119621
7.746455 27.942749 8.362121
23.736821 19.426478 27.248530
29.397564 7.793146 18.628544
28.390269 28.816164 37.530643
26.693595 18.423217 32.188139
3.697267 32.503937 32.353463
9.978984 11.890211 25.443728
0.546455 31.441603 14.742508
10.483984 32.580649 18.409917
11.663527 23.750640 32.787102
21.265253 20.606420 2.799794
19.414546 16.442658 35.604729
28.386456 11.377608 11.774736
32.122420 40.862658 13.779123
29.363603 9.736086 8.895027
7.746455 21.414515 34.067416
14.466455 11.265842 13.882124
30.538287 6.220918 19.626961
7.815028 33.467001 22.738681
28.386456 37.536993 18.794170
7.746455 9.229444 29.683948
7.561759 39.583049 29.311536
33.284117 13.651810 10.077303
5.440012 17.134813 6.773816
33.915452 17.183341 37.461949
7.623640 21.314579 4.702125
20.949074 23.017534 27.897996
0.546455 32.327531 30.508681
28.545181 9.049679 15.550630
17.015258 38.700507 13.924208
30.535371 28.488904 6.697054
15.139864 24.802826 36.050702
10.634596 15.575270 30.615393
21.510180 29.073423 6.004616
0.546455 20.053262 27.623524
35.586452 15.198259 17.262979
21.846749 27.531479 12.216516
9.279669 32.499925 25.740421
28.448723 39.648890 26.375789
18.942228 21.186975 27.864718
26.007683 25.148975 27.213209
19.473952 37.367659 24.457874
23.279738 30.711790 15.055528
5.288375 23.888944 27.714062
35.586452 13.174526 31.181646
7.746455 7.501774 19.794007
32.743115 6.131552 19.657608
35.586452 11.834275 28.567124
7.727403 18.953885 5.155981
0.546455 6.157026 20.118572
0.546455 8.385841 20.522747
4.632582 8.891107 16.739071
24.379155 26.755173 25.924130
32.149149 17.155868 6.639796
24.185718 31.185944 28.253825
35.586452 29.380627 25.832165
18.476759 33.156743 6.754419
14.466455 19.056888 34.353098
30.857507 16.888167 19.269518
30.248678 16.910783 7.497726
0.670579 8.326326 33.967618
31.942970 20.998866 3.733884
32.809890 27.879425 23.993448
33.569457 28.750873 37.512405
5.564409 25.612585 16.995674
29.612874 39.894774 30.134062
21.654597 9.135081 11.191326
14.085321 28.147768 20.958696
12.617899 28.261298 12.847529
35.586452 27.523069 17.585436
31.500594 27.981494 36.800342
19.089648 20.657747 41.014112
16.748762 33.863391 30.548817
28.411475 31.678241 36.422119
28.662741 26.858717 36.224138
0.546455 36.305008 21.857811
17.944879 8.803941 35.524851
5.265843 22.711171 6.910069
28.386456 36.383000 21.400021
34.042674 31.354287 40.285484
14.466455 15.216281 31.519264
21.666456 33.767551 20.907396
35.586452 28.438414 32.466032
34.930332 26.764910 7.735684
18.436585 6.047220 33.646189
0.546455 12.427237 22.327307
5.802933 32.777368 31.794619
23.066394 11.396613 23.143848
5.099561 8.045845 35.849606
14.642931 30.242418 38.985739
5.493421 35.097771 29.876870
0.830525 14.628787 34.137230
35.586452 19.804665 9.751194
21.625452 38.576966 28.563681
35.586452 27.562365 11.127122
21.666456 15.112816 34.127592
24.662633 29.420666 13.735017
6.782124 8.962448 16.479310
28.386456 19.134492 8.038613
33.610989 28.232725 21.970283
12.391412 11.344117 21.278187
7.746455 36.982471 18.840512
3.884337 0.505400 22.585329
25.007808 24.626620 16.463051
15.895085 12.447084 33.813232
28.386456 8.093394 21.630726
33.877299 35.989010 29.671343
29.592633 31.046952 3.892526
28.386456 9.309445 27.913055
12.733504 27.588382 31.493229
16.372238 36.600929 21.457178
28.386456 31.236805 31.314026
5.673421 43.180297 14.753859
14.466455 25.684616 8.069278
35.480480 28.150800 36.935172
21.434643 36.495259 29.640529
35.202158 7.264222 11.980239
6.887892 24.590209 36.094686
17.659441 31.201303 3.766404
29.241740 26.512459 17.759152
0.546455 21.805690 28.622076
20.242980 5.495229 34.713344
35.563316 37.941139 25.114150
14.466455 36.123137 22.230182
2.733635 20.635862 2.863020
21.666456 20.758609 34.495125
12.536650 17.990060 11.911322
4.843186 28.140408 23.021207
17.053875 17.057904 18.991312
29.415383 33.618767 40.464311
0.546455 8.980970 30.808748
7.746455 34.630651 15.184786
5.608954 32.547093 11.661615
21.402964 17.234019 25.237104
28.386456 37.752004 25.714132
4.533757 15.787768 34.870575
7.692709 20.973611 39.787659
35.586452 37.893808 27.141734
6.465821 17.377030 25.430468
35.391367 20.563012 40.799597
28.809657 23.594041 27.790849
22.774499 23.322196 16.081881
15.880628 5.004405 36.017229
6.143453 41.593349 30.102856
6.299610 27.483072 24.860883
14.466455 32.564446 16.173221
15.049874 22.656156 37.067218
6.952306 38.388592 25.475568
12.837842 32.051553 26.784955
28.386456 35.541086 28.395081
21.401982 7.226568 11.935000
2.839229 18.813114 43.795055
21.620593 25.161903 16.742893
1.027444 36.356648 14.288939
17.720037 17.403233 2.304459
0.546455 24.924242 11.008294
31.231328 42.045365 16.011544
32.472906 4.100051 23.901950
0.546455 30.342170 8.282508
32.747362 40.730560 17.090648
5.680142 22.342560 37.354574
20.144973 5.085070 8.147038
34.014037 16.960051 7.348004
21.666456 12.973532 32.010388
32.658282 16.665010 35.949882
30.356691 26.626933 7.768083
4.220704 32.260508 34.545480
33.959471 32.581935 2.822184
21.634875 34.307245 30.235417
35.586452 13.034102 16.862348
35.096335 37.872526 29.834122
33.582834 38.900157 13.889911
31.801377 18.190709 26.355025
5.371234 26.421647 36.110589
28.916910 17.236929 5.955744
2.622077 32.343848 11.043529
13.806024 30.800143 15.167915
0.546455 19.207651 11.221156
20.692549 39.638053 30.121480
20.091945 17.214690 40.207362
3.741445 16.960583 24.754454
30.380592 15.094504 34.358250
3.194386 5.772178 9.787549
24.511278 29.274473 30.316037
19.621270 23.924485 16.214970
23.127728 16.295083 21.252458
0.546455 26.524383 36.121595
35.586452 35.175397 22.051728
21.303531 8.799443 26.855692
14.487354 5.091000 20.741170
11.487745 25.491762 16.927163
28.422864 4.744565 21.493979
21.666456 10.768582 29.944263
0.546455 37.041960 18.090225
35.586452 30.370475 31.331522
0.546455 22.601462 30.525675
0.546455 36.938895 24.358301
24.553657 33.120191 22.960020
25.557851 20.803308 27.764820
28.386456 21.850872 34.880900
14.466455 32.925946 27.982147
2.310605 28.045203 23.452123
20.257199 24.894845 27.328083
14.466455 21.832401 35.263065
14.466455 12.383485 32.249061
14.005860 16.284280 21.506771
32.765224 8.561749 13.605043
7.397682 18.205649 2.782016
4.115199 6.858366 32.440257
21.624949 5.391858 19.841304
35.586452 22.528074 28.610796
23.568022 27.836155 24.134739
0.546455 27.811172 8.976383
6.187882 35.968097 14.252515
35.586452 29.399106 16.435739
15.094132 28.179937 22.712516
19.421574 22.474625 37.233559
32.195330 8.788122 8.394223
21.666456 12.553304 13.295746
16.346297 27.744867 24.341646
28.569876 25.679944 26.860123
16.265115 38.909690 18.140333
35.156641 39.814938 26.261044
20.017529 5.839454 24.169099
12.590271 21.658719 15.998960
10.952966 26.482482 26.186461
21.666456 23.084366 8.370604
35.586452 33.737582 13.474420
8.024188 17.469360 12.035328
16.349927 5.851903 33.994912
6.847416 7.240547 11.951814
27.160059 16.442217 20.528706
4.409979 43.244774 29.322267
8.432553 31.903701 16.839902
23.208814 31.942397 16.913778
15.267984 2.256056 23.400719
0.646712 39.950638 26.475088
28.386456 34.151015 15.698845
33.512198 43.076352 29.785815
34.663829 29.886837 38.931910
19.688761 14.645781 34.145283
21.399363 21.216744 39.549629
7.258297 30.087284 39.141333
14.466455 27.676929 8.638516
33.644518 28.723020 6.449309
34.005340 8.602037 26.425368
34.544918 34.136106 30.350157
1.386039 21.488832 5.223742
30.901776 15.704328 9.136679
14.424876 29.399541 13.212532
5.741024 21.333084 39.164782
0.546455 24.642735 34.801242
33.490418 20.830866 27.771995
0.546455 14.865624 19.711268
35.586452 28.728715 20.659253
22.242732 33.132963 22.857238
7.746455 19.381195 10.330863
18.818323 31.952498 40.714137
35.586452 35.687735 26.157191
16.119951 33.630142 41.080420
14.453149 19.025289 11.032102
8.755628 25.704970 26.843209
16.804355 4.959008 24.025730
35.433119 32.415421 32.646069
30.168769 20.898875 40.463949
4.382242 16.174147 8.681257
14.466455 31.422914 11.194379
21.375142 18.565338 2.962135
20.486901 8.264783 18.066335
33.477215 22.237168 37.483885
14.466455 12.787130 29.981495
2.984014 36.595179 22.398900
14.466455 33.911974 17.766655
0.597683 9.708450 9.280981
35.586452 16.529000 8.585144
21.666456 34.570371 25.978632
28.706468 33.196940 38.114815
35.586452 18.335804 12.997729
7.714797 8.026959 25.547193
3.243774 17.047032 7.083671
24.179742 27.909974 20.018153
25.133306 21.437916 11.076914
21.666456 33.020892 15.577499
3.199495 38.403770 18.439048
20.634241 11.771397 33.948086
16.932471 40.754260 13.777708
19.583243 32.377688 11.155715
0.546455 26.604385 28.233845
35.586452 9.322638 18.472780
31.696810 37.056975 14.263432
0.546455 13.483576 24.480524
7.523826 40.251511 26.516198
19.162111 20.313682 2.231210
18.537627 27.904426 23.911810
0.546455 27.599983 19.117295
4.625151 33.566563 4.891801
4.150198 25.485112 26.991807
20.421143 6.997047 32.267909
17.444045 32.230115 34.306242
3.471907 2.736544 23.563882
14.524552 32.361532 8.865112
21.666456 22.145033 6.492105
29.228653 24.647637 36.079682
21.396521 18.758999 26.820671
18.569955 8.829031 16.965096
1.764563 31.378764 40.304149
3.594931 11.508735 34.041775
0.830053 34.943433 29.925532
0.973628 16.284344 22.454545
30.657796 13.188131 33.794400
3.466477 36.352101 29.637852
31.811606 28.053363 20.520653
11.406611 11.444068 23.591468
1.261164 41.758182 27.649769
32.193686 21.296887 39.283513
28.423774 38.306287 29.018710
5.298404 21.941859 15.976471
21.666456 37.467012 16.386504
4.414362 40.579343 13.775423
0.546455 19.200103 6.208394
19.112006 34.310429 30.233810
33.934597 17.492507 25.586603
28.386456 19.879141 37.705919
35.124528 40.658199 30.046761
35.586452 26.418559 29.796731
35.586452 23.523612 13.787578
16.204392 19.347769 16.735990
15.413736 0.749252 21.914115
35.586452 9.292303 20.572168
7.746455 19.307076 8.290979
15.028964 37.427721 29.735946
0.546455 15.116774 31.321545
30.402699 43.211539 14.511236
0.605574 18.645231 39.499448
22.487330 26.140834 32.161549
32.266600 5.309529 35.162675
29.940194 33.629974 30.738890
24.773978 11.816945 25.220907
21.666456 38.017589 18.508837
21.666456 31.967979 9.462957
10.589658 18.958898 11.544026
7.582711 18.923116 40.342843
31.145948 25.846236 36.021049
16.688360 6.707291 11.280614
7.942537 14.567311 13.971641
35.586452 14.143577 22.756223
35.503693 20.900933 3.891627
35.586452 32.472991 22.330195
14.466455 36.000590 25.900974
34.903850 1.821055 23.235932
28.386456 23.052923 7.941024
7.187318 6.048662 10.283263
14.466455 36.361505 14.667868
29.776617 5.004965 36.015580
4.685554 33.545567 2.796819
16.989921 10.788172 34.370504
30.531091 21.779026 38.130650
14.466455 32.035315 32.133371
35.574488 25.413537 27.040183
20.838172 2.120995 23.349558
3.615096 7.143813 11.835480
19.782335 21.683491 15.994712
30.781570 19.251278 0.647496
21.282086 30.951168 4.203905
25.851786 12.017107 18.131875
33.272604 37.826205 18.927051
0.546455 26.333411 16.882498
26.271530 17.988965 17.754482
8.572172 16.951075 31.516606
28.386456 19.904772 35.608931
21.666456 32.536007 27.747589
16.257903 16.355989 20.928805
20.363290 7.652999 25.149164
35.456429 17.842335 17.921086
17.547355 6.893617 24.610530
14.507888 9.439615 9.853286
12.332400 16.646230 19.871603
17.881011 36.061407 29.660892
21.666456 35.949555 18.615067
30.373011 40.165634 17.461295
18.618731 7.184479 19.139367
16.066301 27.991543 20.233803
30.614468 39.472732 26.075938
14.466455 34.210916 21.287964
18.398425 0.512913 21.337008
2.848015 8.054697 18.350160
28.580541 23.486470 16.110048
34.696588 36.770945 23.281124
2.416539 15.892434 8.955479
30.818541 28.185039 22.672673
7.472739 28.103927 20.755270
3.045605 33.641708 41.073633
35.228162 16.272635 21.780912
35.586452 31.061605 24.653873
20.586433 19.542370 1.023633
16.891396 24.252270 7.743895
31.080637 11.902544 10.006155
32.275767 41.770177 27.660107
28.468055 13.133770 33.787932
15.304871 41.937252 13.995409
21.241381 17.174970 18.801184
24.151834 26.836713 12.042590
0.597156 30.697228 6.265933
16.731440 7.939988 18.472252
6.373837 7.702147 31.471944
4.835031 5.186935 36.242518
26.444483 14.636343 14.120837
0.546455 17.155981 12.005202
7.716801 30.647727 37.158933
35.480641 31.460215 37.720299
7.746455 28.278299 36.886331
6.696046 1.552837 20.811331
16.871435 17.186598 39.158790
20.529434 7.303469 7.825302
0.546455 10.055638 23.747538
35.586452 6.612647 20.416833
31.981983 20.531036 41.273502
28.725431 17.565889 18.235189
6.616101 32.353330 35.019848
28.386456 10.956401 29.592077
35.331407 7.494651 9.672509
16.326176 7.347751 36.089080
32.936729 32.787452 31.774010
14.740164 10.564315 34.506917
7.250270 7.720816 7.963751
26.635297 27.646993 19.363699
21.410987 38.911223 13.888008
21.423483 32.566540 38.088421
14.466455 16.697618 11.285134
25.067470 16.797973 19.493976
0.546455 12.525341 12.919090
19.469523 27.483846 7.434916
28.354907 30.860781 29.337027
0.546455 11.126124 14.485912
30.563578 26.915359 25.707545
16.362369 5.839478 19.757769
34.456961 5.136777 35.691526
13.136744 11.677987 24.712269
13.589618 26.497557 26.172013
33.430529 25.703696 26.844070
28.365318 31.737122 15.693674
28.689007 30.084474 39.138396
35.576060 9.646764 33.275018
21.666456 11.514773 15.121225
7.746455 34.905370 29.737519
16.623601 26.500242 7.797831
9.621845 22.631942 11.053738
14.466455 18.613220 36.461561
21.666456 11.350698 10.188203
17.810652 41.035976 30.144216
28.386456 28.382528 32.114544
5.270118 3.000423 20.281098
28.012371 20.841684 27.774812
3.056501 30.763203 4.131605
30.373825 32.317910 32.969334
30.650412 11.188253 34.165255
35.494399 11.628723 9.931332
19.635262 38.054568 18.721107
28.386456 14.448677 11.737363
8.197617 18.204652 26.368388
11.134037 21.719943 27.918437
33.624634 17.211322 40.155933
8.053315 12.932490 27.801471
1.282469 42.266784 15.736914
16.431827 14.857106 34.245434
7.746455 12.495434 13.609132
31.618847 19.990959 27.503691
9.595685 11.329957 21.528517
24.816834 14.842941 29.993347
18.583979 26.013740 17.319585
22.027722 27.801869 19.749123
4.149535 32.889958 7.526981
28.386456 17.010563 36.164838
7.695585 9.006438 33.903549
0.546455 22.087850 37.574468
35.586452 18.989717 29.716577
32.341813 7.746530 25.248715
0.546455 12.747751 33.421898
9.184797 27.117029 25.434869
1.054708 32.427940 32.604567
27.972606 33.126067 20.757036
32.792092 38.309651 25.411805
35.586452 20.361986 12.834336
35.537265 4.455813 21.661961
22.469882 32.825464 19.242483
5.479209 9.020733 28.891679
21.666456 35.478811 14.594260
0.760139 39.923703 28.973814
14.466455 13.940589 11.114766
35.586452 31.916713 29.379194
30.402195 36.669920 21.053106
34.780102 6.811061 7.686376
29.231321 42.231929 29.219984
30.589352 19.021639 43.557105
27.127144 32.093890 17.235417
3.864746 41.930905 27.803854
2.730450 13.879315 33.890758
34.944409 35.517555 14.182364
35.586452 24.002040 32.867014
30.873072 17.315531 2.779779
1.431616 7.968980 35.876452
0.546455 33.442471 20.174563
17.327220 2.847923 20.328428
22.407289 13.451318 15.480650
5.538306 20.896722 3.457091
3.451285 6.682768 7.655029
21.666456 10.611436 17.953345
35.586452 9.210737 13.490475
14.466455 29.668949 9.832241
21.666456 10.752385 27.294543
16.745729 17.076084 36.931491
11.028650 20.914289 32.809478
28.881280 33.167120 4.955638
18.145957 33.645639 3.923276
10.660560 17.316637 31.717297
15.179400 8.916243 29.380777
3.124575 38.776176 13.911199
7.628170 8.439165 13.401606
21.666456 36.193754 23.095817
18.473631 17.148269 25.121162
7.746455 15.340052 32.526178
28.386456 9.122368 23.595242
30.697162 8.722656 17.238571
14.732774 11.636789 9.934439
7.746455 33.207895 31.019468
35.586452 23.600485 34.898164
22.960061 18.700098 11.628417
17.348366 43.258229 29.284463
27.881623 12.573380 27.062633
1.905547 22.319787 15.966460
15.292225 33.550679 38.933342
17.333130 33.577805 39.146642
26.852423 33.104974 23.103559
35.586452 36.874210 20.042243
0.546455 9.099608 14.938006
21.666456 14.968867 12.105969
33.256465 32.256421 10.557060
3.789511 38.520499 29.971745
31.366648 8.728993 26.702117
1.036855 19.827306 1.910803
18.312947 7.320372 7.830074
21.447730 7.461909 33.956288
0.738196 39.479370 14.194938
14.466455 33.967082 25.676060
21.664035 8.094414 31.066975
6.489571 41.567866 13.822131
0.546455 9.718593 26.863684
21.666456 34.246065 17.535691
4.057875 17.189249 39.754975
21.881002 14.529366 29.892279
7.746455 19.630448 35.266246
26.921096 11.858131 25.354925
18.106717 26.914716 25.708414
19.683985 13.209320 10.129955
14.466455 8.695151 17.765071
27.786388 12.493649 17.036164
30.716995 37.927634 18.823634
14.870394 35.354420 29.795949
35.586452 29.580832 10.781874
10.599571 21.459365 16.033142
21.666456 7.566394 22.792917
0.930004 30.920113 4.184820
0.546455 8.461325 18.281685
0.546455 29.292541 22.009692
17.721224 36.861441 23.513641
17.806341 38.902874 30.037431
3.263937 4.962855 24.026186
35.586452 29.789008 18.670787
1.139703 16.913864 19.225247
31.021298 33.485743 5.392162
21.378953 9.174648 35.342002
33.260921 10.397193 34.612544
7.746455 16.080698 34.920831
35.419478 4.552985 23.977639
11.857631 19.793518 16.490319
28.386456 30.778484 33.339888
10.365282 13.377850 28.348525
26.790002 29.161231 30.412226
12.771321 17.734912 18.043142
0.546455 10.966086 31.665236
33.980789 15.699255 34.785312
34.409883 9.021498 8.509335
1.115793 17.083549 6.972697
4.948903 37.322638 24.387205
35.586452 26.956082 35.166072
25.454785 20.894972 16.129917
0.546455 17.580936 27.727310
2.267036 8.617540 13.703477
7.746455 15.329570 12.041104
20.372327 15.110696 9.557439
32.922221 26.521850 7.792757
35.586452 11.427438 14.507805
20.674210 33.555476 4.964088
32.332041 22.344978 15.983046
19.242993 39.936569 13.790800
3.041225 19.412062 27.242013
7.746455 17.587814 36.837010
32.836449 18.860078 0.185405
12.052561 12.566040 16.892381
13.924402 19.349220 16.735179
19.599791 16.526365 20.169902
8.190671 26.683448 31.969272
0.546455 22.978282 7.631803
10.171315 16.478148 12.687160
3.382606 29.183970 38.070279
0.546455 33.337913 28.227126
14.466455 7.776076 22.902240
6.491968 26.101476 26.551625
15.132186 22.268259 6.482479
35.586452 19.266095 32.968230
28.949689 19.625851 42.230740
34.384061 21.331335 39.169964
14.880203 7.699304 8.401958
21.666456 25.074322 7.988183
32.918473 8.781921 17.109380
0.546455 12.133249 26.079852
21.526734 39.851171 17.644699
14.516781 39.462120 17.336722
21.666456 30.551188 35.451810
35.586452 17.484865 10.503565
19.144746 9.021255 15.044508
22.505275 21.234399 27.877067
35.515974 20.177760 27.588130
0.546455 16.951285 14.491859
6.890513 38.782861 18.209606
14.466455 32.268781 13.857298
4.080209 41.320045 30.123138
19.702300 32.710793 2.751417
5.529456 17.483545 1.926742
14.466455 10.956134 17.679897
10.349065 13.148526 15.917632
28.904705 1.989162 23.195172
18.154495 15.313896 9.417036
21.666456 9.926029 22.266821
0.546455 15.324328 28.498938
8.753031 11.610604 19.520730
21.666456 28.213631 34.763657
15.553168 32.425391 35.271936
9.771041 27.970872 23.694841
28.453002 32.561253 7.232252
20.517011 27.886921 36.741737
7.746455 24.322287 8.040522
0.546455 13.326331 28.145200
0.546455 26.537617 30.448705
27.983620 13.545096 15.321068
13.324246 24.967122 32.538140
21.666456 20.037933 37.503589
1.099969 33.193834 4.743268
3.584107 17.089715 36.972916
1.153522 5.798006 34.326888
14.197323 13.083734 15.829256
0.577273 8.431546 11.407853
0.658783 40.008308 17.287389
17.710422 22.955229 27.903299
7.746455 36.258468 26.609448
5.026797 8.285676 8.176580
29.567578 0.231151 22.419011
7.746455 9.291830 23.876505
6.717977 5.224399 8.482208
17.009541 9.720312 8.886027
0.546455 29.615338 10.532204
32.309940 9.042678 28.500912
21.584288 39.719244 26.739544
25.548494 16.273412 21.762627
15.488035 8.218893 25.792323
5.690309 5.325975 19.851318
29.139695 17.556590 1.638987
14.466455 29.147937 32.156486
2.105586 28.034810 36.834089
14.517977 4.517795 23.686742
2.850009 8.864483 27.090866
0.546455 30.471184 20.257789
4.438483 29.503920 5.442626
35.586452 18.673971 7.761854
16.485061 16.343276 8.455062
24.919271 13.662855 15.211568
14.594990 19.212721 40.128579
18.156135 28.162066 21.025039
4.590211 14.337038 9.904250
28.386456 35.075312 19.882940
2.719896 8.411715 30.570826
15.309348 9.039537 15.883426
18.662301 6.388510 10.827191
1.364479 17.038180 36.816301
8.878321 28.153308 12.776005
16.909177 17.203163 5.078942
10.547715 14.750711 14.011870
5.586591 37.242200 29.698683
3.254758 16.476806 20.368214
29.988572 17.186777 37.483822
18.043122 12.789089 33.798300
20.181672 26.826955 25.827076
35.586452 35.147681 16.279297
0.546455 10.576848 18.685080
35.586452 15.571838 27.610846
15.040510 17.432673 41.777541
31.582369 16.842289 24.519832
19.104025 17.201426 3.922132
16.771916 36.323397 14.289561
7.746455 28.150390 10.641575
0.546455 22.389285 35.172866
35.586452 10.431051 23.736535
27.867012 15.868834 13.093002
28.386456 26.473316 33.874092
4.735892 24.313290 36.167039
21.666456 9.822285 20.024803
30.841595 30.987285 39.985600
20.882866 28.224458 21.775677
21.675053 16.579683 31.877756
7.902891 13.203129 15.500158
14.466455 10.776403 29.124939
18.033546 5.305476 36.382393
15.809777 41.920768 30.064555
5.108354 16.898776 19.249751
23.966737 12.555445 16.912764
11.772204 27.888294 23.964488
28.947680 40.617531 13.775924
19.822462 32.617655 32.121043
35.586452 17.770726 36.390928
31.539339 5.852879 24.173702
19.572712 32.230484 34.318071
35.586452 11.002401 31.027318
1.789096 17.689216 25.852570
19.288862 8.566995 30.313125
19.442716 21.346647 4.802297
14.625072 39.316400 14.465169
21.666456 17.630316 10.192400
5.728110 16.362891 23.067939
33.771495 32.942366 12.384897
21.587532 22.707612 37.020067
0.546455 13.558473 15.132035
7.746455 6.328277 21.496171
30.514474 8.630220 13.735202
7.746455 22.228430 9.150539
35.586452 31.551543 12.264154
35.586452 36.292204 17.922628
4.961015 27.059051 18.380200
13.324449 25.100397 11.424962
30.336345 21.610035 27.909083
1.741027 32.711175 35.979374
0.546455 33.154204 17.543692
14.061476 27.712131 24.406573
32.213709 23.665003 27.772371
35.586452 11.063963 17.215149
28.529557 17.530452 4.005083
28.386456 11.243232 14.242624
5.000327 19.793843 1.388395
7.931367 16.297055 21.206026
14.466455 20.065485 37.944222
7.746455 33.231749 13.531203
0.635860 17.775570 4.369509
16.420840 33.517692 5.196037
19.369401 2.695226 20.375817
28.660498 40.451296 28.321525
14.466455 16.733320 9.230516
18.645105 8.676223 26.587085
2.671800 9.010189 16.159343
4.608604 21.128362 27.849457
29.995467 7.667861 25.164982
0.546455 34.083501 15.292454
12.112775 27.058508 18.379583
29.772387 19.237921 16.797354
0.546455 34.320158 23.138513
6.368953 33.648070 40.984212
35.586452 19.658082 35.019564
1.088872 19.901044 42.206593
7.746455 13.014744 31.369280
21.324928 18.677764 17.162787
28.849823 17.399564 41.470879
12.857975 16.390903 23.252255
0.633457 33.069153 12.563586
0.546455 14.886985 26.401366
17.639408 12.816428 10.129770
5.705362 0.000815 21.849038
0.546455 15.222966 13.428144
35.586452 13.868487 20.582652
35.586452 35.790259 28.154592
0.546455 16.409922 33.231927
7.746455 17.896436 33.722979
7.252408 7.703818 35.969065
16.647709 27.634570 36.585360
23.892190 22.981796 27.901038
7.746455 29.958318 8.011690
28.386456 10.727138 22.152026
0.546455 35.703108 26.168990
5.355736 19.350982 27.214403
3.436228 20.975106 16.116176
0.546455 14.570105 11.369872
21.666456 32.238891 31.294188
3.195026 17.533395 1.730370
34.068231 33.001137 7.217325
35.574594 18.415620 38.494874
7.434037 32.391948 5.373546
30.346202 37.531512 24.670064
0.546455 33.096975 25.185801
15.265907 19.306964 42.898331
5.486339 36.595714 22.405482
0.546455 30.234600 30.568748
16.556968 41.971074 27.842970
33.315761 22.474174 6.692902
26.368964 17.069403 12.344633
34.834838 41.615558 27.526890
27.679745 29.662263 13.940231
2.505334 21.351951 39.108857
28.386456 28.444604 10.451547
3.971907 38.933375 25.799480
0.546455 27.373736 25.519197
26.299365 28.218326 21.631325
1.580294 23.644287 36.417800
20.000351 41.131041 16.794125
7.746455 33.441706 28.227340
0.546455 17.600239 17.415711
7.748573 31.174771 14.724730
26.054666 11.336849 22.580137
12.096984 28.101353 20.743328
0.546455 31.195917 18.000434
32.089542 17.759036 42.969776
8.525609 14.886034 30.029950
7.746455 7.157778 23.694424
0.546455 31.295729 34.783390
19.135177 29.950884 4.928052
14.783340 41.026272 27.232873
28.386456 17.635442 34.190028
35.586452 13.273154 11.657871
34.550214 42.770299 15.255072
35.586452 11.098989 21.785146
4.326026 33.594025 39.307571
5.860574 1.870569 23.254694
14.466455 7.314736 19.676528
19.612086 33.603733 39.403877
7.746455 28.630515 33.526507
31.145499 3.155726 20.235622
7.389354 30.525208 4.351668
34.250621 17.187683 4.527089
12.662444 23.120700 11.080238
2.616513 33.896942 30.524376
21.666456 7.396981 20.439786
0.546455 32.059786 10.633367
21.666456 19.985108 5.746812
8.199176 12.210012 17.619897
16.781906 29.829909 5.057632
32.117820 6.857007 11.484766
23.963694 13.546351 28.567111
31.462335 5.491370 9.205535
19.885710 27.733980 19.580176
28.386456 33.613087 17.644013
12.602542 23.503069 27.814536
33.434202 12.439535 33.813561
7.746455 36.786098 28.670335
2.310232 13.756973 10.064790
5.391386 40.878973 26.941132
7.641794 38.860866 14.326654
33.753454 5.839547 24.169130
0.594575 32.497065 8.471646
0.546455 22.456381 10.267127
35.586452 16.038187 19.198187
34.185854 23.846823 36.327927
18.676795 16.369395 23.118729
35.586452 22.479699 37.012966
23.239406 27.840771 31.353229
29.541508 4.948962 24.024549
0.546455 13.250192 30.599493
7.832526 21.171594 16.082485
14.466455 34.453606 23.410784
35.067661 17.803850 41.763404
20.917975 9.719171 8.885388
33.610703 25.100093 16.708364
18.288657 5.443404 9.091211
7.746455 30.384996 12.621841
10.591190 16.296369 22.548453
15.800090 5.178526 7.694526
29.921156 21.109676 4.034160
35.242155 7.191144 32.034475
25.008197 11.406534 20.689442
19.156920 30.333285 39.397746
27.973452 16.463752 31.264053
33.145222 16.346913 22.943162
29.712619 19.390484 27.232259
14.463553 17.250712 32.303620
3.447389 17.510175 18.298492
0.546455 28.669038 17.407450
25.934055 17.379329 25.433576
0.546455 17.242379 9.194646
18.870132 11.103509 9.728969
9.445545 26.590033 17.847293
7.746455 34.983387 25.063829
9.772941 27.947251 20.110920
35.586452 16.844095 34.314163
28.386456 34.864113 24.223613
24.277745 33.088335 20.666369
1.822638 19.326346 16.747957
21.036692 36.690510 20.970082
8.092801 25.394297 16.872716
0.546455 10.479782 33.710777
7.746455 9.116592 21.199755
0.546455 17.500276 35.000336
7.746455 10.219175 18.389395
14.466455 23.289245 8.321541
7.746455 30.422860 10.016662
7.184691 41.676828 28.263427
14.466455 18.965919 8.414067
17.391861 28.281745 6.877588
32.221920 8.697916 35.577147
28.386456 10.692380 18.005267
33.910835 5.732701 9.705738
30.779143 2.670495 23.543384
14.020916 25.436453 16.896266
22.677096 24.918087 27.317577
35.586452 31.812834 15.335990
35.586452 15.700952 12.837669
33.477546 25.995724 36.031315
20.342905 33.288563 41.279285
30.958734 29.418974 38.383926
28.386456 30.648119 9.512683
28.386456 8.972088 13.188724
14.459421 26.780034 32.455734
12.779738 14.905366 30.046371
21.188501 6.068634 9.940595
14.466455 21.302252 9.000029
3.802509 30.495027 39.547302
10.105579 23.427091 16.099867
34.394771 19.812720 42.510749
30.033383 5.153396 7.724911
20.629020 41.398276 27.339683
28.406481 17.973215 38.631669
16.956058 32.527297 32.305720
14.466455 23.465827 33.996257
0.546455 29.766023 32.943172
26.778720 22.609029 11.052496
28.386456 6.639884 23.139681
33.918248 6.196101 33.398723
35.586452 33.443583 27.597570
7.746455 12.002996 11.474976
35.586452 31.855687 18.033193
0.546455 29.363576 35.635141
13.936031 21.308619 11.078448
0.546455 16.449551 24.411206
35.586452 15.596070 30.133720
0.546455 28.822992 28.784224
35.586452 17.670180 27.638588
28.539345 36.977690 23.784685
31.216221 32.706280 41.172985
30.149918 27.642905 19.353527
0.897685 38.107058 29.889334
32.656247 1.670991 23.168756
0.546455 20.794137 15.959799
7.559596 7.104930 33.183246
14.954141 39.239206 25.958203
0.610258 20.639387 39.849936
21.766381 30.698594 29.307775
28.201364 24.422383 32.836960
0.546455 12.581427 17.220587
35.586452 22.410731 9.698316
35.586452 20.215796 37.087549
28.386456 15.214352 34.041553
0.546455 26.299361 14.812859
6.899373 19.219943 43.008192
11.648288 21.170892 11.091391
30.269994 9.284900 35.287620
28.386456 6.093828 19.734605
7.746455 26.375291 35.626277
19.508256 32.388042 8.767396
6.725796 5.313152 35.516379
2.068461 5.266679 36.336820
28.386456 20.330617 33.464471
5.634267 31.380387 3.621562
7.746455 31.195468 31.821336
25.948050 27.803130 24.226089
35.586452 34.754442 24.135568
33.477946 8.521758 30.388200
2.390007 25.739159 36.013696
21.666456 29.253873 10.818585
10.589207 18.289383 17.476384
34.013725 33.646254 41.068595
23.353785 17.328986 18.551048
7.746455 17.554889 7.031671
28.524901 19.615924 3.667294
14.472781 30.459247 7.252922
0.546455 27.547257 33.335016
7.746455 35.185232 17.490428
34.311379 0.001428 21.762822
14.090294 30.916624 28.670862
9.737985 30.462863 29.166155
20.660632 32.815653 36.222658
1.982505 28.103933 20.755298
27.954685 18.532305 26.667452
29.357402 16.310036 21.142024
28.386456 30.621612 12.154520
28.386456 13.775638 31.095420
0.870085 6.672749 10.236040
35.586452 25.991154 12.654219
17.676334 25.699304 36.010959
14.466455 26.120009 34.680943
19.656934 24.942709 36.037585
17.245805 8.435146 30.531940
14.457975 21.095248 33.332971
21.666456 10.602204 12.853078
0.546455 28.240095 15.343293
7.746455 26.288798 9.577197
6.281938 33.071680 7.020768
0.546455 10.461372 21.068686
28.988653 35.468017 14.166745
34.486906 17.584653 1.528442
35.586452 8.874342 30.389313
2.433281 16.134286 35.204369
22.953380 12.252732 26.358674
7.746455 33.436336 18.708603
19.101425 18.248508 17.509388
12.611514 31.950714 16.929779
5.899529 17.267298 40.767520
0.546455 31.253529 27.106688
4.596300 17.785483 43.052538
21.666456 12.328062 28.680920
19.551006 17.591764 1.500435
35.183332 32.232170 4.808786
16.523341 8.401460 13.339030
1.049050 2.038379 20.866646
31.691409 36.627483 22.702655
7.742667 32.188786 8.309231
17.439448 37.374567 19.458158
1.989446 6.820356 24.571224
4.781941 10.705652 9.506085
21.673167 11.258109 25.136629
5.509928 17.189271 4.166152
17.651054 38.075788 25.222909
22.846183 11.415573 20.604185
18.575750 18.815664 0.134742
7.747333 10.746234 22.448871
1.380971 33.485355 39.975624
9.329928 18.994247 32.392458
7.992663 23.818423 11.043718
23.637389 16.599003 31.319761
14.240094 12.947204 27.931266
0.546455 20.084710 34.560138
26.308172 32.884432 19.510375
33.552724 33.570503 39.074171
7.950540 31.412305 28.194099
4.597144 39.721815 17.720146
1.091962 17.536986 41.800757
28.958185 6.831490 35.390203
35.586452 24.279176 10.604656
28.386456 32.944154 29.417592
9.031250 33.046525 20.272007
9.420069 20.620976 11.156553
21.074249 41.316609 14.400438
12.108130 13.842149 14.983500
35.586452 21.702267 33.434628
14.466455 10.659589 22.372339
28.317507 24.076061 10.877245
35.416864 39.599089 14.952828
13.522570 29.456402 30.161505
7.746455 20.916927 7.066434
32.953299 10.554485 9.413968
0.546455 19.010964 14.564042
16.320072 18.646666 0.008604
14.683306 8.679304 35.319887
19.203960 5.089615 19.885667
15.633977 16.333481 22.838267
18.262151 7.335589 31.861714
12.047478 15.859317 13.097023
35.586452 31.056330 27.439282
5.869308 18.368978 0.055770
7.746455 11.627309 29.435837
30.265020 16.354796 23.004721
19.357974 37.480996 29.746646
4.805884 5.014158 7.893266
28.608977 28.224479 21.776159
9.396425 23.369672 32.833141
33.267773 7.031957 36.178179
28.310251 19.923688 10.970798
3.886710 18.758575 0.069599
31.989213 6.625900 7.642670
16.956082 20.693052 40.933855
18.814898 17.441418 41.823599
1.878832 33.142309 6.803925
33.347809 33.566277 4.894568
25.835164 18.872784 26.897576
3.206486 17.397804 41.593811
4.921541 31.925609 40.697163
1.183544 17.620219 1.821826
14.764595 33.254573 6.418885
30.367329 24.891878 27.329424
0.932882 8.072118 8.118800
20.821180 7.021223 36.181204
26.475576 28.383290 12.928326
15.738825 5.743108 9.727308
28.947223 19.947039 1.650226
4.263396 28.141873 20.931340
34.098495 18.051665 43.760299
7.746455 19.246333 38.282005
21.666456 31.498030 11.550252
7.782246 28.551830 31.357890
22.977879 21.804927 11.057015
3.672088 5.596232 34.503994
30.588069 1.271137 20.938195
12.552516 16.490132 31.247654
5.770222 7.154029 24.764144
35.462789 21.754966 5.752694
35.586452 33.821802 18.425434
0.610464 31.520635 37.321276
33.360577 5.084515 7.808196
13.050848 18.999923 32.394001
2.682182 40.529671 26.702024
14.318509 11.339363 19.785561
16.791495 18.003354 26.175460
35.586452 22.279910 11.909382
18.914544 42.390849 15.672615
12.271070 19.997772 27.506770
