21.666456 9.713503 13.490264
18.117111 18.637084 0.010223
35.586452 23.215126 12.248074
33.480480 18.705255 26.779095
35.586452 11.303766 33.057379
21.666456 21.995400 35.638842
22.521823 11.329990 21.527301
21.740989 12.728523 27.916537
26.458992 11.356895 22.769220
5.830929 22.482790 37.226078
28.386456 29.538812 9.509603
9.021784 19.266567 16.758935
25.638957 31.550058 16.252144
21.666456 11.726854 11.920653
12.268812 27.976357 12.658807
35.399996 8.742897 35.139663
21.666456 26.468011 33.080699
34.478656 18.483757 0.417509
4.214725 18.982867 0.325531
18.932076 11.091733 34.202443
5.154478 2.653345 23.538061
11.829476 24.471735 11.264557
26.958136 33.143311 21.184933
1.899749 6.089583 10.356324
32.815253 32.839347 7.649043
15.326936 40.716610 17.099966
1.839469 17.540556 25.660446
22.446653 27.637760 19.377223
33.527110 35.555597 29.733910
19.175278 8.138008 18.254793
29.639892 18.177571 43.798497
0.546455 8.648026 23.051798
28.622214 30.348313 4.619150
17.417570 32.727255 41.184491
14.649639 7.381926 33.492582
5.266902 28.170499 36.952339
17.168384 37.049971 23.953214
17.107737 32.229612 34.290115
34.860015 39.477366 26.078274
34.566297 11.309431 34.118566
6.771090 8.403308 26.066466
28.386456 19.817747 5.930731
18.936790 8.311933 25.930633
7.281753 35.937753 29.678742
0.546455 27.040082 12.050125
6.543924 32.216119 33.857299
9.762422 23.348552 11.092591
30.714185 7.783705 18.638593
7.566680 3.467681 22.485778
2.929043 31.776245 40.590358
6.332019 5.750718 7.473532
28.386456 18.423877 35.209148
0.546455 22.860156 34.433252
32.615180 0.670434 22.678589
2.932208 37.770422 29.810105
19.424513 39.277232 25.977387
9.175409 17.382397 12.177627
35.586452 11.502899 22.034732
9.980002 15.006832 30.132557
15.183878 7.736045 25.237556
14.606956 19.478480 3.671656
19.372210 26.957318 25.659647
31.940161 41.372277 27.317283
18.331294 39.692389 26.189549
13.453152 23.342865 11.092283
28.447050 29.853123 5.723674
13.198608 17.776626 11.996362
29.519117 16.486769 23.553781
21.007978 23.648088 36.416113
15.333600 32.154362 40.835456
21.654303 5.315096 20.770932
0.546455 35.810386 23.851292
0.546455 18.519253 29.382571
15.710727 2.284868 23.411634
35.586452 30.339863 13.549597
24.863107 30.633934 28.970385
17.160025 30.358790 39.421328
29.882016 5.833403 34.027940
31.380806 24.288128 27.604982
3.038401 8.082072 31.047542
7.359312 8.693079 17.303046
14.957596 17.008653 24.869396
17.392474 7.468944 12.206956
32.110101 31.043753 3.895139
2.673534 33.650596 3.798259
35.586452 21.709826 30.259575
27.666025 19.703589 27.371728
8.044318 25.548645 32.459386
6.963023 38.283269 29.930807
5.416506 43.206063 29.431026
33.710474 27.040982 25.540162
11.519792 33.009245 20.077402
33.491222 14.029023 33.933889
35.586452 30.316829 25.511215
34.587260 17.634335 1.346978
7.746455 9.738491 28.110045
5.550811 17.971082 0.373979
2.290493 40.241827 26.510026
28.386456 38.018926 16.475359
2.510264 1.984997 23.298041
33.079423 17.233004 37.813074
14.716730 24.078007 27.661284
35.586452 30.734997 29.650581
20.913522 36.898044 14.278814
32.213410 38.299957 29.933894
7.746455 26.784081 36.160008
22.887363 26.925028 25.705762
21.666456 25.388165 9.123600
21.666456 16.636702 33.111953
0.546455 28.393897 32.052581
29.590471 42.809015 29.916720
35.586452 19.229838 33.223771
35.586452 11.442286 19.108416
34.522213 17.233655 37.824404
5.860574 1.870569 23.254694
28.386456 9.171584 21.076083
23.631063 32.883806 19.507530
5.419799 19.923564 27.474304
32.465157 37.151475 24.118533
22.733589 16.574481 20.045750
21.237053 25.163378 7.909985
28.386456 15.805892 34.593425
17.871616 33.347010 37.868071
2.776504 22.003705 6.146465
0.546455 33.267183 20.005948
12.713557 24.587897 27.467707
30.401777 5.580906 7.447329
6.322988 11.650283 9.939638
21.666456 12.579769 33.794922
23.299020 17.385832 25.439477
21.666456 20.882889 5.740132
13.193889 20.597831 32.767232
34.395084 19.784941 27.409663
12.373888 18.681922 17.164118
14.817527 19.487050 2.545944
19.323034 18.053086 17.706017
33.748707 2.316712 23.423697
35.586452 16.459114 23.917074
3.477192 41.694469 27.594875
6.187557 28.919517 37.723337
2.984014 36.595179 22.398900
14.111962 16.437654 20.556394
35.556648 17.554407 5.085630
16.936416 16.820642 24.466205
14.466455 10.368480 19.637705
0.546455 8.081190 24.808990
3.279795 35.921805 29.681045
0.546455 22.268923 12.921037
14.485729 9.336227 33.223294
28.738304 17.187156 4.646711
11.050956 16.872485 24.577382
14.466455 10.524913 30.080839
14.466455 33.540699 30.767364
15.781060 33.085121 12.586092
32.092933 21.633462 5.532849
21.666456 9.933802 24.528719
31.691948 36.802438 23.376073
33.162490 5.110413 35.705250
7.746455 37.093663 29.527735
2.507189 1.026178 22.865617
31.231328 42.045365 16.011544
35.586452 36.797740 18.651577
7.102685 6.096529 34.855736
5.163974 5.372586 35.008619
8.707779 17.189537 18.767737
2.298965 16.031659 35.105510
15.546142 35.327656 29.804388
18.286961 32.671612 32.010765
31.075868 16.995135 24.840406
0.546455 11.167069 15.233771
7.625859 19.353672 27.208559
35.586452 31.737193 29.912571
19.764404 33.388999 5.873363
7.325941 36.675125 21.032119
10.734673 16.471016 20.431888
0.546455 23.361280 10.001737
11.166466 19.517473 11.392193
7.739365 23.625884 36.425966
33.830625 6.448329 10.920164
14.466455 37.578599 26.563393
4.255639 5.728747 34.229330
35.586452 30.076696 19.500260
13.728322 24.875046 16.593069
7.072693 17.403929 2.300772
1.149874 8.952885 27.412748
20.734813 20.830191 16.155496
14.522737 22.396170 6.621424
14.466455 31.270731 11.116186
19.307198 16.736633 19.640830
6.751167 33.425239 5.713314
31.669226 32.784391 7.777012
4.547324 29.176764 5.866271
21.666456 32.215942 33.424558
21.467922 3.343401 21.030689
7.746455 21.165475 6.422751
35.534585 4.467583 20.517623
34.361899 25.748358 17.117181
14.788974 7.895849 12.667786
34.367682 7.374580 31.820279
0.546455 18.591808 9.865803
35.586452 8.664105 18.884346
26.677975 31.218197 15.718996
29.451388 37.040655 23.931493
28.738398 28.117572 20.772526
17.553966 21.897958 15.994120
7.746455 27.619226 10.253930
7.746455 37.868335 27.330914
20.464566 15.394975 9.361014
7.746455 36.230646 28.078426
21.133147 32.243181 10.456490
18.486287 34.545401 13.811684
35.586452 20.782783 11.264142
18.792589 13.530766 33.835169
16.436608 33.579542 39.163861
9.103779 13.843230 28.944752
21.766712 33.335718 20.450250
0.546455 15.788508 28.595971
19.904835 42.535007 13.955743
3.277984 21.826555 38.044651
0.546455 10.182327 27.888337
13.321533 28.217683 21.609401
27.644470 31.887066 16.812255
28.386456 18.681664 9.307058
21.666456 35.697090 22.766049
34.200828 8.135840 35.813153
21.666456 29.069489 7.790130
28.386456 30.382921 34.056750
28.432740 30.891498 6.480652
9.189944 25.170792 27.195899
29.841314 31.078108 3.867068
22.960061 18.700098 11.628417
21.666456 17.501464 8.507079
16.345159 36.752302 23.205949
28.386456 21.605514 36.642966
14.466455 14.134622 13.506880
17.427006 17.402154 2.310145
35.586452 15.698452 14.635160
20.563330 31.689126 40.527627
6.344568 36.561031 21.978419
1.211196 1.570166 20.803527
28.386456 38.067169 17.695738
8.106229 32.720122 18.695146
27.583829 29.065592 13.433415
28.791825 19.490658 27.272436
35.586452 14.925121 12.761773
0.546455 14.074582 12.622096
22.450781 33.143473 21.186458
21.666456 15.287103 33.385207
35.586452 37.482660 16.636630
33.049702 8.019776 12.808566
18.875357 26.155471 17.417260
17.546939 17.226579 38.408070
21.666456 9.066547 28.808826
19.203960 5.089615 19.885667
28.386456 28.678697 8.818712
14.466455 35.333645 18.149848
35.586452 26.717528 10.493479
7.746455 35.863392 15.342753
7.094558 19.236566 1.490888
0.981584 15.570158 34.686908
2.305111 27.862698 24.067272
35.586452 31.746921 34.926709
19.599108 8.175312 35.796595
17.582266 30.720539 4.171055
13.506616 26.284178 11.822440
17.987330 28.257655 37.028294
30.177522 23.298245 27.870221
20.870391 32.887097 3.707413
24.216426 22.241365 11.033352
19.697908 19.609724 42.808954
14.729657 32.999930 12.466025
20.532907 10.537752 9.403772
7.696901 7.407705 12.122313
26.499327 17.467998 12.136036
34.278115 21.206394 39.584074
20.874551 37.624038 24.773601
0.553999 21.188316 39.003807
19.566165 22.299132 6.521692
18.259038 4.718748 23.997257
9.038573 15.492551 13.381746
18.099428 17.256059 3.247801
30.054783 3.759933 23.839050
22.590101 22.579944 27.934454
7.746455 8.803073 18.524940
29.770303 33.162875 41.350662
7.746455 21.411433 10.283577
13.562351 16.830352 12.477236
12.576954 24.254161 32.703455
17.135420 8.150654 35.806939
21.115751 38.923784 18.132635
32.148050 5.854606 7.489540
8.971093 14.556008 29.727852
25.979028 16.865844 24.563142
0.546455 18.633106 34.902086
5.412305 28.240750 21.873063
33.862794 40.497934 13.774363
16.707948 32.275478 9.304893
6.217211 32.667867 8.048366
18.908808 28.208169 6.941708
35.586452 7.899213 19.661800
35.586452 29.366386 25.133073
3.393332 33.538003 38.855512
13.417322 15.724691 30.732663
26.794911 32.411564 17.941855
34.012589 17.224252 3.573435
35.586452 30.994490 31.563150
22.160460 12.466346 26.835796
7.285190 2.165153 22.581102
14.466455 34.359918 24.005176
2.410193 38.672822 29.997912
18.071297 17.692363 1.165557
28.590833 39.550469 14.175878
21.666456 8.081583 25.451576
9.304911 16.517834 20.257162
21.666456 32.239107 28.029921
35.356905 8.805434 26.875861
7.581250 4.746647 24.000561
14.466455 18.440432 33.026261
17.916230 26.445193 17.706983
17.582422 35.039827 14.031737
2.924883 17.414829 18.445986
35.586452 27.832667 24.744431
35.586452 14.422961 27.937677
30.905120 21.040218 3.845940
35.586452 10.431980 11.387004
31.421176 42.044846 30.047699
23.450447 25.631114 11.569505
8.294546 32.039897 17.116807
14.466455 9.406002 17.151809
35.586452 34.067696 28.222358
0.546455 32.487985 27.172785
5.623175 26.294007 26.371080
30.847268 6.960970 24.646666
28.453505 20.889096 16.139712
7.549058 8.140117 12.945273
4.187969 7.426979 12.162317
14.466455 8.549306 24.878638
5.100879 17.220617 3.628937
29.045311 9.006723 27.734944
34.277630 32.636396 41.134618
5.085716 42.342080 30.007345
35.586452 32.945340 30.129349
6.583329 5.152542 8.345611
3.752617 17.204545 5.103213
27.235753 22.725734 27.921699
23.247033 33.176315 21.859220
28.387564 26.638988 26.026099
16.349723 5.287948 35.215391
1.621791 21.195606 27.869293
34.255065 36.979202 20.138667
28.386456 30.202999 32.803322
0.546455 28.570935 35.205338
0.546455 31.326828 14.588091
28.386456 34.975523 17.214957
5.292886 37.011395 23.863271
0.834684 36.993371 20.105630
20.439570 31.164175 3.796739
34.953462 1.621759 20.961893
32.169729 33.124402 6.865342
9.777972 17.704531 25.872303
29.045449 31.897852 3.625183
14.592129 26.433207 26.231880
33.699578 42.360133 30.004868
28.386456 28.173775 11.932108
0.546455 33.727082 14.249295
33.268127 39.590372 17.791593
3.655153 36.929963 29.648660
28.386456 12.514984 12.859545
0.546455 21.708843 5.684797
12.573734 28.016928 20.396915
35.586452 28.982039 22.523087
6.682626 32.447162 11.386034
21.666456 7.196488 24.560389
35.586452 11.465559 26.719650
15.104347 41.763900 16.272181
28.386456 37.374740 28.576439
28.386456 26.277055 9.198889
18.649684 32.595352 11.760248
35.586452 17.234452 10.804218
28.615201 17.876501 17.882603
30.466959 16.583937 23.916416
7.746455 30.557701 8.850002
35.586452 17.411298 36.834223
32.645165 29.437542 38.405855
19.906089 9.589106 8.811058
0.546455 26.304213 31.070528
27.514904 12.054515 18.028321
19.498432 32.680072 35.906947
0.546455 33.913117 24.794110
7.746455 35.643220 27.082888
18.645955 22.692943 16.002308
35.586452 26.980380 13.699281
35.586452 25.476769 35.018786
21.666456 14.055913 13.279369
0.546455 34.183768 28.819026
0.546455 11.929585 13.931427
4.642922 27.009430 18.341653
24.063294 30.189051 29.463168
16.101061 41.754896 27.646941
31.055017 8.709466 8.355426
34.522535 14.451572 34.055624
29.019502 41.592201 14.791097
6.400047 16.961251 7.344357
4.924567 3.720834 23.829486
18.966621 1.704097 20.743214
14.008894 16.903290 31.504873
15.489929 32.232709 10.376946
24.940641 22.623167 15.996204
31.945674 42.558947 28.439217
5.557268 21.927428 15.991542
20.433501 7.134849 19.177449
16.622435 40.904246 26.960343
15.970740 8.616583 8.315397
28.386456 17.775845 34.283137
15.664254 23.664567 27.772065
14.466455 34.450347 26.552550
35.586452 22.574187 31.170809
14.507888 9.439615 9.853286
2.600335 17.392454 2.361233
28.546472 14.617653 34.131953
7.902671 29.312688 30.543619
17.310960 27.696691 24.423275
10.317675 28.088541 20.664180
25.023323 17.056458 24.969082
35.586452 24.272243 11.988199
21.666456 10.953142 25.015901
7.658813 8.318876 10.376393
33.946346 37.294186 29.709124
3.045605 33.641708 41.073633
14.466455 11.167044 31.037328
0.546455 30.940272 18.117113
22.800752 21.378191 11.080152
15.388255 15.487668 9.296966
16.463848 18.853007 17.044324
35.586452 30.404193 17.767996
5.301137 16.725044 24.261193
16.031064 2.429221 20.460558
20.737484 11.730535 9.970265
21.666456 10.535048 12.131681
2.804325 27.439904 24.970443
0.546455 21.623173 15.670417
12.740916 17.487192 25.584234
10.009477 28.234891 21.806085
5.010771 8.877681 27.138922
35.586452 25.412814 33.345074
35.586452 13.008578 32.570373
14.898780 27.014484 36.288659
35.586452 30.825081 20.592307
4.383728 22.615355 37.104605
32.976327 20.316468 2.236620
31.890485 16.677914 24.160124
14.497547 31.786739 36.513005
21.521347 30.970943 38.316177
31.616105 17.654908 42.644213
20.533984 26.643519 17.905309
2.935979 18.236655 17.522449
3.044424 12.148194 33.869466
24.420057 26.074246 11.738795
31.010377 8.671229 35.588555
19.563072 1.917209 23.272360
16.617093 15.370543 9.377895
35.586452 33.153531 22.211261
2.333659 8.987009 16.377278
33.619625 16.755132 7.803872
21.478006 25.868035 36.022546
20.913774 42.261234 28.356686
4.917437 16.511249 20.281736
20.935634 19.743526 16.536525
9.658964 20.515911 27.687169
6.611672 15.489341 34.631067
7.746455 27.037062 35.041801
0.546455 16.254622 29.501360
13.335282 19.110463 27.062825
7.559300 18.046769 3.592815
14.466455 31.464405 12.823004
33.443843 31.581784 40.450333
30.030528 1.403298 23.048201
11.594179 27.957170 20.173896
35.586452 17.019207 25.864541
16.895147 33.338746 12.893104
7.716461 20.702697 4.681490
3.215108 16.390900 35.535508
19.197526 36.614139 22.632360
33.130714 17.143142 6.720805
15.885934 32.868273 36.345122
20.349004 22.478993 37.229557
12.789991 18.846858 11.575906
14.466455 16.924166 10.546788
35.246855 39.713297 13.801556
0.546455 29.874147 31.350804
19.943166 33.044398 31.398179
0.546455 23.854617 36.205352
34.275125 40.735723 17.087198
22.497287 26.649516 31.958872
30.298547 7.143684 7.780224
13.770257 30.151791 14.423291
17.043924 24.033988 16.253797
30.886694 32.257190 33.363980
21.666456 15.075278 10.771985
34.741271 24.074680 27.662176
21.429721 3.127387 22.080134
0.546455 10.676375 21.418426
19.437951 5.535473 7.440328
18.581434 8.221069 35.777399
21.506372 23.784648 27.739890
35.586452 31.204221 32.595499
5.199850 21.367124 4.862993
11.123209 18.208049 26.375821
21.666456 36.453089 15.963793
4.707556 11.477693 9.873141
15.031671 33.562810 39.007814
35.586452 20.049505 6.370276
0.574240 38.118686 15.007501
35.586452 30.639233 10.870010
33.863573 7.149208 19.166432
30.472831 37.534190 14.169546
21.666456 14.632327 32.231665
29.213610 38.343639 18.487617
18.248858 1.762756 23.210078
32.333686 43.053278 14.912030
35.545413 38.698277 28.264025
6.274456 16.346545 8.450690
4.382210 6.897969 36.215981
29.517730 39.288294 13.843730
13.073110 13.931968 14.871890
17.876451 8.648262 8.328686
35.586452 17.061507 33.225638
5.709287 16.328655 21.049063
30.595926 24.613144 36.088694
14.609824 38.538202 13.952089
4.335996 42.758931 15.267620
35.586452 24.556191 33.900229
30.013740 7.986477 35.870341
3.887621 31.344501 40.277476
26.202119 22.836935 27.911970
5.548900 25.978130 17.278069
14.589975 31.424101 6.032521
28.888700 41.597943 16.032768
4.176844 24.465326 27.524863
23.360723 30.592297 14.903527
0.546455 17.256071 29.409655
34.331207 12.996105 10.137615
17.150286 6.198063 19.634799
35.586452 28.783684 28.471688
6.805993 6.921624 32.358605
3.006159 17.014381 36.743978
22.714443 16.308566 21.278683
34.456990 21.065045 16.092567
13.072961 13.284617 28.215715
8.897728 22.184446 15.969056
26.414155 19.616645 27.331185
35.586452 16.508901 27.880881
30.844665 17.532979 18.277251
31.865637 23.708139 16.166486
15.898990 17.441730 25.519309
35.586452 16.363665 34.952572
16.600604 39.282501 17.946832
18.924759 8.870278 29.588112
1.402922 41.105215 16.813757
2.733589 43.258326 14.642684
17.699140 32.220230 9.937700
0.571093 31.539463 36.498513
22.075963 30.090029 29.603176
16.431308 7.002989 11.666112
18.618628 3.589203 23.797288
7.882542 26.913396 25.722374
7.054925 27.498951 36.501319
28.386456 36.215655 21.766140
4.747305 6.295022 33.244980
19.944392 11.335039 34.108699
9.529879 33.163996 21.404440
35.586452 12.246010 21.027680
13.421740 29.546005 30.085395
7.721001 9.928671 34.201114
11.547991 27.194853 12.216465
21.666456 17.021124 10.910789
0.550015 19.006358 38.431383
31.910823 12.273391 10.083533
32.390938 40.635140 26.772483
31.960598 4.990690 24.029492
35.586452 24.955766 16.369885
2.471526 40.643645 17.148711
0.557433 16.844828 19.408803
0.546455 27.654532 17.429551
35.586452 20.514596 29.340157
17.988312 32.303978 10.911355
12.509237 25.959660 11.693140
6.246371 39.968958 17.576000
22.385373 20.416793 27.660611
14.466455 24.619769 7.892013
3.937715 8.158156 12.965766
21.666456 12.353267 32.498352
0.546455 12.605057 19.285181
14.466458 10.815852 9.779266
18.025588 40.898191 30.147292
16.545488 40.950489 30.146612
30.312973 36.564050 21.911287
0.546455 13.729541 21.320946
28.386456 36.893275 26.975092
28.386456 9.239658 16.535622
3.101934 38.476373 25.540437
9.580528 11.414873 23.316086
3.028616 19.120818 16.856800
31.340661 17.403256 41.622559
15.533759 18.454217 17.323559
22.618275 23.881991 27.713807
5.421669 7.276756 19.068560
18.474691 17.282555 40.887591
35.586452 12.780171 18.247444
30.250694 26.641331 36.162173
19.061891 28.016452 23.531736
3.095139 17.462296 25.548680
28.399357 9.466796 33.157532
4.231288 30.303972 39.367725
28.423590 18.801311 4.778897
21.231493 11.658207 33.984185
23.366392 28.742170 30.755296
0.546455 22.354362 35.555332
21.666456 28.600293 37.101041
0.546455 16.518919 12.493645
15.106670 33.407211 4.560598
9.966840 21.628620 16.017685
30.251350 16.322145 22.803405
19.749745 5.341075 8.841258
7.746455 9.478402 19.319471
14.701130 3.167215 23.018357
7.746455 35.088849 23.996917
7.746455 29.843384 11.328552
32.167947 8.165385 8.126118
32.073678 25.781655 26.786381
35.586452 15.610221 18.159781
7.746455 20.679520 8.593412
21.666456 11.510858 16.537675
35.381661 18.554032 40.573123
0.546455 35.430321 25.467327
0.579249 19.933361 39.239651
5.455303 16.737565 7.837618
27.837211 18.005881 11.900245
28.386456 30.405886 36.337600
14.464459 33.246806 18.617515
7.252208 6.064923 33.614582
14.466455 11.498963 15.938349
0.546455 29.022740 8.306255
10.307095 16.562531 23.836529
21.666456 9.216772 15.750050
20.391399 8.890862 35.481978
2.220696 19.425291 27.241955
14.466455 17.145378 34.217246
5.497371 17.187427 4.579683
35.586452 27.237603 8.672793
1.719534 15.389643 9.364698
6.643970 14.367861 34.031507
35.501538 21.026606 27.824010
29.854438 22.067215 6.227129
7.746455 25.934718 34.454781
35.586452 15.103940 22.388487
7.092602 33.426548 30.944869
21.666456 32.211066 9.589701
16.312859 22.265030 6.478378
33.869993 33.267157 12.820616
14.482101 38.943303 26.121606
0.546455 16.178680 11.168880
31.981983 20.531036 41.273502
0.546455 18.115468 28.266098
0.720246 8.684082 13.869963
14.502956 38.797225 16.226388
3.102884 28.236769 21.827555
25.743545 26.676799 31.948002
18.944746 16.316792 35.436394
3.495376 21.611948 5.493921
14.466455 28.907626 8.349221
8.257992 20.132358 27.571666
12.845599 24.774050 11.336254
17.074959 37.170937 19.777793
28.386456 16.669275 34.084598
11.437802 22.572838 15.991800
5.253192 36.962164 20.178392
0.546455 18.108508 14.405014
14.466455 30.812496 32.222291
24.652315 21.263189 27.877220
21.188350 2.092186 22.020048
35.586452 8.861732 25.709313
28.386456 9.774445 27.442622
0.725514 11.714993 33.962306
30.898628 7.832556 25.340277
19.186266 2.831280 20.333593
15.999782 26.488049 17.749838
34.469867 16.379197 23.152315
1.862566 4.662871 23.990632
30.152467 26.187590 26.477497
20.302793 42.803476 15.218604
35.586452 20.670508 32.331968
35.586452 21.892886 34.967697
20.733589 28.195566 21.356602
3.727579 42.052624 30.046656
13.948275 19.784636 16.517356
3.303660 23.267384 16.052566
6.828550 19.117808 43.175527
35.586452 27.942200 36.228384
0.546455 9.750582 20.721432
35.586452 31.900608 28.888930
29.726604 8.423966 30.550494
33.366040 21.376965 39.034713
3.696473 32.272957 9.317774
31.844800 1.277445 22.991523
0.546455 15.041689 25.808361
8.782318 23.068682 27.891695
21.433046 16.251140 21.991816
28.386456 22.779466 34.519311
34.624824 16.844604 24.517592
0.546455 24.258498 7.904410
19.655734 33.310173 12.864172
3.278095 6.825056 24.573746
4.472273 8.892569 8.445742
30.909305 2.298667 20.510013
14.466455 15.755681 34.131049
20.392280 36.959866 23.743127
17.202764 33.036030 31.409972
5.866245 9.371111 8.686478
7.746455 32.011281 33.790923
26.776347 17.109256 31.604349
8.512458 11.355705 21.168879
0.546455 29.201167 9.594359
29.972185 19.930172 27.477385
0.546455 24.770176 11.397143
14.553235 7.422855 32.433895
35.586452 10.392815 27.492842
31.571381 41.057014 13.784219
19.784878 6.108616 24.261403
27.275127 29.068885 30.490666
7.746455 15.113608 11.677247
22.955930 26.450167 17.711956
12.145496 27.844915 24.105408
28.000036 27.690262 24.437062
21.614755 38.320406 29.656023
19.585207 37.928635 25.104050
5.074854 36.585751 21.644068
0.546455 35.967276 17.116501
0.546455 21.900119 13.860768
17.935501 16.391594 35.536435
28.386456 35.054599 21.462182
0.546455 37.257902 16.913484
7.746455 26.814417 9.513795
4.817314 32.247783 9.446427
35.385596 40.472069 17.263333
31.586266 33.384764 5.892064
0.546455 12.105146 24.182893
12.426633 27.980942 31.265033
6.362205 33.604662 39.413095
22.857712 15.060946 30.178522
7.767321 12.624661 28.013930
11.618694 11.680603 24.724152
33.102937 18.300769 0.068299
21.666456 31.264154 11.834538
35.586452 36.571518 24.240676
35.586452 16.086063 33.460294
21.624785 4.620143 23.273965
9.109606 28.223886 22.246570
0.546455 11.286852 29.923185
21.612851 29.449663 5.611723
25.191051 22.150729 27.954870
8.056700 27.619820 12.372115
20.419286 21.055128 3.886408
16.392285 19.926261 27.475561
6.542290 21.406603 38.946865
29.414884 16.683497 19.754779
34.535309 7.942996 18.469050
18.577794 3.630364 20.119520
17.179113 6.751865 36.256826
14.817331 20.307092 41.524051
26.278911 13.455036 28.450955
2.661047 13.608708 10.082432
23.388919 25.748755 17.117459
21.666456 33.519060 17.923182
4.971467 7.735245 35.958088
16.160620 20.114895 1.894657
0.546455 14.739542 28.391363
1.251434 10.201363 9.185969
28.386456 29.002603 10.877826
0.779169 40.715640 26.939067
28.456711 32.602722 7.223036
3.531108 26.231644 36.065974
35.586452 11.833220 10.838283
35.586452 33.167602 28.904945
14.269394 31.383086 15.684247
14.407430 30.909234 14.750432
20.233909 18.642076 17.192019
18.762587 37.872144 14.092844
6.591235 17.230258 38.252760
20.071478 28.184044 22.701966
12.084181 20.502156 32.752426
0.546455 5.804908 20.104816
0.546455 17.292307 9.915810
8.942529 22.113287 32.886581
2.674529 22.332723 15.970793
5.232172 17.188538 39.593683
0.546455 17.364152 15.285506
20.932123 32.587519 40.173676
0.737816 18.681862 3.427618
32.162683 5.272687 19.859418
10.296964 27.690386 24.436796
30.884936 14.783859 9.716157
3.387063 5.286528 24.069562
28.425483 9.419295 9.955755
14.466455 27.659482 9.917332
35.586452 20.071427 38.418676
31.138281 24.380911 16.362650
7.716614 19.938745 39.174358
9.736002 30.049137 29.614938
7.705696 19.661485 4.547839
24.024455 28.157871 20.925755
19.406666 11.568726 9.908215
22.815981 24.505892 32.655859
14.466455 9.369364 29.895083
14.466455 33.273481 15.010927
21.622856 29.297401 38.220868
22.250236 28.236446 21.823865
6.924842 16.374896 23.136267
33.579144 4.238852 23.927057
14.466455 19.723843 35.287982
17.504785 19.877487 27.452818
7.641794 38.860866 14.326654
2.365804 5.770071 24.150919
7.746455 10.714594 33.107448
8.143058 33.198752 21.462942
35.586452 29.293891 17.777352
31.150448 17.187633 4.538476
0.672296 39.244691 14.932221
13.928553 27.158763 18.554922
35.586452 10.767087 25.553887
23.464740 22.675332 16.000767
14.229502 11.393592 19.928182
35.586452 23.782697 31.217150
0.546455 32.538358 14.804322
28.386456 10.042852 14.598830
4.006948 37.763991 24.930207
2.115703 42.997999 29.879186
0.546455 30.973507 21.557616
0.546455 21.195620 8.841933
16.415580 8.531067 17.656213
18.441116 37.537283 19.250354
24.709313 20.546074 11.166552
35.586452 36.645195 20.444462
31.906912 22.549677 6.762087
35.586452 16.145265 22.001033
21.506759 19.021876 40.332445
35.586452 10.635412 18.312687
6.590690 26.477876 36.123792
28.386456 24.854571 8.794737
20.989648 33.496392 39.442398
7.746455 8.345562 19.686360
21.642625 31.391218 7.357231
7.746455 10.032210 23.123993
29.600984 25.697155 36.010812
4.376340 16.917151 7.478374
0.546455 17.433460 31.723301
28.386456 11.263155 14.853365
18.083728 41.252628 13.798738
16.703765 29.100653 5.968162
15.757159 16.716273 24.242385
0.546455 28.340881 29.592029
32.062974 16.342817 8.455676
7.533973 40.390038 16.280620
11.255291 28.191656 22.614964
35.517411 4.299891 23.058882
16.395460 39.938377 30.136163
0.546455 21.348159 28.778014
4.233551 20.020775 27.519634
20.966329 16.577825 23.893606
19.529014 17.198196 37.556505
21.363818 9.018646 27.847044
21.666456 37.010220 24.299932
28.386456 36.858794 29.495958
35.586452 10.309416 20.861101
19.170132 17.205409 18.745070
17.500383 16.398287 8.381489
0.546455 22.618576 15.809297
14.469521 37.279551 14.330369
29.508538 22.489487 37.219941
32.686126 38.470295 25.536447
2.392660 20.554112 27.697405
7.124795 7.169056 36.029857
15.036677 5.403244 19.839573
28.001137 30.579923 14.828735
31.606548 34.359797 30.208888
20.358573 39.786483 17.682428
7.746455 11.847603 32.040273
35.555338 19.033992 27.009279
35.586452 31.255721 12.285925
24.885546 28.248196 21.968704
19.215895 10.245147 34.712189
29.443373 37.153404 29.680848
21.666456 9.432190 25.524217
21.666456 16.028459 10.442055
26.421821 22.797545 32.864161
33.298863 9.018523 16.080991
35.586452 31.449147 25.265754
31.163781 36.598218 22.436316
28.386456 34.543387 23.620077
35.586452 35.656438 24.698704
17.568048 25.753075 36.014652
20.228836 33.997021 13.475402
33.739426 33.168027 31.223940
0.546455 20.785243 14.077100
14.466455 35.959361 19.807978
2.086350 33.654167 40.700874
4.551039 5.983150 7.509388
30.802419 40.872071 16.990992
2.873187 17.227002 40.395442
34.891991 17.292672 2.959673
28.386456 32.892462 27.792074
5.132319 18.566389 17.245016
14.466455 13.128322 31.214632
25.542436 28.871475 13.268530
7.746455 12.468637 29.385041
35.586452 6.488851 21.838154
21.666456 21.534870 7.937747
7.254818 26.115355 26.549732
31.188949 33.649770 3.818772
8.656747 31.780928 27.291023
3.551249 24.140448 7.714678
20.759832 6.340255 24.340840
14.466455 29.564519 34.215990
10.362650 32.908135 24.308818
19.302575 15.538673 9.261724
21.638704 16.765014 7.784889
20.465190 26.987945 25.615908
3.498074 33.650443 3.053368
0.546455 8.872219 29.698234
5.515856 42.416390 13.932182
23.758620 11.359396 21.134068
28.386456 11.318705 12.001840
7.610091 16.925835 7.451985
35.586452 27.366937 30.323642
29.355582 8.661353 26.554670
23.750873 16.424018 12.723011
30.170515 33.658092 40.318071
21.666456 15.415811 9.447374
27.634787 32.623497 18.528529
28.376584 24.139723 10.714467
21.666456 7.086064 20.206504
6.850740 32.224930 10.317853
28.386456 19.149712 36.151068
15.645519 38.174757 18.624027
4.982960 38.359221 18.475032
21.666456 34.790844 29.105017
22.573725 11.775336 25.082730
6.255154 6.138366 10.438421
14.499884 18.389345 38.977458
29.378706 27.508423 7.419686
35.586452 27.738985 11.531699
19.198724 14.574785 9.815241
8.805772 30.674461 28.918833
33.440107 40.098806 26.426609
35.586452 22.211031 8.820100
21.735655 24.391747 33.000077
35.353759 32.378410 38.152715
28.386456 15.331592 31.722750
21.666456 11.156292 9.828238
4.434102 33.652843 40.762386
4.127575 16.796941 19.511498
32.042988 21.023320 27.823129
4.982299 32.320820 32.959689
3.807053 0.542700 22.607948
7.131228 41.687151 16.338303
16.391328 16.902338 19.285473
0.859370 30.348600 4.514971
31.083103 17.231729 40.467689
7.746455 33.063805 26.946347
35.586452 17.496751 30.219793
0.546455 29.895484 27.082446
20.108755 20.401721 27.656572
21.666456 28.627811 32.855111
22.547864 23.141713 11.081377
7.704454 8.124739 11.397712
9.919901 25.101347 16.698595
19.046721 22.123419 37.628360
4.118326 5.621825 36.473235
19.203430 19.021148 16.926590
35.091106 27.568409 7.382514
30.926712 41.153644 30.135482
28.175254 18.276795 26.444567
14.039111 17.525849 18.287433
21.596063 33.899849 30.522259
0.546455 18.305440 33.867249
5.343872 19.521855 42.929753
33.512112 18.776623 17.097808
13.401236 26.663531 26.001556
19.191110 31.579972 40.449029
18.727729 26.006232 36.032037
29.510468 33.084512 31.341643
35.586452 28.457892 15.688087
18.444196 21.639271 38.383518
13.620667 18.172971 17.586133
21.666456 6.288172 21.157210
34.646745 18.499262 26.634858
21.452105 22.765457 27.918224
15.398482 30.442044 39.498309
28.386456 34.899193 16.101144
1.560190 27.472355 24.904366
32.783506 12.934398 10.134921
5.265732 32.490294 8.488961
0.546455 28.948742 27.481177
35.348487 28.073712 20.608836
34.448369 30.293182 4.570427
14.466455 27.175301 10.829088
3.694672 7.481451 31.706601
0.546455 29.796992 16.378710
20.653570 37.735383 29.801854
31.915167 17.106854 37.025002
15.507632 38.923518 25.794096
19.809963 13.017405 33.788332
4.512865 23.257721 27.875156
35.586452 15.794977 16.846992
32.182073 28.067158 20.584378
14.552911 39.830008 17.448558
30.196197 30.078566 39.132223
28.426432 7.866590 11.869400
25.282206 26.608572 11.951690
26.125006 11.685090 24.744539
20.329268 18.887854 0.217115
21.666456 19.996763 34.583459
1.326005 32.777449 40.225044
5.860320 41.192005 16.747780
32.749948 6.507840 11.008645
8.717213 26.977071 18.295439
14.466455 11.851547 28.551403
4.921798 41.792945 27.679720
4.089084 33.985179 30.460100
30.479145 43.000530 14.048194
30.067509 19.538533 16.632115
14.466455 18.195525 37.566368
16.549246 8.779575 29.817991
3.511054 1.622558 23.146939
17.283559 20.199775 2.037345
32.765224 8.561749 13.605043
14.345155 30.863275 29.064908
11.757980 21.629974 11.066501
0.546455 23.240780 32.120490
21.713932 31.070492 29.005172
19.377016 17.187185 4.636441
32.152448 16.917815 7.476358
14.466455 36.244637 24.325299
2.061364 8.627651 17.445671
31.310495 37.335169 19.520001
32.647985 16.726866 19.661774
20.396612 5.862370 7.490756
15.552390 10.646349 34.456927
18.433213 20.898445 40.465116
34.282950 21.166347 4.209893
28.961953 41.090041 29.996284
25.805280 20.486416 32.749450
15.215669 28.076302 20.618504
21.666456 10.469826 23.085929
18.461659 7.571523 18.842378
0.546455 13.823676 27.708764
28.386456 11.194126 10.488902
35.447487 28.490666 37.231358
5.335684 22.240067 6.446672
35.586452 19.938188 14.001099
20.078741 21.752268 38.179064
21.666456 24.138017 8.641316
17.365534 39.322734 26.000328
35.586452 29.778870 29.153818
7.746455 17.765682 36.582642
16.527551 26.261616 36.073012
14.967196 7.784324 31.384570
1.668422 26.314581 17.576371
35.586452 11.471082 23.320198
28.386456 9.518859 13.608115
24.063814 32.444763 25.893119
3.879590 16.479387 8.273025
0.546455 26.594542 35.804086
29.663561 16.584198 8.132234
9.903730 22.554443 27.936685
35.550614 9.925570 34.539476
20.947197 6.525776 8.199313
19.136554 16.288418 22.417897
35.586452 27.789777 16.800420
0.617490 32.509971 36.774926
17.957878 24.717357 36.061465
18.652338 19.975592 27.498565
19.916352 29.763021 5.136635
7.547434 31.159371 38.664254
21.666456 35.140686 23.638979
21.519118 30.502721 5.341973
0.625911 25.102045 36.022643
30.455041 16.897594 19.295646
35.586452 25.721743 17.057325
35.586452 32.669311 19.016388
14.466455 35.734556 25.421830
7.746455 34.613382 17.387056
30.397548 23.626426 36.425725
4.270131 28.186779 21.256166
31.139142 21.483160 5.206931
22.389637 27.560303 31.508805
10.557658 33.100039 20.776770
15.360840 8.792659 29.785253
21.844384 31.780205 16.292276
21.213336 14.881561 34.257023
6.794211 6.144425 36.252104
32.850903 37.249577 29.700164
35.586452 6.289256 23.001828
29.157677 28.737495 37.495672
6.519885 14.259347 9.926632
0.546455 19.590129 14.647014
0.546455 27.817636 36.560801
24.853084 32.667368 25.264078
28.386456 33.501406 17.435676
17.711697 10.194893 34.745127
14.468432 5.551068 23.834547
7.685712 10.449521 9.348631
17.297425 8.796193 17.078270
34.701254 3.485168 23.771840
28.386456 18.639151 8.051565
2.528166 16.461393 8.297090
4.577310 17.456783 41.894730
0.546455 14.743932 23.840235
19.004303 40.578567 13.775415
2.983827 5.208281 35.417302
6.154157 19.850599 1.471770
0.619380 9.059214 9.704976
15.434886 26.398139 7.821806
0.546455 13.333499 14.513187
6.148259 17.108947 25.044045
21.666456 28.349978 11.098884
7.746455 25.641876 35.731945
0.546455 19.208581 12.045469
30.811104 22.876254 16.018346
20.500768 27.617338 24.593449
6.439066 8.356352 13.264170
13.092961 16.980680 19.117468
14.402029 12.944619 28.310875
27.409085 33.166045 22.446806
34.478255 32.277384 10.716287
23.852081 16.734894 19.644558
28.386456 33.523137 15.103133
17.481105 5.486599 34.731231
16.247378 27.806042 24.188771
15.498481 17.351769 41.351293
18.736557 37.323645 24.388787
26.195320 23.334970 16.066495
7.746455 11.623397 30.236374
35.586452 10.057982 32.121894
19.104410 39.637515 30.121421
7.543670 6.947809 33.172700
21.829514 15.489558 13.133213
0.546455 34.141724 20.602496
5.255990 28.169234 22.871241
19.702300 32.710793 2.751417
21.666456 21.381592 36.744757
1.211422 7.065520 7.816253
35.586452 26.434463 33.941987
1.708494 27.023645 36.292454
21.666456 16.960277 9.830908
32.765620 19.249826 43.281292
0.546455 30.685308 13.566712
15.419133 33.198540 6.611065
3.832006 33.639321 4.083211
14.537206 13.944173 10.017432
31.183729 10.805108 9.566690
30.626246 7.450955 12.187850
22.586679 18.184863 32.093170
21.633755 8.784219 29.806371
21.345069 22.953310 16.025088
35.516412 18.387201 4.399772
23.635427 23.329819 32.835302
14.466455 36.659446 18.321453
21.666456 30.976200 13.316284
35.586452 33.810747 16.562847
23.515336 27.101068 18.472526
14.466455 19.056888 34.353098
31.613570 18.143199 17.615904
15.583431 5.803892 34.080630
14.466455 36.457669 26.688319
30.538824 33.348856 6.050649
14.911051 10.102911 9.121464
21.666456 9.997481 21.347094
7.553907 17.204071 5.094835
32.485125 16.178745 35.251768
21.798654 33.354518 22.882445
0.546455 30.630788 35.952997
35.586452 34.258577 21.909317
30.623479 22.709399 37.018430
16.613183 8.981501 35.437270
26.356935 12.810085 27.446751
21.655615 5.296692 21.996364
9.999406 16.804805 19.494633
28.386456 21.804691 9.158678
35.586452 24.311922 34.956865
1.307769 6.816158 36.239064
35.586452 33.953645 26.619197
27.804806 33.042751 23.694698
0.857664 31.507818 4.870634
0.546455 17.569992 7.269328
19.706508 23.162152 7.239735
22.194435 24.842241 11.348268
6.305322 28.124616 23.128065
32.640079 22.114355 15.975188
0.546455 34.848485 24.236415
8.456611 25.600509 11.560905
35.586452 23.624846 36.417381
24.014319 17.466817 12.136610
0.546455 23.287658 7.390859
18.652642 17.155759 6.640493
35.586452 31.333673 33.649912
5.638838 8.960756 29.179989
17.790399 21.453611 27.893880
6.596220 39.309260 25.993536
14.466455 6.283898 22.420410
28.674382 32.336926 34.936018
34.471684 7.022117 11.689113
30.734509 20.308097 41.706516
4.456086 37.307457 19.563500
34.896263 37.894663 14.087531
4.532508 39.287731 13.843791
32.610022 34.685471 30.044481
21.520743 8.343254 34.223878
15.537735 8.617947 13.704494
17.483804 23.108836 7.204827
6.247260 22.918081 16.022005
34.466479 32.326151 34.880953
28.900387 2.001026 20.820921
6.070752 7.541448 7.901104
32.254042 7.484306 31.703599
12.845821 21.206819 27.872288
35.586452 28.747498 26.085317
14.466455 30.011480 35.123149
25.292823 16.712035 19.693581
14.466455 22.766664 33.687144
16.645660 35.676592 29.716443
5.247072 17.128099 6.816551
7.743335 29.669560 6.911493
28.386456 14.268299 31.203913
20.163483 40.789908 13.778170
0.828793 6.521319 33.232605
7.746455 9.765556 20.440603
5.800550 7.030639 36.178547
33.031220 11.751448 9.974629
33.726109 23.603268 27.788490
34.207526 25.214989 36.012052
0.546455 34.455210 25.716751
28.386456 18.405894 6.234920
7.746455 25.292762 8.000348
26.717089 32.543533 25.619704
31.921703 14.567852 9.818526
6.852683 17.369434 41.444353
21.666456 8.847779 30.972565
2.731634 14.570560 34.109635
7.746455 35.114301 29.120587
0.546455 9.641055 30.834443
11.028650 20.914289 32.809478
35.586452 29.636390 35.776167
32.881467 19.603733 27.325164
6.508369 42.977889 29.846884
21.574805 18.701524 4.171536
1.951409 2.702795 20.373468
34.593344 8.726336 29.951194
14.471920 12.227780 33.852860
29.770221 28.015547 20.391761
18.554080 35.505394 14.178529
7.746455 11.368879 11.143984
16.005266 27.161490 36.349551
21.539632 19.987884 3.700447
4.690351 22.149492 27.954762
30.202812 32.440908 11.365301
7.746455 15.173226 34.319408
7.746455 34.702741 27.464997
18.561145 30.994364 3.935496
21.448640 31.976491 38.326390
35.586452 37.504403 24.984654
3.691784 9.024605 15.104151
15.339353 1.495949 20.836954
0.546455 32.330988 17.333500
30.835737 11.702348 9.959699
21.666456 8.906631 18.876784
35.586452 17.250126 34.370829
4.584073 9.804346 8.934064
21.666456 8.728124 21.254911
4.614572 35.826056 29.694867
3.199495 38.403770 18.439048
33.358929 32.214639 10.117060
2.379008 41.161188 13.791954
22.246461 25.816985 26.761642
12.325697 11.450915 23.656051
7.746455 20.968653 7.557982
35.586452 22.771218 32.710112
4.366849 27.436472 36.463453
19.217812 24.657662 36.077062
1.565565 11.085750 34.204748
16.587310 16.257150 35.356628
21.666456 19.063746 35.762306
21.666456 28.857330 34.316587
19.470832 20.816776 3.274266
35.577005 11.818352 33.938288
6.443882 29.528156 38.512834
14.466455 30.665869 36.025746
14.466455 35.268961 15.249686
32.211317 36.579727 22.208634
1.506390 32.260089 34.543338
6.579315 27.488338 24.870090
7.338700 7.768392 8.364014
6.169933 33.001752 31.458283
14.466455 30.324611 33.283657
7.472805 28.510355 37.248516
33.283964 15.889329 8.958470
35.586452 29.177205 32.127178
14.796056 6.391728 33.410627
0.546455 12.706244 15.623631
32.685374 40.761890 13.777808
32.889874 33.517621 5.196479
14.466455 17.262878 36.925042
19.190717 8.871609 16.810064
33.767605 28.222560 22.261723
28.386456 12.933611 30.629877
15.418763 16.524830 8.212249
0.546455 13.635170 32.958299
4.479416 25.767853 17.130831
7.746455 10.190856 29.045591
7.746455 33.426294 17.166341
14.466455 28.985626 33.221794
15.030970 6.909899 8.475328
0.546455 25.401770 15.587600
35.560531 29.934346 6.480431
0.921060 19.209267 2.481998
5.164348 13.529598 10.091845
0.546455 23.434849 28.629279
27.987617 28.500076 30.953874
19.749701 21.016141 16.105671
28.386456 11.177102 13.434995
35.586452 30.317154 14.775839
25.918549 20.316615 11.209530
3.801363 21.233276 39.494730
34.073345 28.897373 6.231237
19.030027 17.202093 40.014937
7.746455 16.561536 9.656983
0.546455 28.501059 28.469012
8.502663 12.026871 18.104846
0.546455 32.000179 33.432869
35.529797 32.769464 36.115053
35.586452 15.972930 25.218051
7.746455 36.263831 25.347271
4.546627 5.436841 9.075181
7.746455 32.506632 14.437363
19.026018 42.139995 15.919383
20.803554 19.309518 43.061928
35.506715 8.832576 34.044102
25.798522 14.330018 29.486765
28.386456 12.802698 29.176777
6.472175 36.634310 14.283747
4.322865 6.562607 11.083324
28.386456 30.041547 35.142356
27.284952 24.621286 11.294729
5.459502 29.565418 5.369996
21.600589 4.344309 20.348187
0.546455 29.978074 17.555813
0.546455 13.037438 30.939360
1.619768 14.289122 9.918055
16.497763 32.243839 10.461485
2.629801 32.228936 9.658450
1.975970 20.744119 16.178559
0.546455 17.531408 30.547066
24.708601 32.266937 17.617570
18.351147 17.823845 25.991617
17.012126 32.573052 11.714671
35.586452 12.324481 14.930667
35.586452 26.965471 31.493877
6.626033 40.939316 26.987004
18.036961 43.254577 29.265504
16.601776 8.568174 13.615707
28.870736 20.666838 2.933429
31.167169 29.848415 38.891105
7.304755 28.064251 23.353348
0.546455 16.422583 32.512936
4.151480 16.975340 36.625334
0.546455 6.734601 20.641421
31.234201 5.743624 34.198507
21.666456 31.322409 10.370743
8.932090 27.608078 31.482304
28.383290 11.344097 25.545360
35.586452 9.470661 29.840393
21.666456 18.711884 38.229927
15.968172 22.465126 15.982377
33.000536 17.235997 3.405686
35.586452 25.068958 12.653800
3.931294 4.311463 23.940218
34.419173 0.237129 22.422636
5.042076 33.657803 13.216164
2.353380 20.312962 2.229810
5.520391 25.444522 7.933413
0.546455 10.875871 26.789648
4.683282 3.321751 20.195010
35.586452 14.523416 25.446678
29.135579 21.653631 16.015496
32.275902 37.746511 24.910647
3.735068 17.208312 37.620893
33.430529 17.928052 17.831052
27.423943 27.544840 31.517382
33.678307 8.880777 14.386126
14.885363 2.342922 22.372354
21.517715 40.309937 26.569383
35.103246 18.356630 41.755151
18.056820 7.375690 7.845681
33.361250 33.314008 6.204547
28.701531 8.043087 31.091829
14.466455 21.955200 37.260714
28.386456 19.546629 34.741378
8.109991 17.817833 25.985605
18.507992 7.455467 31.734251
28.731737 32.914325 12.345377
14.466455 30.461620 12.046177
1.278083 6.121663 35.309124
0.546455 10.151197 31.855645
14.466455 14.247049 31.664650
0.546455 31.890552 22.727435
14.466455 27.403483 33.781073
35.586452 36.883860 27.838824
7.746455 34.893736 22.006249
35.586452 13.934771 11.075512
19.839873 33.060396 36.874676
17.227909 31.146464 40.115663
35.586452 12.341007 13.385346
32.041290 13.549810 33.837435
20.623322 4.643722 23.988363
13.834099 25.722174 26.828030
14.848809 17.230605 38.238124
0.546455 16.182840 25.371432
35.586452 32.605545 15.319478
29.502210 17.225836 38.439440
12.300187 31.640067 27.525135
14.466455 36.890342 25.720322
14.466455 29.522665 36.846304
7.746455 10.628450 18.276451
1.497596 32.607029 35.736445
16.844833 33.262852 37.536388
35.569275 31.496662 7.596277
5.376951 19.072773 0.428120
15.246198 32.107199 3.320401
21.672078 20.493981 33.278009
8.535734 16.334431 20.983047
10.668725 25.059317 27.247881
6.984121 19.924444 16.452162
6.268463 17.212112 5.236841
24.268876 33.135411 21.110412
21.666456 32.583539 15.439436
0.546455 14.897826 13.754181
22.897515 11.916944 18.409146
20.462371 33.968660 30.472133
18.903718 9.029451 15.190445
7.746455 15.385669 31.770086
31.968109 33.151441 37.154275
0.546455 9.196415 25.162790
7.457589 18.049034 40.845198
34.457804 27.540589 24.758037
21.611031 21.667028 16.014324
21.666456 13.834091 10.754379
32.294306 25.082671 16.689886
25.199082 17.802791 31.940939
4.517483 21.848270 5.921516
28.387168 31.211327 7.848197
28.386456 10.360429 25.200026
28.386456 29.239342 12.774722
7.746455 10.173591 25.642572
7.746455 29.539311 9.119991
17.437670 19.450859 16.672998
33.867034 17.166256 25.125891
0.546455 31.691736 24.454455
6.655893 20.523589 2.638912
1.972600 25.263682 16.777807
24.077173 26.995431 25.605216
35.586452 14.613330 33.598093
0.546455 22.532745 28.002983
0.843591 7.010755 24.673377
30.978441 25.713726 36.011950
8.465510 21.579625 27.904905
5.325500 32.972070 7.298246
35.586452 15.104389 23.558355
22.455837 19.687372 11.346010
7.167578 25.196801 16.743106
30.120643 32.766992 36.109298
33.695040 29.850161 38.893167
11.261696 20.738218 11.140903
35.586452 32.662529 23.227690
5.290599 30.307530 4.555435
33.054080 32.475830 41.044508
35.355620 6.684503 10.861708
26.744809 27.634791 19.370856
0.546455 24.104638 31.037899
28.387041 8.220540 12.833848
35.586452 18.787573 8.055892
14.178590 26.471123 32.125487
16.672496 33.383588 2.701757
0.546455 29.155276 14.520257
9.000737 20.919489 32.810172
6.536190 29.735602 5.169007
4.865377 33.636957 4.142964
3.150089 33.329382 37.790222
14.929598 8.828306 26.959140
26.071633 24.343258 16.345092
32.266970 21.558089 38.532820
34.465720 29.578901 5.354106
29.149544 16.958161 7.353747
10.901121 25.975609 17.276304
16.419643 40.823322 13.778609
14.466455 10.584609 26.963502
21.666456 25.585967 34.841380
15.885669 6.908814 19.308193
28.411475 31.678241 36.422119
21.096387 19.732720 27.385312
0.546455 11.023719 24.722229
20.477550 17.574242 25.708555
20.676593 27.226669 7.550326
16.938075 42.960516 29.886628
29.232248 9.055665 15.731795
0.546455 15.717729 30.489366
0.546455 18.879504 7.400898
35.586452 14.026268 21.134813
9.076670 27.543878 24.750984
15.846503 37.999090 29.863903
2.846218 33.115380 6.896286
28.386456 28.382528 32.114544
8.106774 16.264139 22.140391
20.489056 33.420350 40.961868
1.917611 17.189375 4.142772
28.886110 27.781017 19.684439
20.091945 17.214690 40.207362
3.987166 23.318843 7.342327
29.939016 28.936286 6.182567
25.694438 27.450648 18.975960
4.016472 6.220725 19.627027
13.890850 32.701693 25.157493
33.466283 36.710155 20.890869
10.101723 16.373559 12.756432
24.625707 15.713828 13.202287
25.978797 13.972275 14.828167
35.305924 21.142445 4.130522
0.546455 35.198580 17.874877
16.969367 7.005162 7.741141
28.386456 35.127058 27.675017
28.386456 10.001650 28.783388
18.967558 36.897549 20.329046
29.141079 1.249217 22.497057
35.586452 24.805998 30.883864
14.397795 33.289415 19.839944
3.525558 19.317465 27.191675
1.236867 38.426284 18.420863
2.591407 9.055541 28.271862
20.331512 8.119582 12.921945
35.586452 33.526119 19.990537
15.249512 1.158654 21.881453
30.756018 33.535215 5.088482
16.600068 32.231195 40.890074
21.265253 20.606420 2.799794
11.154112 28.194641 21.346035
4.479631 21.937699 37.864247
20.778087 13.366610 33.815637
26.260541 22.215924 15.966302
33.687112 3.823364 20.074970
30.260564 36.760745 23.239995
4.058824 36.586784 21.631350
34.479470 9.763224 35.016313
35.586452 21.135536 12.645055
34.013416 11.313858 9.810016
16.858585 7.717914 18.708619
28.252242 12.123987 17.323295
22.680298 29.404307 13.721122
28.388959 16.560575 20.097648
28.386456 8.188216 22.610357
35.360307 16.928249 7.444649
34.994650 36.597079 21.504584
31.420654 23.082984 27.890443
6.892572 21.016146 40.146167
12.207927 15.138318 30.244242
14.466455 14.605734 32.900415
33.715182 30.891491 4.019553
28.823324 39.906020 30.134604
28.417249 8.151344 32.192362
16.715598 2.249672 23.398301
25.002041 21.327701 32.843988
21.593221 9.537900 34.763398
28.732169 37.654595 19.119083
9.642743 16.901825 24.640303
25.444024 24.372689 27.568060
28.386456 23.992859 33.889908
14.909649 27.787107 19.697499
24.352368 22.369112 32.887390
28.386456 23.541630 36.168810
28.386456 30.578833 31.613016
7.746455 7.288416 22.756402
16.900513 26.977857 18.296562
35.586452 31.763336 8.569043
35.586452 21.866621 10.142858
21.478928 3.427304 23.394724
5.668844 8.763895 14.069656
28.386456 34.975216 18.236776
0.546455 21.579414 7.824586
28.420970 20.579156 39.342569
35.491790 38.738426 14.219447
14.466455 9.461462 24.343366
2.923564 18.897855 43.698368
33.976890 5.336766 35.096144
21.666456 19.850672 5.735448
6.525868 36.753487 23.210728
31.832539 20.470854 16.251780
15.902755 0.383503 21.415468
7.563440 9.369165 8.685365
33.570160 5.336757 8.830752
20.677096 26.897006 36.239998
31.312438 26.431615 7.813945
3.057222 42.646621 15.391193
15.579193 12.631599 10.121701
14.466455 31.061467 34.798934
0.657685 8.873746 34.436291
20.116424 14.073271 9.980240
28.561598 17.208672 18.740409
15.854438 25.331936 7.925791
7.768619 24.004489 10.738722
28.417539 25.693829 36.010583
4.425006 29.896535 4.984835
27.060028 13.955984 29.081038
33.876646 4.879806 19.910533
31.334862 20.675811 2.953826
4.590211 14.337038 9.904250
21.666456 14.129119 33.634996
28.386456 15.918321 33.292973
0.546455 17.089283 33.561464
5.371674 17.437111 18.414164
2.168514 7.004617 11.668082
13.341613 31.553105 16.257210
14.572066 39.986857 26.511205
35.586452 35.897900 27.576498
19.964720 37.001675 29.656934
8.641754 19.759688 32.600522
33.227079 17.188842 39.664564
