34.386533 26.047292 76.609730
51.209699 13.061286 109.658880
91.223739 29.960164 38.310340
31.339736 24.055642 39.940641
70.041680 7.185472 105.586360
28.810645 4.710662 11.440000
28.913418 2.447210 36.793938
23.688952 29.912179 28.227665
90.260348 0.280813 42.748609
37.590971 15.745286 72.999244
43.090128 28.734790 23.123472
43.923251 27.096018 102.490220
25.214258 26.709068 47.618576
102.795558 27.483176 61.227169
31.478034 20.384905 103.547373
61.106076 0.066087 93.755895
64.442208 11.714597 49.949074
88.036675 0.055826 33.346688
68.523854 18.423530 33.544017
7.831821 6.187655 77.068507
108.593214 14.245853 42.943172
72.183397 5.010173 78.193569
35.110327 4.168912 76.926481
60.391412 23.183577 107.238637
63.609776 9.918400 45.951037
35.757496 29.650173 23.418726
106.613600 24.225061 58.390297
12.223833 29.046912 40.336607
32.750895 29.953230 87.893818
55.959899 1.248407 89.066630
100.401258 22.726401 81.968548
24.827884 4.242755 14.697979
64.536734 1.320710 87.526330
55.350221 28.843096 100.662852
91.326860 0.125334 75.087791
61.282763 0.014896 14.971134
58.651885 5.758643 55.385460
16.354607 27.639655 83.421794
39.294831 29.946968 92.783320
48.213963 7.667077 63.443340
47.527945 20.779209 1.730498
72.235873 0.182067 93.264061
18.175173 10.731548 15.068729
25.443629 18.910607 9.290541
73.845766 12.633888 38.295255
89.286922 13.225740 97.763924
64.996665 15.231302 39.428817
30.920795 20.354129 64.828705
102.622751 2.748522 45.667914
87.672800 0.601642 69.581757
98.436406 27.102850 77.123044
72.801005 23.629128 104.046016
27.034688 0.107507 24.511309
66.117001 28.898423 87.611401
55.612069 26.160737 5.061794
92.822977 8.327041 17.391994
92.195281 20.496621 15.973803
105.153473 23.981736 41.608010
72.518631 12.477801 73.119287
109.221969 17.453575 47.577965
49.503874 23.344879 34.777235
35.166849 23.490057 35.727409
88.735059 5.939648 15.627074
77.012812 16.100633 66.998831
38.093962 15.184279 2.753310
0.985031 10.057976 52.035783
78.545248 17.646702 104.360078
28.907877 21.728577 60.206245
24.916366 17.818851 9.338399
76.639159 3.850782 75.784279
98.209065 0.580692 47.121243
72.068377 29.480617 86.871333
78.588678 0.792668 92.935702
84.557431 8.871090 10.211870
69.481757 12.715267 2.204173
71.803444 0.123528 20.817423
38.343065 3.235238 29.147937
9.799206 0.970093 52.033721
21.930132 29.546805 70.457058
55.341133 0.457710 11.480274
14.411546 1.757079 78.620728
106.015792 13.075185 35.002930
59.843111 2.604227 23.821453
98.442492 5.996083 83.387825
63.483507 0.076687 93.054440
106.988988 22.477915 45.147352
62.507650 8.442100 66.222373
93.031401 0.552616 76.842708
34.066460 5.471134 7.902242
76.594728 24.015393 102.177381
23.035895 26.666818 17.366783
52.805839 2.177178 102.684508
91.562669 0.014714 37.567754
34.957889 24.117199 74.696189
50.907635 24.777742 83.143341
34.603257 7.234414 72.992165
64.506758 2.443480 24.633837
47.490861 21.562936 57.550695
99.513634 1.071924 64.399500
101.582646 25.551314 74.640827
32.360758 29.548968 83.613245
85.816978 6.871088 12.437428
95.784423 0.039897 53.992871
59.561787 29.934730 94.006840
25.870178 1.625729 71.011506
10.412546 27.131674 35.371617
83.442637 29.560808 22.176860
80.636848 22.632365 46.153287
76.603811 11.792618 105.124807
87.583332 29.918473 33.810897
45.111383 16.386351 60.628709
79.782337 12.769712 50.652780
10.382045 29.205108 57.054316
49.810822 6.459565 58.362117
90.718871 11.822969 13.726507
84.351288 25.959616 59.928669
70.867968 22.803896 105.324151
50.756045 29.977624 14.560637
56.498815 5.117803 79.454575
70.999527 27.106714 8.920241
43.116468 28.983454 87.581673
39.244484 0.077160 90.628883
51.986937 25.883315 84.514429
48.609953 25.374564 4.666180
16.755008 29.923181 62.580049
20.644612 6.971305 94.917491
9.600148 28.210597 42.850620
55.671038 5.493458 106.513296
55.071722 20.101503 109.012003
18.638103 27.424922 86.764606
85.085667 28.712149 89.766267
12.114115 17.705700 21.089030
42.592693 12.202048 33.533594
94.392565 5.766683 21.480803
106.653461 21.654876 41.630859
54.471006 24.978964 34.463944
19.898142 16.202097 12.771348
27.199695 7.120904 99.805557
13.967473 28.581040 33.657253
95.008383 4.396111 24.137846
17.330085 0.094967 71.833391
20.567390 22.596804 95.148654
108.240435 21.129114 61.518989
80.148622 8.128552 63.849511
22.173737 16.283062 11.000906
75.493797 10.499988 4.806897
46.414342 9.883393 65.041713
44.158712 25.930710 82.696271
46.456967 7.768083 30.002769
23.329425 29.613213 36.253552
106.165970 15.553067 74.960841
70.705118 0.186509 16.042764
30.167100 15.960984 58.347966
91.478370 6.723808 17.304390
34.042930 5.165744 101.788308
76.405652 29.945426 88.221900
64.822356 16.781557 64.097710
84.190936 0.084003 29.435714
89.345711 23.533555 94.415344
104.511391 3.455448 56.705613
77.394199 8.611417 6.403677
28.789471 4.892038 67.360948
33.543742 0.352062 24.890595
10.804893 1.817936 71.253744
87.475813 28.212429 60.651091
15.519741 26.387032 24.777449
86.025364 29.212553 87.093144
5.042418 8.208875 36.495590
61.054639 26.298024 25.442401
3.420284 7.215418 43.860063
104.597581 6.478973 71.449294
2.329172 13.779618 39.491978
58.807408 0.365854 18.284491
42.907765 28.816397 10.893483
63.462281 9.680435 55.285023
96.341262 6.008315 23.551766
102.795049 26.858226 66.232083
59.960070 29.940002 14.339072
48.237839 7.644648 70.522376
108.909324 16.563489 44.909175
77.803210 0.015673 88.451281
82.196744 1.246371 91.950724
23.064782 0.068366 32.306650
106.494544 13.309433 36.181134
50.567746 3.752201 5.334410
83.206173 1.578162 72.729751
40.648830 3.884303 81.284959
63.533511 9.794880 65.935533
63.221405 27.337330 102.700530
85.507716 1.090553 38.875934
33.668058 15.989536 68.151135
61.349814 7.293986 62.765644
55.493951 4.095687 84.705849
76.657587 16.864688 4.639857
61.607739 7.514385 34.312402
94.807144 17.820523 17.553352
97.477226 0.242394 55.242889
26.528838 20.760545 100.666356
87.915384 24.616117 94.538053
54.066251 29.339287 90.614890
52.985277 29.007466 89.693809
8.100269 3.557832 38.736460
27.785677 25.472747 44.184340
71.592094 16.275251 73.825039
107.630717 7.051154 57.237814
46.340101 20.000598 52.739358
51.040563 29.676344 12.124734
4.542625 11.384054 75.625565
54.536446 22.948508 107.667547
69.420972 29.599600 88.789875
83.553615 4.969301 50.525699
68.348929 25.347055 80.944551
50.590209 0.104902 13.897122
73.755708 4.554449 32.545307
3.473282 14.954420 74.087427
50.222683 7.277417 107.570640
27.369285 5.820878 49.710332
9.170857 24.416197 31.246656
59.375131 23.977095 66.771975
52.299227 29.706899 12.195494
59.501622 23.926657 38.210339
31.097750 23.605173 40.945308
16.183217 22.905089 19.330288
2.450918 8.530313 64.978336
9.414825 1.267345 60.471193
97.348351 29.508567 65.434368
94.657876 10.685250 92.067336
68.323161 26.390121 82.217266
59.267846 5.998467 71.867979
95.231013 11.890859 91.908835
72.325694 1.852307 82.917440
77.296855 0.052172 22.280396
34.943665 2.239786 11.600162
45.340483 17.587066 60.999719
29.949329 1.145592 93.150310
65.125823 29.943559 16.826776
8.435084 26.295543 72.685296
10.727019 27.514991 73.922654
27.578393 1.011947 18.857849
92.532018 17.652033 94.749434
45.024819 14.325296 40.551496
28.987289 1.746463 15.922522
85.611872 16.221709 100.575040
63.997690 10.685482 45.028920
109.465293 12.745927 49.583148
4.426931 18.093199 34.356744
47.985761 22.125572 72.750275
47.849763 1.511957 9.123962
100.209654 18.865758 85.331486
64.804301 13.073421 68.797993
27.609836 6.098442 60.465601
45.241261 20.021318 32.370906
14.314039 18.770258 18.749439
93.233211 4.953061 88.873494
42.978883 23.881997 105.581790
63.546930 6.299914 28.566953
81.512132 5.863088 99.526079
89.055295 28.807849 51.688996
93.261559 3.417352 86.433534
27.638246 29.288573 77.637643
29.448315 10.306850 51.903874
77.368569 2.171633 78.287663
30.330069 3.539918 72.728273
73.173472 18.811120 72.939780
36.034852 12.662573 71.547967
64.014894 2.222755 101.920510
47.030402 8.905876 77.095492
80.985851 27.593720 73.497785
10.668809 25.864562 31.327647
54.869085 24.998406 39.111309
40.010824 12.659231 75.230465
64.837616 13.479468 57.043300
59.904659 3.522110 104.352810
45.433060 7.624180 29.910894
104.227821 3.743800 62.673821
5.477280 18.203134 78.033573
53.342404 29.843517 13.276919
18.480353 6.767531 17.299622
89.349449 4.807846 17.373713
26.550141 28.333755 72.061291
98.551983 21.625568 85.881323
23.217619 28.146795 63.306136
50.904921 24.111997 69.532251
60.530164 29.966134 94.663518
13.350290 29.857376 56.183783
33.523856 29.481081 16.908923
104.247435 3.230559 55.526134
43.169433 10.686593 77.397514
9.346544 22.767601 81.530829
67.492829 5.096611 29.077806
45.308895 3.048759 7.003588
86.667638 28.403009 65.242292
100.673342 22.416878 28.215894
86.192826 0.187788 83.145033
16.272956 2.504695 26.309137
84.387694 16.011019 101.391246
45.000008 15.001853 43.324758
70.667150 1.028328 24.096919
84.557478 28.325111 39.960413
79.172531 12.009546 104.019696
31.153364 29.616550 83.078317
52.985560 2.441259 23.234773
81.088433 0.282342 28.312268
84.618256 2.332187 42.807934
45.248814 23.122182 106.649771
49.809693 15.083163 109.660547
4.907276 23.643857 69.626975
75.449542 29.956976 90.342254
18.343657 0.023676 71.749885
106.248790 23.404023 65.712976
29.118765 6.634615 9.448774
4.256490 25.228728 50.943909
77.246904 18.359102 67.284870
55.151321 5.004208 65.779541
36.594341 27.523834 10.518259
89.385619 0.068815 73.759442
62.116112 22.021655 59.423136
53.621568 24.849917 50.505575
77.922711 9.007704 67.872932
16.137247 20.886728 92.164731
82.579576 4.343849 12.728024
38.945190 29.805173 93.904829
60.330065 0.479544 19.037670
95.167202 23.979717 87.938287
26.727548 0.044751 27.042889
48.192347 22.322595 74.248989
75.749559 3.797878 9.615981
80.326436 18.774825 58.110926
69.844439 10.688852 107.224709
8.089183 24.141608 33.061140
41.024315 18.984326 107.560317
6.691730 26.353147 66.771257
9.418756 25.301929 77.489082
39.757822 4.767284 30.251236
58.459298 29.945132 94.358207
69.573657 0.205602 15.425812
18.847404 16.817122 96.230770
27.582954 28.807058 91.632559
99.416665 2.889972 34.935074
10.228596 15.620095 23.216709
12.873532 19.760069 21.008666
94.967642 8.237307 90.251156
27.693609 29.916191 82.572662
69.431467 22.048286 32.474203
31.950580 29.959353 22.473964
71.971407 25.179016 103.031579
92.565259 0.067277 71.494400
53.667438 29.818334 96.963106
21.299640 0.510147 41.773819
48.648088 7.313576 38.576021
86.981747 25.573784 94.129060
108.799399 18.153250 64.343200
84.832519 29.354996 35.446718
34.686104 2.306981 98.376444
53.670573 5.114317 39.522125
3.276219 24.176130 57.224121
3.711881 24.821116 54.988098
37.035653 22.510430 75.217873
21.269883 28.322883 87.417967
61.138995 10.095928 108.752681
77.495561 1.159633 80.928725
85.543338 3.400262 54.852441
46.422671 20.132793 68.736783
45.549520 9.846791 108.163211
30.585073 26.803679 73.759669
108.312505 21.745382 55.112989
42.920803 12.239671 76.458693
47.233576 21.750808 31.281751
105.839659 9.880188 73.298382
93.873442 18.018874 93.408042
66.658748 4.780073 28.367926
2.105877 12.806653 69.216713
92.430896 17.790730 15.121427
7.197370 18.989422 80.944724
63.768268 19.794120 42.256039
90.875623 18.700345 13.999073
32.421687 3.730157 74.961848
1.285036 18.335242 45.425595
11.637159 13.651932 21.319734
61.342685 7.290655 56.738029
6.871846 22.802242 33.400554
31.151794 27.878719 33.080083
58.452625 24.264858 106.586766
78.381932 15.099221 63.854186
107.634999 11.992719 40.442577
86.217113 0.028404 28.881124
88.911822 1.236687 51.446383
104.065048 25.117079 41.062673
23.288590 29.983333 80.136791
92.805434 0.030164 41.551506
79.253145 29.539215 27.798907
33.977808 24.939543 101.672784
57.942035 5.449734 58.569006
42.694869 6.081036 29.940868
32.649429 14.846758 4.799372
1.169201 17.245034 45.088115
66.256731 0.017722 15.973799
28.512286 21.818124 52.253389
70.812870 7.213840 32.855505
101.935810 3.489893 70.915019
54.425731 24.941952 66.617643
88.396427 6.158870 94.899233
85.298171 0.016725 81.810005
70.636068 26.036093 29.572125
60.499829 4.127415 104.934685
37.450596 7.076465 75.921274
69.029014 7.639386 106.092112
78.954660 4.485071 99.563804
89.085509 28.250770 87.250187
2.963704 15.587265 72.519106
61.246750 7.245339 43.032250
54.421602 5.051490 64.516848
16.938691 24.358652 89.879992
74.383425 10.516508 4.361343
25.872209 3.560065 46.486744
27.743541 23.728015 60.555492
91.304837 25.135745 90.850452
28.021157 4.738087 65.890170
24.129941 29.954594 29.964151
47.636926 0.586453 11.643508
48.552306 5.955825 106.501539
98.537106 4.720448 28.735198
3.475923 24.195799 60.163110
70.478108 17.485478 2.539038
74.561209 28.951976 83.537544
28.144268 29.952268 25.754791
46.442433 9.839388 46.284251
36.274000 22.254734 74.281016
77.962120 6.201600 39.240684
56.273403 29.045571 100.209203
7.265870 5.114969 73.643885
66.353480 19.391701 32.532844
61.414736 24.079883 106.477403
39.510796 4.777298 103.499621
59.457131 23.949636 32.620301
60.216433 23.527776 70.986534
85.201209 6.714686 97.881720
14.031403 25.024599 85.547726
79.597184 6.781138 67.271021
0.217999 14.945496 50.969902
10.881919 1.341219 41.769047
86.856025 7.260058 12.908898
64.655729 5.016286 82.181132
33.889500 15.026812 68.355151
65.427547 22.534173 3.150143
23.197727 21.403590 12.003659
45.066094 16.117902 72.044591
12.958193 14.103392 19.686944
85.088127 5.983179 12.731892
67.277699 3.484237 82.851034
102.976681 15.325504 81.734633
82.279883 29.871217 86.350591
76.954381 2.144470 97.310445
13.250296 1.051878 72.945592
60.852051 7.415185 2.460903
5.770281 18.444504 31.524305
82.441833 2.405875 94.434495
94.691893 29.954821 52.365221
7.037191 26.078711 40.834537
19.858660 24.916344 92.244020
57.244484 15.702565 109.903160
17.082333 0.065613 44.876708
61.260029 5.950985 27.825982
65.104830 1.497721 23.104772
47.838896 8.027803 38.191391
80.706641 29.913631 26.028354
64.354333 3.631822 83.780947
77.861219 23.933657 101.680679
20.852030 22.867227 14.844932
65.339318 29.943023 15.359408
107.679880 22.059422 61.975636
21.446403 2.303995 89.178999
3.700207 17.849606 73.922719
49.859832 23.574179 60.208297
75.163840 0.126872 18.680001
48.644730 7.296907 66.522839
80.288497 29.901308 83.961392
25.799781 28.756207 37.418690
87.061153 28.422330 64.139373
80.738112 19.105682 102.865365
46.241529 27.213059 24.959057
88.250646 8.337847 96.710858
68.281410 2.750934 101.695445
27.022038 5.716299 98.458899
37.624199 3.574129 30.138060
108.854362 9.531964 52.746507
104.888536 14.158850 77.999730
4.732421 25.826480 54.466486
20.549347 2.466307 88.651961
89.682191 0.820096 48.984873
19.447172 2.772205 88.089597
14.111670 0.060833 52.086894
17.365893 13.996336 94.975436
52.620743 5.289975 46.248707
12.572332 1.469944 73.604386
7.087268 9.712587 30.110912
47.436481 8.469701 33.672818
78.723506 19.949268 6.419106
70.133849 9.681825 76.149968
104.538926 26.165687 61.211519
74.753596 13.012119 39.440497
91.714974 29.834297 34.928675
70.249184 11.606490 107.402121
20.536859 0.170150 39.316308
63.652975 29.663187 12.798027
87.032871 0.054175 29.534529
41.804336 26.139968 28.083019
84.183459 25.650082 58.861556
100.039869 27.680892 38.672653
15.806869 28.288951 80.638524
65.498747 6.563518 80.552700
19.838336 26.352900 19.842951
79.773644 18.535423 49.090464
61.348659 22.659610 66.968394
18.704424 0.049154 73.794604
90.139062 0.584250 47.967785
12.244485 28.841366 71.132926
82.173962 1.158916 34.033594
3.120977 23.852087 58.631215
106.497061 24.207214 49.995823
100.408046 1.412647 46.474054
59.772507 6.065544 81.457312
23.358729 0.050329 31.100176
14.542586 29.923482 62.355395
8.654961 28.037269 64.805327
79.192608 14.146183 61.540477
91.532833 10.455031 14.938530
40.317669 1.277642 85.669264
61.089165 0.056177 15.978301
16.241726 3.574139 86.048885
57.451109 28.789490 9.286818
103.421516 14.077595 80.883743
2.510743 22.017691 46.481927
70.288482 18.234822 75.262778
77.292518 6.558442 7.662405
30.433624 18.017749 48.822166
40.746888 6.642160 78.627057
52.378740 5.350357 69.194556
50.561394 29.329964 90.342871
87.759891 29.957015 32.390607
59.118607 26.320190 84.929934
85.181195 7.301540 11.665175
10.695289 29.293952 52.256663
104.012710 11.839353 79.068186
46.037368 23.272551 29.031312
26.497564 29.352583 88.745311
56.465495 28.664839 8.982812
52.449695 0.072788 16.007265
11.709818 22.462672 85.500196
64.807773 28.280051 9.189682
27.177956 6.266188 55.659860
37.324738 29.894765 88.944495
62.496361 21.573211 52.814788
105.522875 4.440994 56.955284
22.433814 28.784808 22.816044
8.455441 3.684404 37.403716
86.856574 2.427688 55.820035
29.190937 8.177539 61.588094
0.081117 14.708168 55.175747
60.249681 6.495862 38.490032
88.021863 0.210199 28.715896
12.532862 9.096381 87.936712
93.170673 17.544024 15.818075
32.107345 0.268727 91.030897
54.350134 24.933384 64.772301
72.449164 22.944925 5.261201
89.000656 7.799336 14.256040
45.146875 16.669473 72.983137
79.522709 1.132506 30.915335
30.355321 1.275700 31.579055
22.856159 28.190171 62.093765
74.682859 9.035808 105.017192
85.549209 12.839530 9.522631
48.631023 0.092789 93.040008
73.936472 3.600220 31.325389
91.375776 29.932933 35.964422
95.925235 1.383069 33.606736
75.257549 14.097327 69.745529
74.500557 20.206172 72.114429
62.651848 21.404294 45.743150
76.028829 0.419185 92.923062
100.653286 16.618854 85.401498
63.779169 28.892221 21.678156
25.551388 29.089816 89.151932
95.596526 1.982398 79.493431
78.624683 13.161998 63.601182
60.341108 6.457350 80.635764
55.483304 28.131389 22.178742
24.788910 26.322918 94.538140
54.988114 29.940427 95.958466
30.261939 11.697585 49.176392
53.076098 24.806269 66.437529
9.410920 1.796797 66.498313
22.169605 1.859847 55.991573
21.659919 25.811119 92.670828
55.235671 28.050456 102.331841
82.131026 22.802590 57.273155
104.213312 21.017656 76.449755
64.062373 19.164170 53.601604
7.985545 14.810906 26.625111
104.072679 7.673471 34.921606
62.647790 24.237549 82.134002
82.090727 2.920742 95.562523
6.909522 27.564738 55.261984
53.949767 24.884131 56.044323
1.739661 8.120696 55.975808
53.128346 5.188312 55.608194
88.224815 29.900096 30.455628
94.733665 29.960947 51.309593
27.718270 8.757466 8.903313
89.017355 24.937473 16.740678
40.580787 17.920044 107.694593
99.621733 1.099830 45.867185
7.402494 26.632142 41.686664
23.967939 2.884789 92.577996
4.474315 6.960550 69.762939
103.966287 26.167169 45.317173
45.001924 15.122906 44.369855
42.586721 10.062980 32.393286
77.127074 27.495559 32.270219
24.251762 27.053485 50.242945
65.748077 0.425088 97.030850
63.485426 9.719412 62.290828
60.428715 2.848687 85.739839
45.435673 13.847556 0.903234
23.936312 9.721719 10.879464
13.244593 29.411462 41.199350
9.996783 5.350511 79.873865
39.879064 7.359040 77.511502
41.654761 27.615982 101.130728
98.596688 3.016872 32.761133
55.328762 24.982253 64.329620
4.684050 17.600270 33.510710
0.822687 19.593568 54.236008
58.547338 0.145647 92.816685
81.079428 2.354361 14.727689
59.006395 6.947522 107.453712
108.965992 10.585583 49.539006
82.706438 29.941970 83.073760
60.546029 6.693789 78.927025
60.631256 1.481828 21.966906
68.491158 25.438435 103.851001
81.046165 25.382988 68.200799
103.685752 6.815398 35.280917
30.350501 15.237713 59.190606
20.077010 1.528128 24.351832
31.462518 1.003563 80.514335
28.556611 27.670962 73.082395
90.497027 0.209652 32.142573
1.517636 8.622003 56.819831
47.170419 0.325782 12.661904
17.600620 0.375979 76.717043
64.796701 16.977136 42.790060
49.705761 23.471318 53.821716
79.982440 10.312557 103.059358
44.982186 23.901806 81.065212
78.420459 13.595855 45.992536
24.251577 0.209848 83.909869
48.296940 26.029702 104.633545
103.650724 4.222579 42.132971
84.630896 0.101098 79.415450
63.553009 20.171064 66.943660
12.792338 1.159279 37.478879
33.716822 25.200883 35.232431
86.893753 0.813558 40.077022
41.156813 3.715709 102.852219
88.770304 16.258927 98.280161
106.199068 14.262981 35.161369
5.877049 21.520552 75.984207
92.977574 29.911171 47.727349
75.247399 29.937763 88.746972
51.132624 25.009057 105.973166
51.889419 24.975567 83.405968
6.038455 25.950532 65.820022
7.309260 20.512449 80.062225
39.848078 17.454151 34.847878
86.926908 0.196298 75.111388
37.343087 7.138347 5.296491
28.953687 7.237801 62.841604
92.353005 29.946427 38.298649
31.735291 11.870697 104.399205
25.602148 3.925262 49.555727
15.802359 27.763545 82.397626
60.008896 26.458764 5.628447
50.709471 6.018048 39.445496
29.920580 16.098874 55.585618
60.170705 5.027930 105.902335
20.765604 0.799279 46.534456
32.083553 1.832090 78.579228
101.522102 2.530071 67.781825
8.458979 8.366222 81.143444
101.598165 4.942583 75.929666
82.503876 29.767547 22.754861
40.001350 5.949249 78.674187
78.456935 24.951150 9.507167
65.613378 23.401753 80.494068
33.557525 7.085481 103.124522
68.377459 28.289311 85.261103
16.800081 29.905725 39.393708
30.751946 29.831973 25.901808
55.768399 3.993935 25.187744
40.400107 27.447837 9.013448
46.350472 9.983184 74.697635
103.214106 2.643616 59.094077
38.164083 17.964845 3.030291
67.906746 29.775368 90.314034
80.774362 21.005946 60.213903
92.987634 6.039121 19.580322
7.051095 11.179240 29.171531
41.973724 21.947817 31.691745
106.603505 14.653602 36.248865
5.952736 26.127664 45.522355
9.984285 1.147225 47.399949
82.076001 25.069466 98.307270
97.353579 3.397532 80.568402
41.075961 29.946824 17.974095
93.473309 28.752792 30.012563
77.131160 0.413678 92.295374
71.917871 2.684016 81.477888
95.757290 29.640323 40.780243
2.527071 7.521710 48.029176
25.147988 3.971408 55.221762
3.203339 6.012758 58.324278
85.086142 26.391693 58.571650
92.378444 0.093008 45.471116
57.112571 25.043884 26.579755
82.475250 5.442987 11.460090
10.470379 5.715394 28.767713
87.328542 10.730389 98.650595
76.180332 0.078503 19.760918
43.453162 29.945840 17.196756
80.616469 4.901654 10.860785
94.483882 24.723236 22.168238
68.116233 6.044957 105.243993
13.684023 26.030336 83.314081
28.035473 0.045264 24.324035
57.195209 29.721118 92.275880
28.747097 4.363131 68.290396
15.054282 3.295901 26.055873
95.466730 1.527333 32.204769
15.078658 11.672290 17.787672
26.723530 26.617637 66.598508
70.665518 29.836606 93.795033
70.130603 28.429395 10.959617
44.058244 4.639120 82.068274
19.975779 29.933854 76.351347
95.060699 29.958397 47.211133
24.324503 18.933606 99.933423
79.018760 25.413318 10.322779
22.062046 29.912834 30.226550
105.720327 11.812420 34.796672
39.835359 20.662360 3.353852
18.382728 11.382589 95.386909
10.928525 4.583996 80.120881
27.875036 1.383256 92.372964
77.778155 5.524136 38.019716
45.986874 10.729281 52.030824
68.566408 23.709201 105.318967
85.851038 2.520147 62.222574
74.310485 4.657410 101.978269
44.029345 12.780166 34.249559
11.465724 27.588828 34.687637
58.940818 5.854716 51.541943
75.258412 10.868711 70.647635
28.740899 26.189570 40.406474
85.183806 3.358030 94.124384
9.071593 10.997788 84.113970
104.233571 22.808981 73.977568
60.518964 6.689586 56.662689
36.895660 29.936175 20.125235
82.587302 28.724738 35.125601
39.463246 5.310413 6.024446
53.743659 25.091342 83.416576
92.564616 0.074204 38.349640
13.043303 1.258053 36.416950
98.431040 28.461007 71.592642
100.675649 8.481150 27.278069
91.051246 29.782120 65.810438
58.678490 1.183943 20.956137
58.283946 5.333044 27.243169
70.196956 27.572083 82.985203
96.231975 2.644162 80.313247
42.128951 4.693123 104.151503
63.353701 20.488577 68.517140
13.120868 6.818208 23.252213
103.738592 26.753874 62.067321
74.585953 14.509360 70.575358
45.103516 13.733451 55.661616
63.664363 19.991917 54.547842
86.777490 1.168232 67.859745
15.604381 2.560517 27.129509
28.907789 26.243823 70.067960
17.714617 6.193181 91.360927
20.899370 8.578583 13.802537
24.408547 0.098200 31.680885
46.524061 14.055686 0.731234
62.632419 21.562290 77.845489
85.907738 29.569161 74.575145
83.541335 3.641425 65.032451
102.790760 10.639057 29.257973
54.515468 13.987438 109.903160
54.151529 5.084259 58.438539
0.852575 19.539461 51.947429
40.319111 29.718834 20.676414
44.936641 19.075004 33.305113
76.862325 8.483774 40.020564
15.165610 12.659459 17.469784
94.788608 27.227097 82.903374
65.376386 19.238307 32.913692
71.446590 20.027654 3.519745
76.120733 29.965426 20.147419
13.992887 6.031950 23.120012
21.827997 8.353405 13.156952
29.810868 12.427405 53.590274
76.946834 2.293210 31.568657
81.510515 21.739916 57.201230
12.740997 5.993508 24.883694
36.880046 25.153871 77.636542
53.007086 7.123214 2.332093
93.141299 27.355387 25.209629
14.149131 29.912518 49.632714
64.169567 23.591474 106.390801
31.315792 27.593372 76.342406
66.598043 27.473908 8.182372
33.184296 5.835400 101.956373
105.302234 19.782659 74.990379
86.918392 28.201259 63.138996
89.329516 27.743372 21.714888
106.054250 23.936694 64.791057
31.311613 15.485710 46.925491
46.785456 16.622425 0.766202
81.455189 13.188100 6.949785
62.322254 26.389379 84.384518
7.742785 5.770358 76.048210
46.609657 8.570569 31.243431
83.439985 3.341846 66.337462
11.297214 28.517921 39.549222
45.920850 10.832360 38.777574
5.668657 8.316853 75.268436
94.874828 0.026866 49.762158
55.652942 28.754994 89.075593
11.457661 19.207645 22.487368
67.809486 12.158883 76.466955
76.687817 20.918717 104.160888
61.335066 7.298399 37.117948
3.814215 6.439431 44.623382
71.710033 3.443110 80.500738
80.173098 19.250835 50.201214
49.491213 23.301006 61.584552
83.543699 22.615425 10.509240
63.549573 20.176539 72.623094
67.953703 0.052348 92.391931
22.010247 15.848177 98.909580
45.030470 14.228816 64.411551
102.408586 19.550824 28.722700
44.798650 0.072715 17.271083
108.681362 9.969209 48.797814
75.774561 7.876635 38.081890
79.893215 9.119626 63.270314
70.151058 12.636232 107.599941
108.315112 14.358006 68.123186
78.209061 26.321874 35.677189
88.640957 21.256431 96.672981
58.398664 5.166866 83.169127
108.818341 15.771972 65.977653
24.440524 29.962690 80.757056
43.704825 3.420891 6.810499
17.102377 16.934034 94.566037
75.350659 0.248576 17.638576
15.088669 29.950298 46.072486
55.253886 29.823595 96.919821
25.784976 3.845414 14.513493
71.882831 19.967629 74.593436
55.428870 7.188170 2.232448
34.652472 0.101121 87.539359
90.430159 25.355486 91.358273
64.744525 17.176021 60.240618
37.108393 29.796337 21.795429
31.734675 28.916399 29.506091
108.820308 20.650520 56.827782
42.948644 23.299310 3.970830
78.652286 1.594190 95.156068
8.091073 26.508941 71.001682
106.541757 10.662207 71.981663
7.897943 7.978149 79.631039
83.288899 29.928184 25.203431
69.946826 20.464172 33.655790
108.748333 12.166136 45.166058
19.097431 3.567782 20.717460
85.645389 26.919225 50.664515
14.243347 0.033727 55.091491
19.085914 12.016435 13.853512
86.350294 27.729322 47.945283
17.678273 3.819695 88.123925
32.712636 0.306721 84.793336
63.708776 4.613288 104.972635
20.371724 2.045471 87.544326
77.370276 10.644791 42.442218
39.638268 1.049243 12.214309
75.586624 22.356353 6.171463
4.908903 7.819085 37.440989
31.741185 2.492392 12.785885
7.215419 27.159698 45.807270
59.315157 5.996909 50.564747
27.575362 2.467585 94.553161
75.849751 3.887688 76.496986
15.079203 6.013299 88.232167
100.792540 22.995041 81.034405
42.265494 11.977805 1.878400
6.586643 26.442677 43.948010
84.577869 3.840924 60.065089
5.970949 26.353170 46.678709
52.979318 5.213275 60.744797
13.965262 0.957423 35.999094
50.711319 24.030495 68.453016
86.702726 2.443690 57.824345
27.355940 2.793784 40.317152
46.458797 6.324585 81.416555
51.353596 17.732172 109.541674
71.104432 13.814242 35.778285
9.492243 1.459041 46.475439
47.936238 3.880732 25.880528
76.889588 11.579992 67.951621
46.531116 20.301937 71.356131
25.653051 23.798332 11.990629
66.098686 0.251213 96.065399
38.321729 7.925457 34.045684
37.757986 29.140863 13.556387
48.648826 22.753042 107.422454
16.251106 16.361130 93.894247
54.125277 5.062107 46.206199
106.117992 6.217557 45.157005
88.471513 25.651877 17.247612
45.858897 19.803652 33.373761
24.661233 6.058895 12.843723
25.384918 3.927145 50.770171
51.240428 2.461712 7.002604
54.980203 1.812063 22.061373
45.162399 16.553695 53.716238
108.327086 17.431433 42.609094
106.832315 24.047735 53.241699
17.022285 22.802233 18.396372
51.174915 5.801948 65.021044
64.699996 11.773476 108.709736
104.109354 14.062606 79.568031
62.698287 8.640473 74.374756
21.951720 1.717268 53.396772
45.388599 0.779958 21.027285
32.397923 9.948497 67.621832
5.555359 7.849722 74.366801
83.896157 1.855075 39.377354
78.259755 29.715883 90.939025
79.907121 23.579826 67.170417
80.021039 14.062675 56.306020
80.590831 10.806328 53.704889
45.329610 2.420467 24.641641
59.058522 5.881267 44.350613
32.824458 8.998260 6.068663
75.223061 7.637887 37.178598
76.914616 0.276695 85.269576
79.073830 22.502516 67.295204
29.848712 0.016977 23.079268
48.504490 7.285024 79.432759
81.057965 2.454980 36.776326
2.030953 7.873424 50.984997
107.997052 20.605649 45.471206
28.212965 16.686621 7.126979
92.148872 0.241869 49.598499
58.126361 26.129578 84.805629
87.399244 28.805663 22.708329
48.774055 22.745609 53.097172
5.962870 14.399330 79.706187
45.140498 26.208703 83.398385
86.529598 28.785442 68.134522
50.056039 29.762296 97.158374
56.630843 5.144273 55.324851
77.862963 0.421746 83.618809
54.822583 2.409038 103.036487
35.439295 29.493076 85.480750
77.693126 0.226497 90.746269
22.220068 13.505624 99.016339
70.500714 27.751692 9.744855
20.266533 12.107374 97.178281
77.727380 3.605421 75.024408
71.590870 5.612419 103.864448
93.834204 16.434460 16.238152
48.812046 23.956280 3.442580
89.151936 24.145046 16.070912
104.914267 13.431162 32.263749
98.802690 3.449088 31.840140
62.279919 22.561876 80.043685
57.313226 5.275184 51.343501
96.760834 12.419710 19.697130
42.247600 21.637183 106.811548
63.348454 8.513588 78.795947
31.578324 28.645493 30.626898
64.830469 13.290849 60.672002
69.763418 9.319492 33.408707
48.673405 22.727417 33.203128
91.869377 29.967673 39.245140
94.965147 2.101055 29.114272
94.449557 28.713254 31.456139
24.245290 27.499327 62.780869
74.857935 5.050437 75.879836
101.384482 26.847041 71.177201
40.529825 0.490470 88.285447
34.013298 0.021393 20.549287
31.653889 29.912628 21.051747
10.241502 29.121799 50.857973
15.103046 23.776833 21.552834
45.847904 8.874597 78.730796
62.664234 0.030312 15.001731
16.271446 7.348970 19.049781
35.683479 28.268045 97.709367
31.496605 0.205205 84.463475
76.506519 0.200006 18.789618
33.143466 0.776891 27.235597
75.642206 29.307581 83.944083
42.832325 26.547041 6.961851
109.011300 10.383536 50.614847
25.570919 0.041432 81.859754
100.085768 1.107220 61.545137
88.112800 29.919841 75.388185
86.933251 28.728860 43.305774
80.342221 28.715838 32.337036
102.053596 20.581467 28.795393
30.291291 14.274880 104.069177
62.156289 21.977572 57.537100
52.078455 9.378617 108.782747
45.241553 12.974038 64.939705
108.904026 18.005554 46.131004
9.121381 7.119569 80.999477
76.433397 25.307627 101.072903
15.829049 0.055823 49.933571
48.104198 25.259901 105.413064
27.648184 10.994476 7.992428
77.927750 17.180622 65.367854
34.800626 11.427210 70.497933
65.707329 3.871072 6.206810
4.788530 14.820725 32.757346
14.508228 26.434975 83.749403
43.912436 0.130169 95.039937
10.840076 1.984501 72.279415
80.612099 28.782783 92.958365
35.110779 29.360699 15.613712
95.861284 29.722133 67.599020
11.235092 17.811706 22.225107
44.972377 20.588869 107.918212
95.434569 10.349400 91.037311
106.136814 7.334719 41.750661
27.830267 6.970903 51.723981
49.285706 23.150167 68.478252
48.697569 22.747302 75.835194
63.826077 20.531261 32.460993
19.862356 16.684669 97.108213
26.727686 6.154604 11.318190
102.002990 2.002397 48.325999
30.175961 17.836804 59.861094
36.384255 25.942473 78.188032
27.466933 6.160479 59.365073
36.578792 28.696077 26.500224
37.721936 0.110219 17.384350
77.364206 0.012763 21.133406
22.521189 29.674100 37.057492
92.593356 1.200330 81.149658
95.062364 2.247640 81.085092
39.364830 19.567275 34.589300
63.682276 29.948573 15.040500
20.358388 0.694279 62.883123
91.828332 29.898209 44.310498
93.915710 29.962521 63.991636
21.289869 1.306954 58.860040
1.782139 21.791517 51.749815
50.855080 5.915146 73.852144
86.683075 2.489271 52.808087
64.959621 2.645378 102.381147
109.260249 13.905518 63.385605
74.673196 7.695040 5.780826
15.841760 6.846999 19.925099
43.698122 27.814739 101.358340
61.969846 7.831836 45.916765
39.631251 21.346479 106.297168
77.609993 0.138596 20.048664
11.638183 26.178253 30.301244
45.160408 6.135145 28.901435
40.667247 0.610714 13.340991
109.023920 9.882847 55.252545
47.245414 4.371481 83.377153
74.195881 0.518242 24.354088
100.724930 28.783116 51.989309
21.408384 3.520198 18.488943
72.328531 19.207130 106.474768
30.322177 25.059068 10.244556
12.663895 26.825197 30.038458
106.946257 15.008879 37.170496
86.360143 0.082702 77.891595
87.898244 27.862565 20.499907
44.409464 10.907459 108.329203
105.338434 6.042467 42.202895
87.345234 0.103376 34.417516
78.703651 17.431901 63.526949
34.406982 2.645207 78.830779
50.497713 23.926102 49.557621
101.844349 12.661133 83.306498
88.726194 22.295362 95.910256
13.280664 5.126868 25.247307
73.571032 16.344787 71.866022
7.604210 8.989374 80.213734
29.400498 24.578542 10.342994
54.276185 5.044628 48.331365
35.938707 3.328382 9.451111
93.523777 29.211609 32.452182
15.540818 8.675787 91.159484
22.924943 0.078062 77.120394
99.642036 17.203409 23.314063
74.073845 19.541219 37.748584
52.155470 5.430966 72.579712
51.928823 24.499091 55.856637
23.899595 27.485372 91.840137
85.401949 3.164575 60.150058
5.654447 5.907653 39.023180
50.266599 5.580110 3.609668
105.290555 7.307171 38.773425
47.920075 7.938653 74.778139
65.486238 1.657057 86.481336
91.931031 0.064976 68.382824
90.179265 5.410303 92.544826
104.695031 23.884228 70.266935
104.600851 5.763458 40.340133
14.369812 29.958435 59.145169
39.528298 25.164441 103.569889
46.589099 9.610488 55.901605
9.198352 28.722317 58.279120
85.523468 20.263307 10.480799
27.813236 13.605179 102.672049
32.680636 27.331549 77.163637
66.656378 8.457780 78.802504
75.621741 26.316171 32.915231
75.807101 13.582169 69.042622
17.362230 8.443586 17.115520
52.939627 24.779383 40.356047
6.185996 7.282512 34.814187
64.631417 0.479398 19.939898
52.130265 5.439828 78.422691
76.694322 2.760068 77.596793
59.977363 6.327946 31.880274
43.938555 7.077594 79.961710
13.347553 24.714891 24.942895
47.217922 1.748902 87.092795
24.336684 29.872370 77.568380
98.523042 0.523732 59.561344
54.536754 5.026474 59.374755
60.359832 19.994586 108.787809
10.512865 4.833112 30.146311
39.696939 16.377269 2.298223
3.406302 7.059309 65.690197
4.616851 25.335657 48.579396
90.849132 0.317628 64.797433
69.436085 25.982296 7.018987
84.806869 29.907749 79.546419
24.517385 2.748741 62.268508
62.639182 0.059602 16.351463
67.212547 23.929642 29.880422
78.977890 21.105128 65.894700
82.188174 19.301777 8.008850
0.145037 15.650569 52.124207
40.518346 8.872140 106.643294
27.967188 6.088039 99.421940
80.956074 1.675439 93.888207
103.315543 25.204008 38.848592
93.584071 29.941554 46.886581
51.597946 1.287249 21.195535
77.056529 5.739656 8.231570
51.769298 5.548597 39.627645
66.065785 9.299281 78.464374
2.652263 15.966925 71.560585
34.785086 17.000028 40.036404
92.978079 28.662001 28.965054
63.618801 8.600892 31.131791
23.436381 27.589713 59.451611
49.772132 23.511370 77.979750
27.885377 22.669863 56.198402
103.295461 7.145148 33.820898
38.596801 8.904125 75.586428
22.132397 29.965974 77.901692
22.560877 16.699508 99.243960
50.594163 10.146291 1.042508
77.309893 9.477271 68.514469
35.820661 4.976155 33.404071
76.638972 1.146631 14.786424
66.999885 3.522099 103.117570
96.066335 21.588502 89.167441
86.387355 2.379237 61.003854
64.702028 17.408676 43.934030
59.514615 6.088695 79.957119
48.690657 27.982238 86.949822
84.473069 4.295426 54.230118
26.170847 26.005384 62.641604
77.536596 1.883139 96.463716
12.880781 0.271971 47.886073
58.912282 29.720186 12.383571
24.611561 12.883179 100.548993
50.170389 23.752642 66.881944
26.598173 29.924518 28.263947
10.642705 0.849141 48.198775
62.439017 21.645339 51.613232
70.778203 5.931390 104.401035
90.036170 29.924469 37.865112
71.772801 23.069212 104.849213
83.233425 29.737602 86.963386
33.146299 27.603769 12.239566
10.002306 27.860083 70.700075
58.724274 28.815330 100.569496
46.331123 23.668561 106.416788
60.826846 6.883203 32.196391
109.105591 19.300605 59.464425
56.087214 27.408026 23.456954
83.165828 3.690450 44.140542
48.063056 7.803274 39.342031
7.059609 23.807709 75.240465
45.962666 19.176617 53.820156
57.409724 10.901370 109.335441
77.555225 8.268101 69.088505
25.415391 26.188672 60.267390
35.249199 6.994291 73.936288
22.562561 28.725063 87.520503
45.400310 12.203877 70.540651
45.230640 12.884537 45.255872
76.681288 0.721409 93.754002
97.223618 29.750328 60.148038
33.638484 0.045476 88.522016
44.756467 8.206986 30.535201
60.402307 23.413892 75.840794
45.062597 16.026898 49.320542
10.542456 3.169949 34.070144
109.286505 11.670689 49.552346
25.218532 7.115747 98.486028
65.445647 28.842514 99.463245
12.182669 29.326632 66.183106
13.740446 6.947289 87.650324
60.009262 3.481943 85.024861
35.478594 19.460947 71.694688
66.611858 22.723564 79.590306
28.824001 0.057526 25.488852
40.170025 0.063363 91.415401
3.448295 24.245169 50.788354
55.002947 24.999939 32.123322
50.422417 6.117701 66.273418
102.758979 3.764998 69.307618
62.268358 27.954764 8.030709
29.764842 15.783088 103.779759
42.707261 27.400646 8.245524
30.106977 10.004941 48.017883
38.761933 24.426226 103.956584
93.407891 0.085783 60.115555
49.382169 0.048799 14.515045
78.975551 29.912496 21.507724
7.830155 2.185459 47.643225
35.530348 29.842504 87.572302
30.073022 0.070023 24.820027
77.765093 21.282291 41.627068
19.049433 29.519213 60.310734
4.143702 7.034388 68.776898
100.682667 24.976654 78.025385
7.938670 22.875333 78.742930
101.785047 20.279637 81.962277
56.434869 29.032671 89.807122
41.779197 10.043074 2.542201
95.711469 1.743815 78.354413
45.262263 12.740824 48.337393
30.909825 1.118128 93.719034
40.257085 10.735715 2.739397
72.829579 13.341082 37.315595
45.434978 25.405362 82.607924
90.810464 29.477285 80.133935
94.176606 0.118955 68.552434
22.403790 0.427336 38.305042
103.595385 3.155909 62.143191
40.674659 29.891301 19.613524
76.123128 9.228463 70.479660
93.901248 29.972170 65.100976
48.713060 7.278783 42.650159
87.648620 1.076010 43.754587
24.284373 4.865486 95.715624
53.486567 5.120919 78.200713
108.756669 20.921337 55.683920
29.601348 28.617163 77.174449
28.541482 0.786857 19.056058
9.322724 26.164957 34.835542
100.148499 2.735289 72.774744
51.347805 27.151401 86.017987
53.130706 5.668998 106.645089
45.484574 10.562641 1.577422
16.129349 0.803805 77.107543
45.744384 1.626012 9.274529
40.416118 29.874239 90.188633
77.640085 29.646062 25.762047
13.795309 5.876451 86.392832
31.577791 2.265841 96.703982
8.958033 18.180888 25.606399
88.875740 0.064454 31.903310
9.124573 28.236194 44.978178
91.006674 0.436951 61.399352
107.309508 16.782683 38.537390
55.640691 23.062561 107.597421
102.049572 11.797881 27.333843
33.857644 29.986995 89.634179
107.968820 11.964409 41.655288
104.425841 4.990060 41.940468
8.677632 25.940716 35.687558
56.639478 0.571790 19.141865
61.469464 2.603581 24.129671
21.871255 2.529976 19.923191
50.513640 23.935189 45.279693
73.357688 16.870669 3.334378
93.735813 1.893844 28.004541
49.149055 23.025047 56.807470
67.065398 7.235560 106.377653
10.430951 28.285146 69.400477
4.881467 13.810498 32.559844
44.017315 24.201803 80.927008
60.052187 0.080044 14.184448
101.055188 23.968812 30.938143
32.300412 15.784889 65.620131
24.558358 22.487150 98.297412
45.680809 20.092245 77.372884
25.445096 1.250671 38.069269
50.180259 9.644281 108.712279
18.099650 1.240923 27.772558
55.830499 2.836700 6.336575
78.923463 0.264964 90.308852
10.266003 29.043496 48.197169
15.136329 17.383393 17.509628
15.096202 19.300367 91.801380
16.134367 27.116557 25.547937
61.663491 1.307982 21.749128
37.695438 10.091496 106.235388
69.647014 29.895516 93.661605
31.354131 10.806435 103.927193
45.214364 17.036357 37.988066
40.664957 6.898253 4.416340
69.560069 2.730663 101.288442
2.460096 20.237289 42.497222
29.381067 2.610660 14.015088
59.513855 6.087215 56.323249
102.950115 16.692385 28.403351
18.678907 17.694174 14.142760
19.335394 15.770668 96.789515
77.346795 25.043500 73.355460
57.583872 29.819387 13.117012
86.740624 24.275817 14.172858
5.681930 4.907167 68.207006
42.771406 0.059741 94.113939
28.085941 24.107245 62.999792
45.003992 14.836109 49.533261
83.509334 0.326556 87.274991
82.020691 25.271987 65.813623
19.696095 0.084301 71.088430
3.163826 6.258168 60.526605
14.509954 29.905339 47.131894
90.748000 1.374170 84.186247
38.568364 25.226688 103.167039
101.685996 28.338591 52.641768
62.818837 0.044625 95.092992
93.780629 28.000048 27.677545
9.121946 2.217692 68.354909
99.503616 0.788247 58.506637
91.302046 19.048098 95.485857
9.391080 21.199954 83.135167
67.259408 28.447777 86.055960
27.317326 29.957345 26.366331
96.808389 26.872058 29.260082
88.151636 1.269606 62.598164
25.617082 27.162785 93.797216
46.486675 20.244526 39.764701
100.661554 23.740220 29.910840
46.401244 9.901044 34.674146
8.089120 9.365220 28.583772
26.535789 3.695485 44.960539
4.878063 8.531159 73.677687
62.367159 10.234234 1.376520
5.296794 18.670823 32.649426
107.301039 9.643570 68.171761
47.247500 22.882321 29.272557
104.276613 26.676867 51.623423
34.137538 0.165856 86.619887
76.229295 28.905134 27.815327
67.529162 11.617021 33.228205
59.344588 6.029963 73.510994
102.948268 2.497245 50.421721
29.753648 18.602280 51.568839
18.855144 24.308923 18.072015
108.739124 11.048789 63.440851
60.895370 17.888946 109.327276
31.302453 19.099119 45.309688
49.668923 0.651339 98.871510
52.046351 24.628697 27.561431
30.119884 13.893634 58.108490
79.683524 0.045342 22.450925
3.838329 22.385079 68.808053
70.818631 0.303955 15.052493
86.879602 2.404285 54.374861
30.687875 2.152698 96.027858
74.340062 4.977967 33.544924
53.562243 25.995077 105.092354
6.731786 22.980433 76.042058
24.617075 23.952483 97.159605
88.212747 14.407943 98.732835
99.487740 12.042418 23.306629
67.970336 8.282230 106.711962
49.831737 23.550224 65.695789
9.231435 14.674699 24.651437
98.361071 23.493482 84.231336
6.620337 20.619949 78.667041
61.462102 4.558224 105.294546
95.586099 29.937088 49.047769
99.840856 16.095914 23.316641
71.804487 3.023143 100.955146
59.262668 3.037482 85.702752
47.110115 19.748838 108.563961
63.750697 10.173826 52.923610
107.726794 22.742004 52.105848
101.411418 2.333972 43.003541
28.021769 0.940648 91.244024
105.911420 4.992289 50.342044
50.766387 5.968858 34.820991
13.865177 27.764049 79.363590
104.508579 25.202463 42.981489
80.576630 20.450869 50.068383
75.073750 24.832127 34.463921
13.580871 19.262607 19.893326
50.611318 23.979483 79.780741
30.867422 6.576517 41.573834
64.932866 9.264455 78.496031
45.181186 13.148149 40.546329
86.097189 2.930762 53.859255
60.236243 28.732254 21.375455
86.854335 2.163200 90.495139
86.420838 1.632325 89.507458
46.737236 21.599495 107.735483
105.145587 25.968711 55.707285
19.154677 16.365507 13.447089
73.019303 27.915153 81.973465
100.862409 2.294081 41.251920
65.893749 20.419711 2.205383
74.778374 21.626676 37.258726
25.294211 25.311686 13.786294
41.752705 7.284504 78.716886
24.147689 27.387368 61.516274
22.066527 21.408550 12.828739
85.557646 26.188073 94.442440
64.041748 19.251874 73.360395
3.263261 9.630076 70.267475
39.846763 18.694106 34.502839
28.926913 28.268043 34.668897
14.320776 7.083445 88.546351
87.140476 29.900796 29.083325
49.856677 6.434714 78.547045
33.275184 2.501223 78.109759
86.491995 6.125246 13.620020
56.366026 8.523966 1.570648
107.647420 18.240290 69.524083
49.387124 6.759127 56.034607
42.739131 3.299624 26.875653
35.624777 29.976589 19.637447
33.448927 26.087484 34.253972
55.417948 24.984067 81.381078
70.506942 0.020695 17.734692
72.878899 0.834911 24.727259
38.528670 17.244355 35.982190
58.750756 3.619782 85.062685
97.716975 29.364760 43.975116
106.996203 8.225288 43.217277
38.855719 3.520914 101.887632
75.684375 19.272427 39.849189
77.781023 18.130568 66.141716
61.202763 1.226572 88.559695
64.773106 21.235119 107.673814
64.011735 24.858624 82.288152
101.763805 9.488424 81.835922
82.139383 7.529988 100.468068
72.589658 29.779167 21.739357
45.925763 19.100077 56.303695
62.562237 23.950775 106.389073
74.074817 12.970817 3.645992
104.259263 23.988468 71.354827
64.730215 20.498847 31.816114
1.205766 19.833350 49.241692
66.351370 27.681925 101.544112
22.197828 6.147976 14.615205
41.761109 28.925552 23.109155
45.654292 11.854519 1.178554
4.900010 4.734097 46.257091
75.579126 2.610899 31.114337
59.309191 23.987512 71.834522
13.781411 2.500386 79.945942
88.087236 13.093039 11.315732
54.998010 1.382552 8.821598
60.131143 6.422698 61.541602
100.837299 26.402299 74.129664
30.144279 18.660477 60.614297
11.382653 29.447182 50.738105
30.462745 22.599676 8.176515
8.860416 28.289851 63.099192
105.342445 6.405664 41.203255
8.734779 21.426940 81.878867
94.685579 16.788544 17.189721
44.373800 2.144842 85.538754
77.024400 21.268256 40.438717
13.197107 23.708121 23.834922
75.214919 19.545084 4.712651
26.725593 29.954867 82.979025
102.857952 2.585998 61.490048
99.266123 2.141025 72.654095
53.444502 5.128518 77.038457
27.660031 3.512424 13.593998
109.862533 15.305700 52.485583
16.976305 5.978689 19.681992
63.677115 20.058457 76.010334
23.130177 29.906755 81.216173
24.679730 28.140021 91.123664
64.605082 17.982573 1.206643
64.090824 29.922476 17.114263
77.497774 26.438844 75.360365
106.866059 6.990090 45.991701
19.055574 29.891267 67.908679
31.540005 13.212871 64.019799
22.571416 25.823749 16.583550
98.704009 19.503904 87.087028
102.240773 2.328875 46.907199
96.252001 27.632452 30.497700
84.537792 0.623273 87.713227
64.938913 16.093599 60.459347
48.714418 22.794483 30.933317
45.409734 17.820802 68.346837
57.944239 5.888156 3.268280
4.575193 15.353169 76.723998
25.474130 1.280821 71.868913
54.147782 5.092901 60.555781
11.544483 8.704588 86.294763
92.387274 22.437329 92.508140
71.883495 4.767542 103.003329
58.314857 11.467653 109.439130
69.412032 28.100185 10.018576
24.975918 11.820383 100.583882
30.126227 16.998364 58.643949
82.694818 6.189951 51.999487
11.715306 28.506065 38.353387
82.317519 26.687649 41.073343
64.043096 26.634556 6.397216
61.267185 22.768668 40.010178
34.154094 3.419802 77.286029
15.181543 6.703711 89.120500
85.353318 28.088537 42.695714
79.738973 20.323580 7.062579
18.326865 8.554042 93.891898
0.508794 18.398553 51.750466
42.279741 22.333408 3.529845
109.694047 13.599243 59.548070
40.210936 29.862400 93.900691
25.462616 24.541207 97.190709
65.705717 28.747838 22.657148
66.161438 4.927657 5.179723
52.576282 29.864286 96.527827
40.915905 0.079112 16.351413
24.054223 1.018743 70.643159
52.432983 28.428646 8.531213
48.689337 22.707133 57.672668
52.693968 5.272871 76.279361
17.783195 0.107480 73.068373
69.454203 29.134031 23.017277
56.831884 24.794777 36.789136
6.898466 2.867245 47.260656
10.409102 24.102165 28.599898
73.632613 29.900071 21.399976
81.167809 21.347242 51.131119
24.305331 1.553799 68.060676
105.559018 4.747922 49.420946
28.894691 8.442830 50.326571
53.731407 0.134154 96.572160
84.524983 18.471482 9.123956
64.409794 8.444239 2.409291
25.592828 26.210822 61.278120
55.720995 3.516807 5.402071
76.395156 18.532855 68.782586
83.720350 25.611329 48.656983
57.688588 7.041485 107.621877
90.270705 1.601472 24.529870
46.707105 20.576233 56.959340
97.703329 21.316721 87.267252
13.749546 7.263054 22.063570
32.774262 4.767615 36.269062
61.779172 7.649336 35.944494
17.991786 29.800308 62.383284
87.127108 3.908846 93.327146
31.786731 9.907099 66.490765
95.796989 20.880777 90.021204
36.401821 28.857268 96.671109
103.172199 16.232455 81.351720
39.749667 29.978730 17.648436
107.311651 18.365609 70.537401
79.454714 27.889471 33.740399
43.924195 24.486331 105.356056
61.402854 7.366960 40.824859
105.864832 5.733760 64.409349
103.612858 3.322295 63.673516
43.707226 22.062381 79.261246
61.694037 22.394454 63.904551
57.129525 5.231446 48.005961
34.984334 6.588031 35.984302
47.992547 2.277179 102.339940
58.934913 0.567729 11.273043
33.489813 0.246180 85.717578
28.337553 7.591192 50.830712
96.273068 29.710823 66.632838
17.467991 29.956159 41.789056
28.445463 21.606519 55.433508
99.092909 22.734388 25.960960
38.788214 28.661152 11.895020
100.138963 3.483169 34.551210
14.308184 25.475634 24.829659
