1.036974 6.518080 34.628864
13.332922 14.238344 29.387324
18.629972 32.230176 34.308187
2.886308 14.364770 34.030617
8.433004 21.748602 11.060069
4.789028 0.001879 21.699497
17.707145 26.240746 26.418146
29.337133 33.047066 31.394418
13.421470 31.558922 27.659999
4.916206 9.029666 28.732607
35.586452 14.600090 16.256913
16.614585 36.765732 23.260105
14.466455 11.486788 9.880321
12.699186 27.989297 23.634676
20.796513 17.224408 38.472904
35.110839 17.365398 2.503789
30.899465 38.738527 30.009210
26.844598 22.331884 32.889408
0.546455 10.055638 23.747538
14.922282 9.031760 15.956544
35.586452 38.038901 25.865921
21.060386 32.535114 8.374341
21.666456 32.069811 35.461785
0.546455 22.247971 34.912134
5.520354 16.581497 35.790416
6.490626 33.574611 13.131928
28.902228 18.613971 41.906934
28.378589 12.204342 27.416430
6.783450 8.544966 30.349684
14.822545 41.035685 16.242051
19.101383 17.927894 43.441695
21.666456 8.935441 20.109746
35.586452 6.145232 21.416563
32.039460 33.037885 7.114941
11.663351 28.216175 21.580679
21.802787 32.964537 25.035957
27.652707 21.025306 27.822623
29.026316 36.602618 21.436383
19.784088 8.847974 29.646856
13.957268 32.886183 24.441742
24.838966 16.378337 20.825107
14.466455 11.265842 13.882124
21.009435 23.763848 7.562129
20.552985 8.021313 31.116563
29.325575 7.644790 7.937194
26.873951 26.770413 18.052244
9.253580 28.164738 21.037434
5.186827 25.553414 7.925935
3.975582 5.107977 36.147048
12.427617 12.824567 27.470821
1.916781 18.579819 17.241873
19.879602 10.483614 34.556094
32.213395 17.664651 25.819356
4.723202 6.472268 10.957366
19.194233 5.539110 19.818921
16.989555 32.748661 31.853290
14.303276 18.844948 26.878763
20.402458 33.362163 41.221637
14.797303 19.960454 2.567425
35.586452 36.159924 25.243898
33.737071 14.073683 9.980121
27.719074 32.421556 17.969515
23.278717 18.339592 32.154820
7.746455 31.115685 11.932652
0.546455 34.048345 18.504998
0.546455 7.721449 19.700507
11.617560 14.668095 29.836943
17.578592 40.395537 17.314461
8.770147 11.354874 21.176723
14.513879 12.888184 10.132903
19.138875 8.451979 35.680532
4.244470 32.616274 2.803305
7.746455 27.904087 10.992864
2.489260 20.204221 16.345208
29.903537 15.644306 34.738141
21.666456 18.255475 37.754584
6.595012 18.915882 0.249097
23.116328 26.588732 17.845814
35.586452 16.007869 19.936070
12.575124 32.945760 19.788989
21.655707 5.276008 20.387952
7.186497 17.555552 41.855251
21.666456 34.820820 22.515151
1.765087 27.130069 18.488911
25.073696 32.167306 26.529329
18.747241 28.508297 6.680153
6.772697 34.157014 30.334927
32.789954 20.213703 27.604377
27.501606 16.486112 20.325032
0.546455 12.484996 18.087261
7.673067 8.377120 10.471682
21.237685 31.339394 39.726930
0.593862 18.527898 4.603955
6.038976 8.130674 18.265695
8.354560 29.457320 13.766151
11.531019 31.563695 27.652067
24.507855 23.329475 16.083129
28.386456 9.768018 31.597307
35.586452 20.554927 32.815358
28.386456 36.601494 24.799981
24.355368 28.012216 20.329729
28.386456 34.916951 26.800189
3.255019 32.479799 11.494228
7.746455 29.401575 7.767198
29.305086 17.208669 5.176295
23.824821 17.696566 25.862509
16.936901 32.765062 12.107105
30.700509 17.472436 41.956371
34.612683 32.950396 7.358696
6.632366 7.179508 32.048504
35.586452 12.560530 15.350177
2.682787 32.906705 41.283012
30.985118 8.232911 13.065243
35.586452 33.583131 21.395951
32.897739 22.915543 16.012153
35.586452 16.428771 9.375149
27.518707 28.431836 12.960479
35.559607 20.292604 39.157845
10.690378 14.635270 14.121881
7.746455 27.388365 33.956404
35.525302 24.202597 7.730916
0.546455 21.481274 12.073570
14.534923 20.694514 39.894531
5.818592 18.001814 0.294885
10.717273 17.050108 12.355336
18.257988 7.085128 7.763703
1.272936 40.518189 26.694353
14.100823 21.077010 27.836086
35.586452 27.936814 19.942180
14.466455 28.014063 9.981308
0.546455 30.051773 18.272917
21.666456 20.691419 6.301636
14.653270 16.491101 20.301883
10.926992 19.762895 16.504086
0.562703 37.964528 28.617701
5.512427 19.419419 43.062116
12.944023 12.515602 16.989414
18.707280 33.648626 2.968775
6.885261 17.235851 38.016655
32.078974 20.023022 1.740213
14.466455 21.951502 8.081552
0.546455 13.597629 28.541982
14.466455 14.549899 34.068346
35.552205 38.724749 27.761687
31.413158 32.473267 32.454301
4.452216 21.054215 40.043008
35.586452 32.189563 20.690953
22.232659 28.065527 20.577093
22.322785 20.475195 16.249467
17.362983 34.777904 29.997818
0.546455 28.673662 8.313037
8.601604 18.440528 17.354342
6.606432 17.193585 37.527155
21.631557 9.018519 33.387213
35.586452 16.529000 8.585144
28.895960 19.254484 1.927342
27.366651 12.420646 26.729493
17.746642 36.366465 14.288756
1.346639 12.569877 10.119006
4.587734 27.039066 25.540281
0.546455 33.275215 17.530472
33.864739 30.381483 39.442311
24.993289 18.731245 11.616007
5.140170 3.697072 20.103202
6.386146 13.910006 10.027275
2.810233 6.633435 19.455938
15.991070 17.271774 40.802746
34.535309 7.942996 18.469050
29.066879 23.390184 27.843929
35.586452 33.202232 29.912175
16.209190 32.220688 9.923017
7.740114 38.291618 16.828880
0.546455 29.652007 14.908464
28.386456 20.387514 8.245418
14.982848 41.504026 16.496082
18.398425 0.512913 21.337008
5.899461 21.537556 27.902914
0.546455 20.337515 36.005466
21.488464 19.617877 40.553112
20.892195 8.787633 8.393982
2.941843 33.651676 40.816623
0.546455 27.381601 10.701414
3.221262 16.704190 24.245930
0.546455 12.073295 25.849287
16.247491 37.550352 14.166300
19.354926 29.797869 38.831402
20.509425 5.947967 24.206311
28.386456 10.919429 19.527356
15.881786 41.207466 27.190849
24.273939 24.465767 27.522038
28.386456 27.868920 32.802681
4.740701 24.929793 36.038796
28.386456 30.118180 8.931231
9.831440 11.321637 22.091213
28.398515 31.821520 35.970543
28.058748 25.213844 27.175153
35.586452 25.814997 30.732303
35.586452 29.218867 12.781034
35.586452 30.936877 14.065843
19.260852 1.306352 23.004540
31.232179 0.523759 21.330414
17.361560 26.707366 7.749196
14.466455 9.040972 21.251046
21.041967 5.600899 24.117347
1.088902 11.177583 34.169366
15.800512 1.369966 20.893688
15.131817 17.349101 41.337236
13.218365 27.687937 12.488871
23.582960 22.423855 27.948526
0.579485 30.289072 37.435353
28.386456 12.143913 14.269333
35.586452 32.741316 22.140713
3.786075 33.485138 13.041333
19.248686 28.649465 37.387433
16.462350 16.344267 35.473141
33.698490 32.308528 33.000438
35.586452 9.119105 22.483330
22.687095 22.268533 32.892843
13.509050 33.164896 22.489221
14.466455 19.106941 8.059319
35.586452 17.546290 33.704059
17.660115 17.007515 7.203761
15.143366 22.161263 27.956000
35.586452 24.537725 34.271942
7.746455 25.527157 10.910403
25.690046 29.323066 30.274762
5.963118 17.539295 42.219758
35.267291 33.307541 5.881425
0.546455 23.961756 33.086092
29.989503 6.367682 10.794822
21.666456 18.841351 6.408214
6.697081 17.852415 26.030797
5.030456 32.219102 33.952978
3.638941 32.463867 32.485462
14.466455 31.815891 33.687990
32.710081 39.200045 13.853402
7.746455 30.951601 35.732839
33.150626 28.510049 37.248250
13.948786 20.943226 32.818107
23.647855 13.297389 15.692967
19.605363 7.525435 36.031368
0.920220 15.323630 9.410310
24.437426 27.293570 18.754453
7.191711 26.891793 18.190159
2.065819 17.442552 2.097285
14.663358 7.767936 9.781644
29.627965 41.028466 16.872101
23.582563 12.337067 26.544918
6.788490 0.710090 22.462072
18.311891 33.377220 5.925380
4.235622 8.134773 25.667274
21.654521 37.762455 14.965478
24.806388 13.091020 16.013207
28.417788 21.720854 5.690972
17.006798 43.159956 14.779185
35.497464 17.220433 38.543085
16.472596 28.051380 20.511450
8.119452 23.747005 16.154721
5.183200 11.648559 9.938974
0.546455 20.646941 11.293521
3.459148 43.252364 29.300941
28.476281 38.986702 14.999318
29.026350 16.905614 36.413438
34.200272 42.080146 13.883958
16.149246 24.267132 7.747778
3.844330 8.794253 26.844377
15.149122 42.100885 15.752554
28.386456 22.810963 8.044441
5.713388 27.746909 19.612350
7.016721 32.286676 34.679214
0.546455 15.773301 31.882417
35.586452 9.419860 18.569403
21.666456 17.066357 34.519344
32.642007 17.193007 39.876148
0.800264 20.106974 2.885547
7.341213 19.749780 41.656786
19.633302 6.604225 19.471609
13.805281 15.697568 30.712504
0.728607 8.429806 9.205767
33.244266 36.750888 23.200248
17.563207 8.005867 12.792765
10.354105 11.322702 21.796357
14.466455 22.026450 8.620268
15.960583 41.212296 13.795743
0.546455 19.185012 34.799722
0.546455 18.826686 36.166761
19.335638 4.836909 24.011259
14.466455 13.775755 10.790146
30.911096 40.971981 16.915041
24.036233 29.448656 30.168085
33.674916 9.438276 35.202016
22.767467 29.062427 30.496151
26.384256 27.779077 19.692403
35.586452 14.843837 31.752756
7.778103 17.985333 11.473495
12.462766 11.444577 20.330613
11.070263 26.120008 26.533864
0.546455 18.981764 30.180544
21.441404 31.394604 38.691163
6.702030 40.027783 26.385171
29.672186 7.138801 24.752459
15.610197 7.196962 36.131624
7.237017 17.093606 36.984741
9.958932 28.049846 20.504332
32.745204 0.189504 22.393758
35.064420 10.301491 9.251615
21.128027 18.769030 42.004834
22.429037 12.696171 16.669453
25.782919 23.791263 16.167900
35.548562 38.687241 15.822435
24.361454 31.529692 16.218297
15.091039 8.631052 13.737283
26.989149 16.703066 12.547842
13.508232 16.732397 12.531572
33.839182 33.760831 30.623527
28.401200 38.619112 17.216936
34.387204 34.912301 13.991528
1.957983 2.340691 20.494096
31.548145 28.125983 23.133847
33.511633 11.153403 34.178682
15.608893 10.748100 34.394923
16.724054 33.521172 2.782502
21.666456 21.518628 38.013279
7.724261 21.675327 27.914640
27.920731 28.061434 20.558103
12.271517 26.172401 17.447695
35.586452 33.888677 19.942581
22.551131 11.417452 23.340416
3.425874 1.003654 21.073092
16.235461 17.205552 38.805888
32.485567 9.049379 15.545294
4.614349 24.627053 27.449132
16.287734 17.199840 37.566970
0.605173 19.903942 4.217455
18.923727 31.421325 3.592083
34.995878 17.187438 4.582661
7.642430 8.704943 9.758056
7.746455 9.294977 25.970100
7.746455 28.603386 11.981914
14.996330 41.489449 15.432413
14.466455 16.853302 32.612709
6.384117 5.842683 34.011380
8.028052 25.051896 11.317432
1.670036 33.333887 40.866173
7.746455 22.629086 34.230640
7.746455 20.831622 5.957259
28.386456 29.257540 36.198198
14.184488 21.242684 16.070296
0.546455 12.346851 31.290664
4.008222 42.597522 28.481682
7.711408 32.446555 32.542855
20.125952 28.463193 6.719460
35.586452 18.578853 8.987477
1.008878 38.070371 18.708343
9.756530 32.752220 18.944570
17.423830 8.467262 26.161537
6.325661 6.468166 10.950991
35.586452 11.178780 30.273129
7.723761 19.033144 5.056880
1.247086 8.742631 17.195028
32.935022 5.424897 9.046022
28.386456 21.114215 7.427044
31.441745 32.585246 11.739592
18.894441 21.043608 3.855184
29.909131 17.225659 5.479974
30.233080 29.418478 38.383340
31.189594 6.371387 24.351516
29.479516 8.747307 17.184834
28.430135 17.205342 37.601988
14.466455 34.015139 18.466193
14.918187 19.769947 16.500147
10.889420 21.457827 11.075834
35.586452 25.253386 9.718529
32.017086 16.448026 23.438783
21.666456 32.089493 15.873780
0.546455 28.212132 20.933773
7.746455 33.441706 28.227340
28.386456 9.248093 28.312269
32.770016 16.713349 19.704571
28.500982 17.563585 25.682707
27.454388 14.501052 14.254584
28.024166 24.419941 32.719261
32.415038 5.868725 9.961991
0.546455 35.944312 23.618577
23.736821 19.426478 27.248530
20.427438 10.447861 34.579329
28.796623 14.250813 9.929091
0.546455 34.666406 20.987265
3.294792 17.528710 18.277433
33.803571 33.605232 2.831836
16.900016 5.411094 19.838380
10.120973 31.561499 27.655716
4.586387 33.373225 5.943030
6.534370 9.057375 28.239209
3.351586 25.099503 36.022881
0.546455 32.696844 17.880952
21.084859 5.045619 24.035994
32.988755 25.151180 27.212212
35.373080 8.846803 8.477884
19.873550 33.414575 41.206934
21.378771 22.382878 27.952014
4.763408 27.782099 19.699924
31.478747 16.560495 23.806030
14.466455 14.395872 32.516129
32.841526 33.579041 13.136414
21.463465 18.724055 3.331499
14.500270 20.486403 39.325136
28.411212 23.456064 27.826775
19.213730 17.732890 18.045439
2.100007 9.036725 15.319964
20.996066 26.113935 36.039433
5.286416 22.546555 37.167648
7.746455 11.176925 33.614011
0.546455 32.152597 30.390025
32.815253 32.839347 7.649043
21.503395 39.746033 28.479583
7.148118 24.849495 36.046326
21.666456 13.802810 11.640919
18.485822 8.955713 35.449990
35.350822 32.912535 37.841959
35.586452 11.034332 28.233325
4.231661 24.786850 7.874677
8.892893 26.629004 31.967045
26.041789 31.266103 28.139638
35.586452 15.429178 27.934978
35.586452 32.737687 31.650656
3.872511 39.890398 17.621820
0.646414 9.492434 35.036426
10.970293 25.165003 32.484352
32.407610 18.062343 0.139099
18.769809 7.654724 7.940668
5.993057 32.604234 8.197578
7.217605 27.742682 24.345978
17.062622 33.566757 39.037026
21.666456 28.770969 33.695447
14.937628 34.252724 30.265207
19.406474 22.069714 15.975072
35.586452 15.194676 19.486669
19.679333 43.203947 14.489904
18.214569 35.320994 14.120388
32.533338 0.000691 21.866357
24.329628 26.562472 17.815977
34.103970 32.380224 40.984154
21.826447 12.926165 15.911131
33.740988 5.333124 7.512004
28.386456 8.817045 20.240202
30.727427 37.676391 19.094692
35.586452 34.251395 29.357425
35.095669 26.995835 25.598734
16.489119 27.951685 23.757493
5.513874 34.514042 30.131022
0.546455 33.212829 16.153043
7.503556 7.220503 10.107662
20.607833 0.489790 22.025050
35.062202 6.599122 11.133116
20.108763 33.607021 4.490399
31.958451 21.504201 5.268846
35.586452 11.717670 14.685162
4.982964 11.035764 34.229186
7.746455 8.694950 31.061561
20.869967 38.175897 14.021370
35.586452 12.818889 21.466346
35.586452 14.818185 13.413053
0.735246 7.110936 10.713004
28.695201 36.368095 29.638151
20.582044 41.479916 13.815605
35.586452 17.612933 32.740636
1.731573 38.025548 29.870150
27.085802 33.086930 20.653119
35.586452 28.570996 14.265537
1.116294 36.726522 20.824874
2.506202 39.302626 25.990192
21.575536 39.550536 26.115197
16.099974 37.166374 19.784956
5.779229 17.104772 18.915194
31.736577 17.423359 2.198432
0.546455 9.629309 13.583895
7.840356 29.853679 13.734555
35.586452 35.752610 14.703059
0.968566 37.140968 24.102041
32.868934 36.574587 21.781537
3.913139 27.461976 19.027960
0.546455 12.134575 22.868814
15.028964 37.427721 29.735946
35.586452 19.851130 15.014817
0.879641 18.047462 41.042180
33.121873 37.065022 19.944047
26.195320 20.209041 27.602270
1.175435 32.670872 35.885525
4.958642 20.017179 1.730401
5.638013 30.011246 4.864987
29.732657 28.498292 37.238004
3.487160 28.189574 36.968962
26.946044 30.146058 29.509804
34.075075 25.053968 7.899725
34.415250 32.094174 3.123291
5.073084 25.357808 35.998659
16.857751 33.567669 13.124900
32.634171 34.973631 29.916011
14.466455 10.850861 10.987730
35.539460 27.630192 7.344229
12.958356 16.996592 31.541855
14.466455 19.864917 6.533975
14.481440 30.705912 36.759565
8.945289 16.584933 20.024148
15.247710 16.229591 35.319770
5.484655 17.843771 43.225154
10.991125 12.422971 17.192249
0.546455 34.129241 28.163290
12.798919 32.745271 18.921493
15.557862 40.896763 13.779568
30.210925 7.993667 25.511759
15.639475 4.012985 23.886202
16.816334 17.585169 18.213284
18.814436 33.453074 5.590381
28.386456 9.124100 30.764868
22.520971 17.440559 25.516365
17.318777 33.829001 13.353008
10.146227 16.945727 19.173498
35.586452 11.030998 25.555495
27.305605 31.402054 27.920716
0.546455 14.945853 15.863873
7.067700 23.293710 36.601004
20.250364 8.680358 30.066229
16.752037 36.599014 29.642470
14.390271 23.932813 16.217912
35.456207 39.290053 28.968502
35.586452 15.060804 26.650633
14.466455 28.963891 8.089877
2.248782 22.758936 15.985301
29.321744 21.777117 5.792773
2.686919 30.451243 4.420061
0.546455 21.129966 37.876657
7.746455 8.149735 25.331296
32.318085 33.531662 5.110295
15.225610 6.583387 32.815217
13.072552 17.206047 18.750712
28.669569 5.383614 24.084319
19.243956 41.639014 16.379777
14.403419 29.829626 30.281158
10.190378 28.120589 23.175971
34.190023 17.225048 3.561284
16.358000 5.270941 35.256932
0.546455 16.432979 33.139613
35.586452 17.651878 27.903112
11.845204 17.364175 31.740395
18.744971 34.328214 30.224831
28.386456 31.779622 13.301319
0.546455 18.466386 30.108612
3.832044 18.967512 16.948414
20.861341 22.865291 27.910954
35.586452 14.001692 25.631233
6.403938 22.243221 27.962975
28.386456 32.938807 26.430506
3.319168 16.220318 8.619508
14.466455 9.541948 27.250854
14.466455 33.823430 28.928662
22.112069 16.981441 12.377686
1.473740 38.917262 18.136197
23.419967 16.922009 19.212019
2.712477 5.183553 35.490067
21.654941 19.852779 38.752167
6.719355 16.283322 22.446563
18.764326 40.086628 13.783570
21.616718 19.759397 4.333077
35.586452 27.083060 32.423727
14.466455 9.187636 25.094406
5.632405 7.795048 12.553710
28.386456 19.806599 9.405779
21.666456 29.994675 31.961698
7.689716 31.431759 37.313705
35.586452 35.697116 29.464436
21.666456 34.191800 24.588766
30.014751 32.693266 7.989205
14.466455 32.143642 9.086364
5.064581 17.968141 26.141710
25.428196 26.911441 18.212483
2.966810 20.706670 3.023978
31.878887 33.644178 39.966411
14.661761 21.516683 27.901137
4.958790 14.406148 34.042538
3.438102 18.051315 0.167479
19.146789 3.962408 20.049822
0.546455 21.256941 13.674479
13.476329 32.604268 25.451576
0.716523 30.881780 38.571582
34.995229 27.774950 19.682134
0.546455 12.997170 30.492809
1.989612 36.709517 20.893444
16.908296 15.985796 35.061331
14.186883 11.298999 20.819592
0.546455 35.285962 14.893093
0.546455 26.710135 17.147299
14.506869 4.659854 21.370624
28.498554 37.814072 29.820368
14.466455 12.428571 31.485439
29.798665 26.964177 18.272402
10.180462 25.535883 32.383538
28.386456 19.154723 38.174759
14.466455 33.952953 30.291717
14.466455 18.994879 8.582323
14.466455 10.547537 18.323785
35.586452 17.980183 12.315905
34.249064 19.547765 16.624265
15.791041 33.212203 12.764973
19.691998 40.923876 26.975266
7.746455 11.608739 30.914728
35.586452 13.034102 16.862348
16.907208 22.178018 6.367862
21.491507 8.017666 34.182287
14.632437 8.301287 30.754092
21.080746 19.223103 1.697680
27.479091 27.721922 24.387153
31.945785 23.894293 7.620012
14.466455 10.285288 30.391510
5.846275 5.853845 24.174034
0.546455 35.712541 19.872720
21.366369 19.591704 2.755384
31.723431 21.979767 6.116060
21.666456 34.959283 14.152682
0.584629 4.736832 23.174080
8.253284 16.254968 22.225142
23.497809 31.231559 15.738030
28.386456 26.491158 35.354285
17.482154 17.186575 39.152959
14.024501 11.750013 18.868743
4.244982 8.406795 30.578991
14.466455 34.084789 19.290542
14.466455 36.134873 28.832213
1.487238 16.502004 20.251295
12.096663 27.458284 12.361481
29.208004 32.897669 36.421374
15.513667 42.787640 14.828038
21.666456 9.823005 21.425707
14.466455 11.188103 12.324901
28.386456 36.930088 16.168762
25.676699 12.462387 26.821672
7.746455 30.313105 9.141826
17.500033 7.485709 31.702103
2.005511 2.372134 23.444693
28.386456 32.646461 14.649658
33.067555 21.745765 38.190831
34.061104 13.366012 10.111311
2.789384 5.185172 8.441643
16.545488 40.950489 30.146612
7.746455 11.766013 33.467718
28.386456 27.400356 8.211448
5.828193 28.726759 6.444633
21.469026 8.849045 14.282700
7.746455 12.106513 31.683891
17.364865 32.590700 2.817364
35.586452 24.098841 29.931199
21.666456 26.007531 9.290752
13.439701 14.412499 14.350640
20.047736 42.518102 13.952385
26.126988 18.600511 11.668096
14.466455 11.110434 28.635872
35.586452 12.992463 17.389939
30.141204 38.701724 30.002890
29.972127 14.478407 34.065962
31.947867 32.268590 10.649493
18.674771 21.149240 27.854893
7.746455 35.390340 22.210604
7.271872 6.314405 24.331975
35.568893 5.027654 23.958750
5.115656 6.272971 36.360924
0.668478 8.933656 9.305097
29.286569 9.304229 8.648792
7.746455 15.692984 10.363208
34.346860 41.597450 16.415590
30.616320 33.455536 38.349293
28.386456 36.692771 17.098175
28.425206 28.014847 36.821010
5.655619 8.829590 29.692853
32.338379 8.875712 16.795125
7.746455 11.140918 12.497980
35.586452 29.745088 30.753050
2.213636 33.653535 3.197325
34.022370 32.590319 2.817581
17.684739 17.530769 25.638337
0.546455 30.990653 17.248033
35.586452 32.216469 19.989243
4.560294 26.732212 25.947114
3.922074 27.087755 18.420188
13.250564 27.740306 19.595918
14.466455 20.864428 36.794605
7.111909 33.554109 4.667330
30.846325 42.665478 15.370415
35.586452 11.408146 15.836649
25.102568 16.844325 19.378622
19.610352 33.613657 2.836780
7.746455 29.176854 34.857792
16.124632 42.499255 15.553326
19.351949 30.198005 4.669865
5.487986 8.543604 17.628884
7.746455 10.806420 10.534891
7.677809 37.917117 29.844631
6.977950 23.126901 7.216655
9.365444 27.968347 23.703086
6.825935 33.642303 39.919219
35.290705 27.016145 36.289347
7.746455 31.533687 31.398877
14.466455 27.566604 9.010753
2.350290 7.307064 19.045305
7.746455 16.204131 9.426005
5.717428 6.475609 24.387257
21.595453 28.103822 23.260712
4.737031 32.627355 32.101219
20.367442 30.595319 39.640037
23.087857 26.232131 17.495924
28.386456 11.587343 12.900728
13.637487 27.390563 12.323915
28.386456 28.942620 32.391669
29.730038 21.681797 38.306572
35.350975 21.803833 5.841112
8.353600 24.253183 16.331107
15.106820 5.845764 19.755614
0.546455 8.761008 23.642832
5.987798 32.875478 7.564995
6.339718 22.412182 37.290778
0.837694 28.188379 22.646596
18.305231 14.585322 9.810247
17.846040 42.516167 15.534716
1.798022 21.379459 39.027323
35.586452 35.726483 28.767920
28.891785 33.386944 5.882437
21.666456 20.528513 34.300410
26.528318 17.651353 25.801376
32.302422 31.545609 3.502588
7.658862 20.430638 40.011754
7.746455 13.263443 32.540585
21.484246 19.438209 3.368109
6.618855 42.994524 29.080835
11.284087 16.626570 24.021788
27.208807 25.463247 27.006585
3.982762 20.142749 41.985398
0.546455 24.086784 8.688067
28.683625 2.893532 20.621657
9.030232 11.961639 18.285420
7.746455 9.003920 17.221209
13.744576 17.332779 18.544888
15.653342 25.553712 36.000961
13.041668 20.086426 11.253053
4.216724 30.840241 39.865448
9.913216 23.950817 16.224274
21.666456 28.619276 32.017762
33.238733 15.900362 34.979034
1.113071 37.815002 24.987289
0.812481 20.597495 2.782459
18.131419 15.749969 9.092713
28.386456 15.619388 34.168777
0.605574 18.645231 39.499448
22.220969 24.935449 16.616388
1.047560 17.427367 41.615724
28.416311 26.441414 36.115231
28.386456 29.574454 9.172070
7.746455 29.627141 10.990733
34.444526 43.050655 29.018103
1.549582 37.993687 18.770282
2.869105 13.632890 33.847321
29.767447 33.504441 5.277388
21.665741 38.540323 18.106479
29.021457 41.841612 15.459842
15.804158 33.484886 38.529462
28.462192 23.535476 7.460792
0.546455 35.698472 18.928815
28.436269 31.060157 6.482153
35.586452 12.143162 16.447025
1.918522 6.780766 24.549984
9.829314 16.401856 20.715981
1.989038 32.486170 11.515352
0.546455 35.805005 26.510999
34.018116 17.736569 42.899533
26.602974 32.823842 19.235114
3.018269 18.554082 0.024250
12.014925 33.064459 20.441163
15.858781 19.514963 0.988218
15.455168 21.500170 38.669525
13.045171 16.528033 23.700031
11.426231 27.635896 19.336085
28.386456 11.549984 27.896277
20.074785 29.448774 38.419080
20.896509 8.755460 17.167063
1.075158 40.883847 13.827468
1.810397 4.918230 24.020897
29.234985 2.963972 23.634465
7.105072 41.707177 28.896176
5.797573 7.026380 11.694255
9.898031 17.748165 25.930881
18.723471 23.842596 36.329803
7.746455 25.654573 9.818621
3.283844 32.217447 10.026977
28.389640 30.447416 36.601396
23.945634 32.455376 18.063136
15.577088 31.276101 40.221595
21.666456 8.265523 19.257197
32.228210 26.732745 25.946603
35.586452 13.668552 28.410517
21.140172 41.551016 27.471279
6.064236 33.139911 12.663310
33.805714 32.904754 7.485860
8.789539 31.671784 27.472423
32.133395 37.737571 19.026233
31.606674 21.764603 38.156746
31.746708 7.326878 12.055581
33.701432 36.670490 21.050807
5.712269 3.799358 23.847562
14.466455 27.964604 8.563515
4.065317 38.735145 30.008618
3.498144 32.770510 7.809388
14.466455 28.202963 6.991090
6.392528 13.154895 33.790445
3.245441 24.345331 36.158667
0.644740 21.940418 37.860793
14.466455 13.728506 11.288622
6.082215 39.134984 18.021222
35.586452 27.772113 8.755995
2.371163 29.648730 38.655249
21.546196 7.644657 25.140615
10.324377 23.640909 16.136529
15.483779 0.567723 22.579701
23.100779 26.025310 26.624624
29.137429 12.482289 10.115182
4.825582 18.925146 16.972081
6.590239 20.841370 3.330172
11.491270 27.288436 25.203110
30.066314 32.420126 32.630471
15.068655 3.456262 20.162107
18.021740 25.247264 7.917851
30.673284 22.991708 27.900194
31.891694 25.717496 36.012208
24.864231 27.041335 18.360071
30.397548 23.626426 36.425725
35.440744 18.205262 40.056485
17.963687 17.226831 5.529452
21.666456 15.415811 9.447374
7.746455 29.750750 34.735629
21.687691 18.377966 17.404858
10.528478 31.715065 27.400489
2.958277 33.184830 12.726618
30.702109 14.835590 34.235237
4.408837 33.510206 13.066715
34.128217 38.511944 29.970299
33.818350 7.647459 25.143267
20.180285 36.907844 20.305042
35.586452 27.302989 10.622212
7.746455 18.893793 5.645924
10.635192 29.732380 13.999789
21.666456 36.085580 19.370125
4.794044 26.853304 18.146426
29.043192 30.963107 39.965843
25.509341 13.406707 15.537397
7.746455 36.818354 29.601454
23.866540 11.605149 24.381362
22.196189 32.226415 26.408567
16.308880 27.873449 7.193487
28.386456 8.719598 26.659328
0.546455 30.045785 19.940386
23.952513 11.813586 25.209750
15.674760 29.920495 4.959802
20.021288 9.338606 35.258976
21.298818 40.672446 28.909198
22.900783 16.993310 19.096219
21.666456 37.571960 16.867111
31.109455 6.921393 32.358879
33.995742 16.955389 7.362171
0.928050 35.801215 29.698453
16.538195 23.851984 7.601238
2.320596 1.886679 20.666085
26.331516 11.433610 20.434058
16.774540 43.255766 29.291382
20.568172 8.111872 8.103669
31.306891 4.583359 23.981238
21.666456 7.441335 24.364730
3.763964 40.554698 30.151772
21.040549 8.008428 12.795675
3.199492 43.167481 14.387453
33.377722 16.615854 35.855455
21.187996 20.985879 27.812357
20.131613 20.903187 3.474614
31.736991 32.271637 34.602354
0.546455 25.439918 33.070725
9.982509 13.937151 14.866267
16.696630 18.028036 17.710089
7.746455 11.098909 30.616684
21.006832 1.950298 23.284896
28.384846 12.702565 15.536356
2.452841 8.999796 14.922985
7.094675 32.219000 33.949699
7.628546 31.931273 37.531851
10.866871 11.322210 21.814505
15.977689 17.223376 3.586830
14.466455 17.658204 34.066834
27.741699 16.659585 24.129591
28.386456 27.737602 35.559665
3.330986 19.016677 26.994831
19.740649 7.183014 11.882609
0.546455 7.504942 20.311209
17.302557 29.656606 5.262326
35.586452 28.684269 36.405420
5.040156 5.033048 35.932945
20.862397 17.215966 3.700000
0.546455 32.620772 27.828082
20.451753 5.247212 8.611982
14.466455 22.425801 9.089364
16.527386 26.216806 26.441090
31.270312 12.345316 10.098541
33.006576 29.233123 38.136055
14.466455 8.198752 21.381611
14.466455 13.870140 30.006446
32.710959 39.651904 17.760566
26.947245 12.159520 17.774049
0.552843 38.411304 17.191358
10.800866 16.579375 23.867680
12.832399 21.135585 16.088660
35.292888 17.192346 39.039098
35.586452 36.843038 24.646598
24.961554 23.728137 11.136770
34.166808 9.023607 27.893680
35.040591 33.326958 4.849149
30.319804 0.542469 21.319068
4.500266 5.817914 9.871280
33.071140 10.945071 9.651980
29.755564 35.901097 14.242843
29.079981 8.790823 14.137028
19.269508 27.298873 36.406457
13.366262 33.054017 23.584205
35.586452 9.865729 14.902160
0.546455 21.175881 10.064120
14.908828 8.006876 18.401059
1.598969 34.832509 29.970252
7.085291 41.551440 14.427765
30.861093 27.950816 36.781331
21.387765 32.920300 36.484335
5.043688 9.041189 15.399462
18.098152 39.033983 30.055273
27.152440 20.886069 27.786369
28.386456 19.579080 37.264044
32.520810 13.222022 10.128444
3.950117 31.514669 3.524870
35.586452 11.320804 23.259901
0.546455 18.283768 33.888443
14.466455 20.032380 35.798386
18.790134 16.693696 24.225114
15.447886 21.127423 16.090059
30.556410 35.286863 14.109627
23.383063 32.580413 18.409265
5.548586 36.847506 29.647117
14.466455 16.463748 10.855803
21.557577 4.002953 23.831516
12.148237 23.261718 11.087883
21.165073 17.206341 5.134920
35.586452 20.948064 30.404086
35.582776 5.486410 22.939025
28.400272 9.894647 33.664987
1.726119 25.510535 35.997996
21.666456 36.817354 16.523796
16.307581 20.402356 41.523436
1.085379 5.845161 9.919928
31.705284 24.918754 16.607062
21.666456 15.772293 12.302530
9.942841 13.277214 28.205170
12.352610 29.463401 30.155560
28.386456 33.896249 16.688673
34.474377 32.710669 35.978162
0.546455 29.592220 20.205090
1.548731 17.729178 25.906603
20.252981 26.305886 36.083407
30.547664 8.520990 17.678181
12.230224 20.889979 11.120644
22.133833 29.834460 29.850402
16.790258 32.605672 35.732973
35.586452 20.192099 6.097837
17.060542 39.311376 25.994601
35.586452 15.100968 16.678132
7.639048 39.838544 16.978751
9.695622 21.512540 11.072868
35.559172 38.134297 15.076221
32.291075 20.992381 40.210527
28.936354 8.948406 14.691179
1.811383 15.444763 9.326612
28.386456 10.239701 31.403124
35.586452 30.308873 10.866755
29.616041 37.019289 20.045199
5.823994 26.282691 7.848914
14.466455 27.403483 33.781073
28.386456 9.765749 17.593274
7.048180 21.522025 38.616615
21.666456 25.861480 8.584185
28.386456 33.333042 14.277077
0.684905 21.181860 4.261316
20.217042 16.810923 36.230177
2.904894 7.251952 24.839283
35.586452 20.656740 9.303078
19.733712 22.132033 27.953512
29.797710 11.259290 9.788991
14.466455 29.866527 10.719835
28.386456 9.245943 13.262581
28.386456 30.939194 10.955538
1.022586 17.951387 17.797179
18.461659 7.571523 18.842378
1.462345 35.456361 14.163069
26.999900 11.337162 21.343791
16.475295 21.820579 38.055464
0.546455 33.312934 25.088564
22.163680 24.774208 27.382614
19.180673 5.454500 9.118315
27.567847 17.639151 18.151947
28.048374 21.949947 32.938781
7.746455 12.111838 29.147904
11.483901 33.167637 21.538824
7.673749 38.753979 29.169761
20.707299 42.736226 15.289798
35.586452 21.061217 33.767219
5.011202 10.858133 9.599003
6.885954 25.658656 7.918708
3.011795 26.352983 26.310575
21.233908 16.225213 8.612961
6.745789 19.243341 0.637205
27.994502 30.740379 15.034959
3.365331 28.215830 22.432222
18.498828 26.903324 18.203260
33.540147 33.085071 36.943411
18.860255 19.837985 42.473628
32.378467 5.007895 7.900838
35.586452 15.417069 27.365903
18.559799 15.429265 9.337321
35.586452 29.585968 35.951583
13.295733 22.902858 11.068427
14.799573 31.337904 4.671630
4.647373 37.103544 24.043298
20.028127 34.539610 30.118114
3.179840 16.537367 20.142520
0.546455 30.590859 9.560135
33.974031 16.700258 36.017592
35.586452 36.326419 15.122508
9.895224 32.099574 26.678907
29.565645 18.019942 43.601644
12.512461 25.291961 32.449842
28.386456 16.719986 9.164169
33.824373 28.636859 6.552827
32.463266 10.190259 34.748185
21.666456 26.992497 34.632245
3.001074 14.801268 9.707906
33.248378 8.648097 26.525774
19.782429 27.937776 20.087340
15.372507 6.827869 19.351621
10.345825 26.885337 25.748138
4.878323 18.065764 17.667222
24.335478 13.193039 15.843651
35.586452 21.583629 37.411344
34.374024 24.284285 16.342096
16.850334 36.955940 20.192902
10.849606 19.427724 27.249093
35.586353 38.202220 26.926753
34.981286 36.755818 20.706747
14.466455 12.793047 29.655821
3.952134 23.787835 36.354102
10.338109 30.024161 14.284846
0.830894 19.706551 27.375131
28.386456 28.440160 37.104838
2.448001 19.505224 42.951242
1.378027 20.556132 41.224757
7.838132 31.394171 28.437725
2.383366 17.472005 25.558881
14.466455 15.110107 31.904793
10.863880 20.603513 16.204129
35.548258 20.994871 4.454722
28.386456 22.384064 10.239520
13.206963 11.364287 22.838939
7.385894 33.379586 38.011943
7.746455 23.300881 8.565152
6.329775 5.121588 8.254514
18.693144 9.551922 8.789808
29.360279 26.234338 26.424287
14.336165 15.463258 30.820199
14.466455 21.441363 8.751339
26.414714 33.126513 21.026489
13.919828 19.815219 16.482652
5.905038 43.048833 14.067093
35.586452 26.441557 29.498426
3.008829 33.063127 31.371782
31.757770 17.199609 3.949885
21.666456 32.696295 12.901080
34.915183 29.702456 5.208170
1.443240 39.535117 30.110198
28.860477 37.253229 24.278256
5.249340 42.727570 28.624785
6.012155 9.046491 28.433009
14.288913 31.690923 16.148884
13.856054 27.280178 18.732702
3.921939 23.181794 27.884015
0.605880 23.901320 7.623130
21.555058 32.044090 6.521508
1.842908 6.124793 24.266951
30.581193 33.252081 6.427430
35.586452 19.916607 30.124874
35.586452 21.687478 32.523447
35.549507 31.568357 36.801571
33.350086 16.483939 8.266937
16.815334 18.887563 43.710093
23.254661 13.304678 28.244292
25.777339 23.268657 32.838618
28.386456 10.711400 32.121055
15.940530 8.794300 35.529606
33.425021 17.686957 1.182430
9.833879 17.022876 31.556434
17.713421 8.459518 30.491492
29.133235 18.891599 42.672213
35.586452 22.014839 14.405017
3.180267 32.453932 8.581949
7.746455 27.539976 8.011062
21.666456 11.842650 13.194486
28.396026 29.544796 37.308043
21.666456 15.705014 31.849518
7.746455 29.272380 33.769020
7.746455 27.174728 33.298909
25.069958 28.149556 22.949770
27.812095 15.379034 13.475524
28.386456 36.355270 28.600395
3.593048 40.906688 16.964676
26.221370 12.484997 17.055273
34.026417 33.651150 40.142602
19.406046 9.038364 15.349158
28.386456 5.744501 19.911214
28.397958 30.026749 6.891872
18.077706 17.271107 25.287250
17.886284 21.780541 27.923595
21.165573 8.326014 30.713055
4.714675 32.377966 40.982756
5.221623 2.022747 20.614539
31.192261 32.779018 12.135629
14.466455 6.521918 22.599961
1.406615 30.731321 39.765793
29.451321 38.115529 18.671868
21.666456 22.267243 37.020198
16.941479 17.862692 43.273901
14.466455 36.413813 17.085788
14.466455 9.763394 25.630703
21.666456 25.585967 34.841380
35.586452 9.456373 26.216860
32.005313 16.710606 7.889407
35.586452 38.180480 17.621849
14.466455 26.816710 10.293102
22.981265 11.500054 23.903912
0.546455 11.164882 15.054146
34.660807 42.480107 29.106041
31.407141 18.384556 17.399537
13.968047 32.698749 18.767027
17.801846 16.789891 7.737100
17.813116 17.189570 4.103236
0.546455 11.132488 32.798927
16.343356 32.470716 8.539027
14.464638 12.555648 28.141266
32.968634 40.599159 26.748446
35.586452 7.504034 20.255719
35.586452 20.295607 30.843800
6.363074 18.335078 17.439488
13.484978 28.361455 31.013012
28.386456 11.856503 32.427982
16.417997 42.211100 15.850129
31.048773 19.771087 16.499510
15.285332 38.617269 29.988383
17.716385 19.248468 0.643857
2.983467 32.276604 34.627740
19.142778 33.657013 40.568207
18.919452 13.961108 33.914322
21.666456 29.582509 8.359408
34.096131 32.221621 9.893103
14.670676 40.513287 16.833000
32.653539 4.223325 20.002605
34.817168 21.080232 27.836925
5.076515 23.902684 16.207267
35.586452 14.591678 27.719838
21.091228 33.110640 39.308702
28.386456 30.908754 32.604984
0.546455 30.316736 10.985877
2.748969 22.669703 27.927601
28.338412 11.249722 24.482972
10.528477 20.222944 16.338593
34.476175 8.697950 17.292428
32.361074 21.997061 27.942024
14.466455 24.070679 7.892496
20.934774 18.832651 42.616456
17.940996 43.188294 29.182974
16.019973 16.296071 21.229205
18.244356 22.752936 6.948340
18.225519 6.697323 32.659854
20.704993 24.375962 27.562633
35.586452 22.498823 31.912404
4.670252 39.115267 13.862693
3.411842 5.086040 35.777008
10.525461 27.219647 12.229107
7.746455 8.666508 20.529071
19.871406 23.404928 16.096067
5.359969 27.197944 25.325465
14.466455 9.220069 27.785325
2.539033 8.245321 30.844992
30.616833 6.089304 10.355825
16.706575 23.006748 16.027792
35.586452 27.897684 12.945742
14.905271 16.415738 23.333352
35.586452 33.680568 25.935727
35.586452 26.601185 33.483604
15.062314 5.821435 9.626538
15.490832 39.199823 25.938350
33.923332 33.575400 39.122747
14.497326 7.909209 12.119614
21.501993 40.361691 26.589804
6.941075 38.204375 14.014668
34.620125 37.299550 19.575912
35.586452 25.559922 28.371687
1.967631 17.201955 6.346447
7.746455 29.059217 11.659875
6.512756 17.205196 38.811856
14.225421 15.961741 31.032189
10.272128 16.719720 19.688716
28.386456 15.874877 32.903126
33.423558 39.578272 30.114928
35.586452 29.820734 13.432645
34.821238 18.982297 26.971594
31.403419 25.688573 26.854291
29.359955 37.306490 24.361859
31.103303 28.339631 37.099735
26.680206 27.588903 19.234101
0.546455 20.472447 33.741749
35.586452 26.236197 33.866391
31.565657 0.517542 22.592665
5.108354 16.898776 19.249751
29.157868 16.779276 7.757491
21.666456 29.326916 11.024085
5.791559 42.625556 28.512531
20.430711 21.818878 38.058542
21.666456 33.767551 20.907396
8.379798 29.009123 13.385449
5.636224 16.990469 7.255565
26.450140 26.908753 25.716477
35.237351 18.932931 2.633631
21.647337 39.039234 26.200370
0.546455 20.141232 6.265224
21.990718 28.006330 23.579057
0.546455 8.528154 20.653374
13.082010 16.922115 19.211847
28.487079 9.019029 15.009738
0.546455 20.695883 10.281177
14.466455 36.394016 15.803843
35.279739 8.351008 8.343139
10.328568 32.611287 18.494731
15.898658 32.731157 12.037809
2.762439 9.615807 8.826317
11.676635 25.284590 11.475031
0.546455 29.343822 35.844574
5.454222 11.502897 34.044025
0.546455 25.358102 30.011895
31.069426 9.021778 15.053807
13.498130 32.105487 17.261028
29.566314 6.103745 33.545267
20.816844 25.936954 26.686415
7.330463 14.647344 9.780854
23.299205 18.570258 17.249593
17.502579 34.622952 13.850834
17.542561 33.605834 4.502162
32.856431 38.040459 25.194373
21.663799 18.147111 5.670909
0.546455 27.488334 27.566375
31.877524 40.608419 17.172245
35.586452 21.027700 13.239776
35.586452 12.808774 18.182199
14.466455 35.672045 29.022935
2.488050 37.325060 14.211551
7.446284 40.342797 28.941319
0.551733 10.458316 34.156912
32.817190 8.282828 18.039510
29.011411 36.705672 20.908948
26.722008 11.655664 19.316021
35.586452 21.579819 35.787200
22.126895 31.556243 16.226867
13.978866 16.568480 20.065093
6.553013 22.414163 15.970469
1.542185 6.163332 33.449651
6.121750 4.106170 23.903074
28.760167 22.912384 16.011612
14.459589 18.769991 11.070569
24.505640 32.985431 23.957659
19.442592 38.639713 29.992224
19.350269 25.709888 17.074241
14.588184 39.576921 28.049996
16.351279 9.054444 28.291404
21.666456 30.522060 31.929713
28.810574 39.342822 30.089122
0.906819 40.981137 16.908081
0.546455 22.967205 7.437859
16.540233 9.043988 15.449298
14.466455 18.912163 35.334890
28.386456 37.453258 17.093337
24.886013 11.588105 19.622946
14.466455 10.451529 22.964210
3.260795 9.980359 9.041106
20.623322 4.643722 23.988363
21.359081 19.078578 2.796491
35.373599 40.332010 16.098038
7.746455 14.685585 11.624826
35.108028 40.828617 29.774815
14.466455 25.684616 8.069278
29.406101 5.468634 8.240589
21.666456 20.479882 7.525618
28.386456 26.669287 9.161882
27.863202 27.374919 18.886572
35.391225 7.159016 10.575159
27.823386 15.894420 30.850531
0.546455 26.373532 9.024148
35.586452 16.696102 13.928357
5.304839 27.485233 24.856597
7.746455 15.049493 9.727363
14.466455 24.621854 35.598172
14.478948 5.240602 23.569790
32.039448 6.952832 11.605798
12.723202 28.002635 20.285272
22.794801 16.471737 23.516207
21.666456 14.450155 30.845967
24.492996 25.195399 27.187619
33.163934 17.896327 0.566440
32.071359 28.149276 22.951950
28.386456 9.575227 12.855928
15.951982 38.809293 25.731707
5.815703 4.847367 24.012498
30.510027 39.093430 30.061788
34.776493 21.663087 27.913598
30.864334 27.186220 7.567081
13.893786 11.344333 21.258694
28.386456 21.765145 34.352131
31.521891 33.397273 5.836820
35.586452 32.756973 20.788940
14.466455 30.801351 10.195296
21.666456 33.601359 14.378774
32.106891 34.173947 30.322592
7.655460 4.123359 21.333164
31.578559 9.557156 35.134078
5.023933 8.143265 35.810038
31.555105 5.701695 36.460905
11.681636 33.169035 22.336428
24.196902 17.038188 31.564928
3.521504 18.574060 0.020874
17.356467 25.691329 26.852428
33.004113 38.366963 18.468778
21.666456 10.617683 10.500549
28.752314 25.291787 7.922026
6.950778 41.289969 27.253567
22.523472 23.761689 16.157450
27.900275 11.803880 25.184799
3.598433 7.669214 7.945728
29.217177 24.553308 36.104327
17.777644 33.646448 41.059562
7.746455 32.608518 29.101729
35.586452 17.456206 29.326823
33.306474 28.216162 21.580376
3.257138 5.400356 8.986060
16.243115 18.310832 26.470153
28.071824 12.093874 17.744565
0.546455 33.507153 24.609252
19.911139 4.641622 23.988114
0.546455 28.423373 15.109209
7.746455 33.376344 17.773076
35.586452 32.324551 14.217480
17.355519 6.403560 10.850583
9.163245 28.145687 22.979981
2.702971 43.188630 14.446871
28.413265 8.498645 11.466160
2.723168 17.066976 36.903813
32.238211 16.261548 22.041913
35.583487 20.355260 38.632595
32.690489 9.023478 15.084080
29.794560 33.651030 40.846193
1.154143 23.385267 7.385818
15.355976 32.461437 3.191928
0.959226 7.518254 31.667469
21.632060 4.809201 23.041919
35.586452 8.340898 30.949780
29.591883 20.972520 40.264356
28.764002 7.068533 34.575836
3.774567 39.778388 26.239695
24.586766 16.484304 23.557243
14.466455 19.182947 34.238179
28.802713 21.089369 3.979131
21.666456 28.383175 32.675706
31.875949 6.019700 10.231550
14.467194 30.195700 36.674506
35.216135 41.041984 27.065050
28.386456 36.819946 19.747044
0.546455 21.021865 15.727633
28.386456 21.704702 34.896752
25.425083 23.377812 16.091417
26.437951 11.665727 24.656569
33.263816 18.426699 0.045777
19.621881 8.063524 18.340765
20.851109 28.012839 36.819766
16.126859 20.091598 27.549182
29.958718 41.425992 16.563314
14.471751 17.981817 38.316356
16.584285 21.111805 39.886880
7.626499 31.032441 5.852918
35.586452 19.850396 8.371942
16.789412 17.232142 38.173230
9.727161 16.805283 19.475783
16.411664 16.723592 19.679080
24.940962 16.263097 22.005457
20.281201 7.027266 36.179499
16.613857 6.113710 24.263150
20.429639 37.195668 29.689337
12.406954 15.728920 13.191071
17.741737 23.697130 16.146169
31.104632 17.409304 18.420604
28.386456 7.383049 21.458432
35.586452 21.965459 10.941670
7.642269 18.395837 26.551624
6.616101 32.353330 35.019848
28.386456 36.205714 21.146181
0.546455 15.976978 32.780486
0.546455 29.319589 11.527254
35.586452 21.076798 29.404577
16.285501 3.112390 23.680526
17.030337 28.035317 20.436917
18.038781 7.900178 31.254173
27.422088 13.261166 15.744567
23.746452 27.732283 12.513469
28.846559 26.756826 36.189293
28.514403 39.051559 14.369171
4.549330 34.925346 13.995641
7.723336 32.016468 36.217365
0.546455 29.796423 7.957814
0.546455 15.929858 22.978282
21.666456 23.595358 9.518303
1.098762 4.405202 19.969731
17.909253 22.415855 6.639463
28.386456 21.113792 35.627815
35.586452 29.380950 30.326040
21.666456 8.948053 17.759226
7.588596 30.458368 38.699434
32.709718 41.424230 13.811471
3.904595 39.408216 17.883466
35.586452 13.190302 28.585825
7.232212 8.141968 18.248906
14.466455 32.268781 13.857298
31.522389 22.094599 27.950326
32.645716 17.234505 38.073464
30.704390 20.355995 41.613483
34.404848 9.012001 14.978040
29.363210 8.879994 27.147344
14.479938 22.829292 7.018307
35.586452 14.553493 13.895314
35.586452 24.306540 30.619469
20.288068 9.041295 28.525543
21.666456 10.700718 28.937115
23.971017 32.651575 25.316523
35.586452 14.117432 30.954816
16.387658 19.494062 0.961211
29.195163 6.165129 35.726208
29.572316 28.011159 20.324825
35.586452 19.266095 32.968230
18.694149 6.921291 11.567871
4.034861 7.291420 19.057308
0.546455 20.087898 10.655595
14.439320 11.685138 26.119888
14.961673 6.344737 33.167717
21.666456 35.609977 16.769151
14.466455 29.369712 6.881813
21.638424 16.770044 7.775227
34.665080 26.389316 26.275753
21.807477 20.330833 32.928127
29.236123 5.101860 24.042662
28.386456 28.094030 34.960439
35.586452 26.613858 12.620045
21.666456 9.325729 21.245938
28.386456 24.567548 36.010013
0.546455 10.076580 12.549528
28.403185 18.608629 38.645696
27.619693 11.348596 21.235940
19.231071 17.201372 5.047184
2.144350 13.482208 33.829392
28.418817 36.568503 22.070425
32.634656 34.171169 13.602260
14.466455 31.005813 33.040282
11.936745 28.611462 30.847428
35.586452 14.713848 25.572095
20.713024 21.367915 4.865338
11.043539 17.365747 18.491344
24.564380 20.600040 16.205356
1.473934 25.366636 16.857264
5.312045 17.656004 1.279236
18.351147 27.482510 19.061309
14.651749 31.578167 5.600653
14.466455 12.357913 12.381204
13.282810 32.641734 18.579013
35.586452 35.779476 19.808374
2.455841 5.321444 36.401149
6.748700 5.892572 19.739562
18.139087 1.410830 23.051590
26.032074 19.291533 16.767405
18.508450 8.990297 14.880140
28.386456 14.776627 9.795997
17.970137 7.989991 8.057764
7.746455 37.733601 26.542743
35.245998 31.028870 4.470257
35.586452 33.310313 21.912561
14.466455 9.475198 22.298771
14.579855 39.317302 28.568833
6.445516 11.206779 9.768759
14.109723 30.310095 29.401479
28.386456 21.495818 37.381900
21.666456 10.783544 19.071336
0.546455 16.827778 17.557371
33.948781 8.330655 8.195450
35.586452 12.509504 26.766044
0.546455 33.080178 27.409169
29.187890 16.373515 20.847481
34.509426 5.990510 10.179433
1.618802 22.888488 16.007514
28.807061 6.560181 9.695081
25.510054 20.949756 32.814212
23.919276 25.418268 27.036986
29.693738 27.113229 25.440006
35.586452 16.979625 26.154234
30.291889 27.482425 19.061172
14.466455 11.397043 31.255040
30.371334 5.203353 8.495073
28.533194 29.926471 38.935780
35.586452 16.466419 12.524848
0.668747 26.609329 7.772216
20.771001 41.122210 27.126038
28.162880 25.676264 11.448003
14.466455 35.357264 26.497388
7.788830 19.300392 11.057591
5.877328 27.149110 25.391492
34.194011 19.197981 0.578627
7.244037 41.489229 28.228307
33.198263 33.480594 38.503113
28.535182 39.619983 28.511081
7.386946 25.698472 7.915973
8.362748 20.780772 32.791654
16.852442 32.215573 10.087098
7.527043 3.226593 22.800870
20.390680 24.086054 16.272056
18.921655 41.689370 13.831147
6.402121 42.653756 13.979323
31.703645 2.130409 20.573752
19.917867 27.157878 36.348055
6.625774 2.085270 23.336025
14.505014 4.735819 23.940954
35.480480 28.150800 36.935172
0.546455 16.544574 15.476362
5.499691 5.430559 34.867027
31.994620 20.845124 40.588171
3.024767 21.314760 39.224142
13.253193 22.467483 15.972734
6.239130 14.644550 9.782178
27.676222 23.711721 16.148671
16.347770 10.385065 34.620486
21.711537 33.332865 24.128761
35.586452 13.112412 31.728013
30.570720 5.721283 34.244813
14.466455 36.333169 22.485641
29.583904 16.971104 24.775321
35.586452 34.653067 23.716607
8.284933 11.324543 21.549662
1.822754 5.652114 19.801744
14.978209 7.495082 8.059246
14.634382 27.240308 18.667949
4.429238 36.761085 14.281376
23.692017 29.881552 14.140867
2.286032 20.701911 3.013161
24.792467 27.720600 19.546878
4.988885 16.451412 20.486043
1.001784 33.428935 5.281806
20.072841 26.001162 26.643018
28.386456 31.956774 14.513264
1.727575 8.303910 25.918705
35.586452 22.203346 33.198256
28.386456 20.709821 6.875401
35.586452 10.040005 21.656470
3.502167 9.053031 15.610310
34.395730 25.935826 36.027202
21.666456 11.516275 32.373055
14.466455 9.440281 21.765273
8.038700 27.467244 31.648601
4.317486 17.202177 5.061388
0.546455 29.607060 15.608128
20.233344 7.598470 25.105175
12.181889 14.138418 14.647946
14.467580 29.695434 36.951508
28.897574 38.289172 25.395264
14.466455 11.137893 18.021811
15.775603 14.050286 9.986862
0.546455 32.160813 16.920499
21.479167 27.905295 23.908972
31.591167 6.729660 32.615760
21.007425 29.630704 38.633957
34.265740 29.708601 38.725982
7.416191 5.464466 19.830267
28.413683 39.144677 17.566266
4.966585 32.863953 36.335128
7.746455 11.320665 17.339979
9.755442 15.606638 13.284839
35.481381 31.586844 37.635134
16.731609 28.216120 21.579399
23.323945 30.442660 14.738806
16.052521 33.649788 3.022621
18.944974 32.966070 12.418304
32.007402 7.515119 18.885658
30.294274 39.976148 30.137983
21.666456 25.678239 10.360463
32.182836 27.963198 36.789005
2.226917 19.814052 1.418083
14.466455 10.920861 18.993219
25.637083 22.428888 11.042729
29.256623 7.787330 31.381374
2.549965 18.349320 17.427988
18.822603 18.742546 43.875567
2.256482 40.373842 30.154132
2.175584 42.319689 28.182506
35.586452 26.478049 8.732996
28.386456 18.791048 7.545438
7.746455 7.609476 21.152192
21.666456 33.409123 15.110417
29.167825 17.213291 3.740876
21.666456 22.490346 33.782869
32.700376 32.295811 9.200980
5.912807 7.383923 18.986329
9.585792 18.688248 26.772852
7.415556 31.477478 39.169714
35.586452 10.488017 28.416353
7.746455 7.716544 22.808960
28.446590 7.759277 32.517150
31.134483 3.075969 23.669223
16.959463 8.299726 25.912487
