104.730075 6.712934 71.609956
63.148128 29.768129 91.685081
22.596658 2.017644 58.416340
20.767069 0.245431 29.807914
35.569898 24.928956 76.256577
20.951956 11.061774 12.526368
13.725540 23.052934 22.365308
80.718065 7.289407 8.856317
66.753351 0.022385 16.083658
95.712926 27.337832 81.179771
13.295796 28.121934 77.065633
59.002506 26.177594 5.221446
79.651085 11.096041 6.490294
73.347447 21.841024 104.995356
51.929341 6.546710 107.230301
75.811436 2.486662 11.576044
46.339765 20.000013 57.711014
28.719354 6.441454 9.860212
15.644744 2.704864 83.311402
53.659157 4.786087 26.281957
78.087939 5.988909 39.186254
91.164293 29.107754 81.776043
37.317037 1.331740 26.138803
82.465016 1.773143 73.267905
25.815638 0.019033 27.062753
95.715741 5.019548 85.956806
24.672584 28.430105 90.338611
67.644754 8.640724 78.186883
71.584514 29.026979 97.164595
20.242636 1.534794 85.829235
27.570641 5.134626 46.369230
5.005585 3.902608 54.881819
4.396799 17.418416 75.792017
99.765910 8.075973 83.754931
29.740119 6.478343 66.324398
87.328970 2.111753 57.018823
62.528636 11.655684 0.961363
29.936495 16.209283 55.980408
73.427412 27.869752 81.607991
32.909957 2.212631 31.510653
13.916292 29.261174 37.905999
71.765629 25.773141 79.330595
79.579163 3.566732 37.210229
39.429463 11.405424 75.152268
46.845531 0.106284 92.381334
58.096157 0.997115 89.590886
33.201318 29.549673 84.283872
31.289141 22.792348 41.640906
55.830352 24.066002 3.145234
52.526919 29.119524 99.904658
105.642236 4.549971 53.654171
60.381282 2.371459 86.486013
0.510768 17.835881 59.092345
3.527967 6.801057 44.675002
52.829200 5.239679 68.067235
26.160569 29.724491 23.439655
109.766762 14.811026 58.893343
9.778969 17.638651 85.773593
73.266128 6.949577 75.402498
90.206217 0.503666 29.164281
48.710090 7.237073 76.802655
50.579654 0.047105 14.377821
105.657108 18.172507 34.619659
30.469733 22.419494 66.263111
90.265780 0.047638 73.209134
59.983531 0.062136 15.987554
45.109747 22.219065 107.130708
31.949585 5.974867 8.527783
10.454731 16.615735 23.007633
53.530788 23.077188 107.586439
105.964051 8.568346 71.158556
20.560469 1.784809 23.014803
77.084281 12.321929 67.233939
95.795709 7.640138 21.203668
28.171963 1.493065 75.002122
93.630038 29.887476 69.922162
28.228696 6.579363 48.211387
59.446922 24.347026 106.441367
44.777714 27.566750 85.150918
64.991860 15.244383 50.473253
72.815613 13.930955 37.369335
101.763805 9.488424 81.835922
45.925555 0.136562 18.053971
78.450098 25.487281 37.417854
3.277378 21.803444 42.168261
27.205114 1.484120 92.115416
78.479140 24.504977 9.142813
47.712431 0.637427 20.075755
13.991613 0.086540 59.027645
55.513864 0.037573 15.048035
109.648385 15.552850 60.757146
31.737617 24.504685 9.034969
29.532026 28.716499 32.486311
68.238260 3.176647 27.170540
40.276693 29.279222 22.723825
3.238545 9.373720 40.191621
95.658758 29.463393 71.221718
53.632595 28.583137 21.404955
21.208137 22.011444 96.048179
98.277403 2.570401 33.600436
6.045916 22.507507 75.050396
2.637193 6.660674 53.170519
4.856936 5.392416 43.352385
64.846337 13.441289 52.423850
12.967115 0.578333 42.254905
81.445966 3.036887 13.794678
81.329834 0.142157 27.578210
34.881401 19.894853 38.826535
72.655833 17.469224 37.029834
63.012117 9.074011 43.898854
53.590566 29.686147 92.157689
12.866320 19.280662 89.279018
1.955835 11.867774 67.909400
48.540342 7.440669 46.652154
26.522139 2.581970 94.043123
7.289353 23.390486 76.595354
0.775539 13.897503 63.627953
98.513992 28.246502 72.560843
2.294635 19.066114 41.637164
34.219277 28.911546 82.536435
33.572329 13.184278 41.864770
0.274457 15.847198 59.548504
53.825823 5.082977 76.442961
64.987606 14.591701 54.297311
77.337905 16.467395 66.440837
8.545989 1.921560 46.238535
75.292856 0.035765 90.360231
51.320914 24.290822 34.104843
93.545895 29.586046 74.826189
26.519694 0.228279 23.643054
17.686413 7.078775 92.229251
91.413295 14.618896 13.903351
71.955257 3.193653 80.704307
84.481293 0.039876 28.104552
58.176920 1.616385 8.461875
87.653459 28.918755 66.170030
39.715944 0.472285 14.216353
106.420945 23.603270 64.050672
85.947286 2.625515 61.013701
41.589714 25.497842 6.182885
62.735115 8.713172 47.918290
64.884954 16.381343 52.119272
64.395847 11.588083 53.528881
58.697074 27.398853 103.174151
82.562641 5.323117 62.614018
63.629150 9.948813 72.594578
79.635267 14.186199 59.605065
57.626267 0.066570 15.856132
13.892114 2.419714 79.902455
8.672342 27.479908 68.387655
28.555948 4.479554 67.702328
79.149036 1.297433 31.154755
29.347614 0.056578 85.028718
88.064087 28.724616 62.904775
105.429709 14.360702 33.221132
66.368621 26.662103 103.063735
80.237828 28.595562 77.268018
45.123318 16.360198 46.364191
50.330038 0.102423 96.064309
52.645957 28.117336 87.706116
50.537464 6.057213 75.661285
79.684805 24.450210 69.022733
93.638786 28.432112 80.949463
77.826750 14.634669 65.230292
50.680362 0.069297 93.926949
98.118349 29.659298 55.795351
60.907535 6.996486 58.003058
24.985912 26.304525 58.329443
41.921963 12.896212 1.798964
46.691287 9.443434 49.409940
7.172384 27.298120 62.843701
95.148797 3.425963 83.962004
87.047736 28.131168 20.361406
85.387050 0.170076 83.822126
54.635377 5.151469 3.713746
99.286025 17.019607 87.246269
102.712393 8.049862 78.544744
1.331036 14.002221 66.614521
73.763564 9.188536 36.712442
68.141424 19.756378 77.174331
63.316401 20.531493 34.943703
66.568835 5.830920 4.535872
103.375218 8.304444 32.562626
102.328352 2.493794 46.092343
20.978846 29.920942 36.106560
29.400498 24.578542 10.342994
49.170669 2.267981 86.591846
65.040495 0.516422 12.459570
64.198118 11.032392 35.365413
45.229935 16.985654 64.068954
34.006578 17.177467 68.863378
59.342918 6.002685 42.953257
57.436313 29.620994 18.230942
49.753271 6.496048 55.698833
96.297843 29.887688 51.930740
39.633075 27.781770 83.305851
89.527296 25.376244 17.780187
28.294574 0.120162 27.807898
102.604469 4.756448 37.054575
30.367327 0.799578 92.270697
32.285649 29.758979 25.132925
80.847802 1.117919 32.261100
16.230141 29.866482 39.999844
77.258917 10.189846 68.028692
21.146798 29.829025 79.661056
18.514187 13.870323 96.053757
30.566659 12.545450 61.114604
35.291174 11.480315 71.122574
27.364833 0.144697 81.076542
35.388477 0.108236 87.795070
86.243230 0.536659 36.980326
61.353056 4.878854 4.395807
52.957727 24.785183 75.038308
25.852124 3.245986 15.303356
10.123590 23.099374 82.395761
96.673745 2.418207 78.998338
89.348998 29.260107 83.298399
49.986476 24.836640 26.803260
11.942417 0.571991 63.627435
83.421818 5.414573 57.012841
102.779536 2.657778 62.732317
93.590392 29.932338 61.955185
59.304869 5.987652 79.265629
19.995700 9.654713 96.071992
24.992389 29.937165 29.599563
61.917331 7.784593 75.730196
27.008852 5.040167 61.883864
74.108868 17.590612 71.464515
28.982778 2.233974 14.893741
100.523930 1.874577 42.628128
63.820841 21.137132 78.591888
34.495817 23.762884 102.870449
64.900314 13.618573 37.511075
77.341123 1.248033 95.045129
64.691716 17.452192 47.494746
33.406334 21.498840 70.371831
42.676817 3.076556 102.428091
17.690375 23.418230 91.750830
54.851450 4.339562 105.440444
35.116597 22.744407 6.111895
9.825658 21.606928 26.502156
53.516709 25.234082 26.233536
34.426704 0.025941 89.594700
75.073750 24.832127 34.463921
48.624079 7.226251 79.368522
62.042604 7.901637 64.456881
107.612564 22.626363 50.100528
63.466188 20.309373 57.141589
75.098132 19.937214 71.242616
49.799163 0.383619 12.073078
9.544678 27.322010 71.812045
31.618070 29.919496 86.071358
39.927306 23.697802 31.644147
101.160930 27.762293 42.624543
16.367741 29.432563 34.164381
68.599775 16.778393 1.855847
54.215473 24.950233 46.627922
44.423522 1.413569 10.012603
57.970092 2.244069 22.956615
98.449926 27.850930 35.399426
11.868955 3.551754 30.463228
97.934748 18.210365 88.706716
109.183593 15.146327 46.038023
58.169051 3.668150 24.948304
0.882931 18.672452 48.608771
49.545852 25.152613 83.443448
27.513604 27.361008 70.370292
61.161295 20.153710 1.354613
43.859502 15.186082 75.093132
92.399678 0.231489 74.921085
106.453124 10.664291 72.256697
84.519657 26.273200 48.898192
109.923734 13.965892 56.398351
52.094554 29.487937 18.902363
62.139033 7.997917 45.916375
86.957282 0.740828 24.071108
7.911970 17.323292 82.927241
13.243239 0.260910 46.471708
4.317170 8.806823 72.428745
16.085846 29.921291 54.381874
13.713514 0.104530 56.965050
29.809946 18.420143 58.436586
21.471703 10.832599 97.743186
71.791500 5.784838 32.386645
58.686675 9.397249 108.724736
93.804948 3.893622 86.537058
23.650681 2.025379 63.822945
1.609424 10.062903 63.550105
52.695264 5.025938 106.140911
70.968430 23.608866 32.326031
62.377164 3.241102 25.146940
45.642767 18.505687 59.864136
47.730091 21.837256 69.071530
73.618643 7.471280 35.355295
46.741755 9.371044 65.864107
35.992428 2.652973 10.481320
41.558955 29.976409 16.993963
86.811500 18.705762 99.269908
37.241363 0.872878 13.709951
78.571616 28.561872 78.911778
51.185951 24.217684 61.031637
3.664128 6.060597 46.928069
56.571753 24.819338 44.423218
21.049007 5.310567 16.437388
29.243007 20.351443 58.591688
34.580054 7.372946 37.153983
22.549535 27.992560 57.962656
76.814555 6.710915 102.676421
22.893130 29.237193 24.115507
25.157731 0.754083 35.964263
88.424061 2.843455 19.576226
40.897226 6.215631 105.122988
76.455687 3.562559 33.544502
60.434879 29.496908 90.826899
78.151965 27.160389 97.800298
77.785955 3.025402 11.685593
48.548014 7.432565 43.581571
98.011945 0.326299 56.839167
11.617890 29.010351 41.885841
44.980719 13.160316 35.861344
102.350489 18.292545 82.201506
79.378183 8.230510 7.611533
61.609721 1.021717 20.966693
100.444244 9.279504 26.108041
77.324139 28.826286 15.094498
71.715754 1.297148 84.539142
33.228586 5.104805 36.188110
56.988266 29.953931 95.824159
26.952317 24.253368 52.090098
109.550158 17.339140 50.522721
48.375516 22.478907 71.684001
64.007441 29.445505 89.834299
104.504474 20.012864 76.690019
92.609822 9.572916 93.626786
96.190924 23.039298 22.248272
66.555014 7.003135 106.382865
40.264509 13.243658 34.674775
103.859705 24.694381 39.000592
22.938723 29.940578 32.099483
33.123150 11.969588 4.930248
97.927306 4.554596 28.024031
3.602532 8.170124 69.077686
27.068605 0.821296 89.963232
24.184160 27.124403 17.250593
75.112845 29.906932 22.097575
83.945566 3.924442 47.492168
93.854569 29.732675 72.675062
36.472151 29.557450 94.305751
68.476091 11.164510 2.214045
5.234246 18.741956 32.838072
82.051949 0.519061 89.330007
53.120288 5.190104 53.793035
39.968527 0.360785 21.234308
18.093564 29.297499 30.408820
12.637908 29.764583 57.021011
40.302250 28.310506 99.421570
65.778116 0.066890 92.716073
46.760280 9.210589 76.940748
80.301290 26.397349 97.776031
99.962650 3.690787 76.410776
75.105272 25.818527 8.887032
71.947583 19.512007 3.491339
83.366506 14.101453 102.058280
64.969917 15.717718 38.984758
81.440133 27.231236 95.730663
95.981274 12.712932 91.275069
97.321057 14.240359 90.049187
29.548981 20.725200 61.069138
73.111944 0.018475 18.873736
93.636768 27.585409 26.407777
26.372884 8.611547 100.194683
27.220857 0.017804 25.584256
108.247417 18.272407 42.920187
80.283376 28.714879 16.612430
89.215487 2.530200 89.006608
30.546156 3.410384 73.275132
34.291905 28.529641 13.563324
64.854624 22.404167 2.958669
45.744906 11.233422 71.549505
71.859852 26.409600 29.787812
97.260343 0.709607 41.385742
9.970835 1.391708 44.723186
69.579706 0.917961 97.661630
80.883507 29.176395 91.539145
3.563341 16.319227 74.269875
16.631466 20.013860 16.941739
64.988011 15.397605 41.352124
83.416199 25.073259 60.511307
56.225786 24.906637 35.533543
73.201396 23.996837 33.756016
66.250507 28.465757 100.075626
59.051445 21.194437 108.435740
27.185850 27.875260 38.436584
79.946583 0.169618 83.514895
41.164436 24.566467 79.888560
7.634676 2.022216 58.260226
97.725525 19.973199 21.844329
16.199482 0.531431 75.213790
95.583948 2.771768 28.303503
79.352680 23.044630 42.462562
46.088814 19.467041 49.843564
55.691004 5.036026 44.912540
62.864188 7.880704 30.401778
82.370348 20.776558 101.332033
109.445714 16.500475 48.226220
104.441049 13.105343 31.382362
11.815692 29.623685 53.078724
89.229054 28.783144 85.415502
69.581730 17.307402 107.755569
43.744926 0.206015 14.354850
43.733575 28.610240 10.210507
51.017314 0.471757 18.829046
37.996773 18.663575 36.015016
20.996274 0.324709 40.116546
12.759771 4.040540 27.939367
72.940166 29.770545 16.617658
84.260267 26.412455 62.984978
90.992987 11.188994 14.149140
35.216614 6.547255 103.446252
84.459712 0.199769 31.441249
26.446833 24.446904 97.929625
88.218167 10.561629 97.873662
91.472945 28.060744 24.867328
90.229805 20.609447 95.778330
5.834773 3.571579 61.871376
36.213516 23.099737 74.956593
41.859336 29.616552 13.799956
47.352851 8.577899 41.813845
65.383160 0.371184 90.407301
83.061831 24.184322 52.809400
17.285949 29.955237 67.594707
16.948982 3.951762 22.496921
79.574503 9.654312 46.480457
106.916107 19.757764 39.668255
103.494269 20.926598 78.207640
14.956663 21.588328 90.303734
28.198733 25.700736 42.719401
45.597303 11.615682 61.030272
105.920620 25.007680 59.766658
93.599146 0.264617 36.868232
25.947173 0.443710 77.131554
44.312121 29.552248 20.097079
102.750788 12.443363 81.693715
22.634932 28.137837 89.284651
83.236172 0.741398 76.355259
7.162241 16.776524 28.236066
96.653952 0.176274 59.871498
11.326370 11.083863 22.505899
49.160231 23.409074 107.031092
61.497290 7.414037 55.799333
24.813811 4.191062 95.240083
83.688444 28.520017 91.396075
88.152922 19.809433 97.767443
43.765127 29.602004 13.172145
87.082320 1.174470 87.563788
47.053283 1.908591 86.765213
60.555485 6.699825 30.847147
52.412244 24.659276 41.121373
31.710983 15.830793 64.227488
108.494588 21.278708 52.120444
21.674593 0.197145 80.712581
46.703006 9.419252 35.526220
67.316454 24.745025 104.836987
105.437083 22.667615 39.249061
77.981437 21.629247 41.706398
96.341339 10.043769 20.162257
67.614612 11.856590 76.636391
73.637442 19.354615 37.368623
65.557259 17.205560 34.640420
4.779475 20.147474 74.870734
55.310111 0.220927 17.367510
4.424515 22.762895 39.930556
82.743619 11.874656 102.045264
25.188844 0.247522 85.313890
71.225374 1.396465 11.769918
46.734096 20.617909 61.203462
109.223579 10.601334 53.340460
32.853061 10.014643 5.649929
46.988644 21.680705 107.734816
2.295467 10.466190 42.214290
86.116875 27.695596 18.602638
107.646294 7.013223 56.673449
6.470707 3.337194 45.872805
88.658774 29.798455 80.333250
45.961589 0.147381 14.308991
45.885050 20.032130 32.970714
66.654066 25.397091 81.786221
55.547767 5.023171 47.048588
8.302670 8.466246 29.063305
67.423472 0.535434 13.035788
61.528428 22.563358 36.191953
89.184905 0.721413 64.517266
49.067516 29.879010 96.049335
43.913565 20.105591 107.902618
41.252127 5.780279 30.394518
103.318237 14.411251 81.081297
50.497211 23.922593 32.024478
95.473573 0.537975 71.674440
88.841679 29.595204 40.692715
46.208653 26.679876 25.650530
77.773730 17.659971 44.129668
73.742782 5.360195 33.476299
51.795297 5.566971 72.847203
95.370494 19.777253 91.045335
13.599012 1.773441 32.786542
4.693222 25.290550 62.243115
89.997189 0.890906 56.279201
45.358224 18.333173 34.947004
67.047702 10.510744 107.881452
74.466845 5.348374 102.601890
70.442706 13.515457 107.672452
85.772550 0.394163 75.123146
11.972527 29.438478 46.522193
96.567719 18.302249 19.647602
16.364364 3.813702 86.622618
76.200165 5.682809 73.680806
57.465666 24.688043 46.280558
28.841650 22.220278 48.836188
21.399373 3.739626 18.195201
106.740663 22.924149 45.094352
30.650705 11.418802 47.528697
23.364220 2.282075 49.547110
45.218551 12.997605 69.057631
31.510688 1.270233 79.595829
58.266093 24.438429 73.254861
29.954603 24.668558 41.248484
105.606958 10.351582 35.692240
49.991395 23.654703 53.042245
50.783200 24.051239 48.535736
100.643153 27.737031 40.634094
46.538071 1.389049 22.356412
88.837658 16.646371 11.808644
53.988866 29.941138 94.410629
32.209465 0.195440 90.374732
83.964451 24.663658 97.460987
64.215704 18.875034 73.298428
57.778947 5.399818 41.583586
22.461647 27.969411 55.927731
76.175740 0.300286 92.358718
63.791845 2.090654 23.780194
85.394738 29.691846 76.460930
29.173959 0.216791 82.372326
94.566462 28.876168 32.344690
77.223852 29.850697 19.711806
108.413776 12.817308 67.008743
21.906677 1.173739 46.115986
87.933171 25.202250 93.868110
96.428293 28.975527 36.449155
77.843773 18.505168 66.220804
55.054057 0.929052 100.121671
1.500618 20.043454 47.106807
46.423461 29.123370 88.980731
78.270033 0.550824 82.490099
65.543678 29.153469 21.491960
5.147546 22.259334 73.175188
12.328097 10.259256 88.316110
91.669477 29.733942 47.679971
80.064204 1.613193 94.323410
47.533095 21.638595 75.000255
68.486488 13.161660 108.115412
1.227812 12.884811 44.668357
20.751245 27.740537 88.428739
59.652461 18.572899 0.635428
91.232301 14.598687 96.291819
45.228045 17.084339 49.881408
29.485261 11.055458 53.316023
51.237353 3.484834 104.409798
53.218835 26.744446 5.769606
50.845584 24.082031 58.555341
69.147960 17.283921 75.787789
81.338853 0.039856 84.976115
72.033665 12.296699 36.353681
62.711774 8.702823 57.212807
34.570733 0.535635 25.254944
47.152880 21.251503 77.278650
40.653937 8.352877 77.352569
26.472035 27.496051 16.180607
85.627988 3.078420 50.473990
78.287062 12.414113 64.674240
8.436366 4.011485 73.512493
107.032654 10.116299 40.241896
10.605165 15.714887 87.321158
59.342601 11.334199 109.318015
26.723866 14.252614 7.937763
92.428955 0.248719 34.799124
45.252287 28.019978 23.868797
33.450280 22.956690 71.792262
32.793049 4.458745 100.462476
16.760356 22.779530 18.646830
99.389792 11.112726 86.523734
83.424987 29.482643 32.628853
92.282140 29.935755 37.941818
34.363508 24.828086 35.043683
107.691332 10.451273 67.687565
88.109862 2.911054 90.801105
28.910701 19.935197 7.590355
98.361686 28.347441 37.602227
26.875686 29.865377 80.606973
80.611756 9.870583 58.928244
100.808786 2.581709 70.273198
29.853345 12.900494 54.700529
72.194390 2.037659 82.619577
64.507436 18.093071 64.946805
52.002706 24.503720 70.448709
72.988661 2.513121 28.889436
50.614529 23.979522 46.076563
30.203201 9.300588 46.646211
70.723361 29.098722 23.751141
66.347464 1.789396 9.367459
53.722235 27.855764 7.358528
13.962925 29.477682 39.923119
45.709939 18.684846 44.903229
53.793767 2.608313 86.532627
83.884128 14.951077 8.305977
38.394403 28.062753 10.695782
30.055677 5.273756 69.053691
41.878617 25.583043 28.718185
45.293339 17.380938 61.684267
55.232415 5.013617 80.081547
65.826499 0.198353 14.291313
87.905506 6.981239 96.076174
29.363241 3.191420 13.043099
25.306130 1.685091 69.710854
51.790598 2.413940 23.283152
81.878219 2.787234 71.042248
59.248522 24.042530 50.357487
36.652839 21.221113 73.952909
87.302243 3.854788 16.916224
3.230739 23.654308 61.429561
20.890006 29.950363 32.453986
60.720227 23.181236 33.171501
59.719802 23.812780 56.377012
51.401293 29.613505 98.100212
9.168814 12.088665 84.729510
32.885014 3.720741 34.494412
29.905291 10.223179 49.085704
13.562178 2.397249 30.733571
47.354136 21.353419 59.078143
11.670446 20.151832 22.733044
94.056406 0.043202 47.345821
21.413953 1.276552 60.248614
46.674331 8.476686 2.212340
9.558605 8.033473 27.341837
48.763370 9.415282 1.509038
9.323610 4.670559 77.245314
76.408566 14.555522 67.948345
79.124206 12.391414 62.373407
39.930836 19.356425 75.785750
40.538827 28.288838 10.448350
100.429019 20.343686 25.865908
46.011065 10.658209 50.942684
35.987650 11.761981 106.166940
17.375095 29.508041 77.108289
23.131168 11.260076 10.830174
29.996373 0.178010 26.618552
50.807811 24.075628 78.625874
67.606050 22.564246 78.960362
31.455842 10.252271 65.436463
47.015701 28.755230 21.859621
103.720827 17.463375 30.068696
30.155158 21.442480 102.344375
40.526114 8.554169 32.820144
62.790750 21.234096 47.602861
49.316939 29.466681 98.416891
12.198109 14.407974 89.419784
4.130550 4.787989 52.679139
58.294680 2.812555 86.092268
86.957609 29.615408 36.729221
49.390524 23.201202 63.847038
54.223120 5.057254 51.557052
3.580568 5.645712 59.931336
61.071790 22.868267 50.513685
0.127401 16.461381 54.938478
7.472445 22.357578 31.576581
103.775388 26.536407 46.366166
5.759853 17.395030 78.901477
25.613251 11.350510 100.903444
77.999996 8.426208 103.200652
87.561635 1.076949 66.489252
84.971176 1.662733 90.870400
96.380307 28.997469 73.556208
88.423510 1.520783 55.073976
29.194517 0.400893 89.797831
53.861232 5.113714 61.236600
29.539861 11.182639 56.748198
18.949817 0.069449 39.665892
7.219663 22.089955 78.256526
48.450878 1.705449 101.375117
94.102835 13.889077 93.596207
10.044619 0.968534 60.371908
78.671616 11.172599 45.431927
51.723485 24.414377 56.351541
39.835359 20.662360 3.353852
40.719728 0.102697 90.592618
11.635959 19.943431 87.292431
62.211619 21.916846 77.439578
13.352666 6.919717 22.848247
81.112183 5.584644 43.927190
74.636941 11.366227 71.261948
108.981340 12.917155 45.736733
64.873610 26.054547 83.193720
60.113248 6.407310 50.227850
106.892385 6.148931 51.199011
101.354344 25.100115 33.672928
28.153452 16.676407 102.806910
56.361475 24.960542 27.049456
89.559150 14.906062 97.665687
28.432884 27.822156 15.339426
48.852769 7.119828 33.182743
79.839743 10.897036 61.159603
77.402002 24.475209 72.450734
67.294337 0.963063 98.549699
9.897027 28.657217 45.659873
16.471513 1.542541 81.023660
8.617423 22.943437 29.996555
54.941829 5.000964 28.979663
32.693462 26.073405 10.239390
18.786592 19.851680 14.797954
109.559761 12.210612 58.091571
52.568025 24.697354 81.752126
56.415394 5.110676 32.287608
59.621982 23.866807 71.345434
94.510581 22.245038 90.380772
106.526239 22.876707 66.124738
47.873688 24.821960 27.203929
98.745913 20.026934 86.743266
32.001934 28.202838 13.967931
16.406013 0.077947 60.185110
23.101487 9.292533 98.379452
65.749546 29.893526 91.710200
97.038576 1.587214 34.963150
89.116920 28.827430 51.781817
28.205505 4.536756 98.002529
103.407781 11.528578 29.787858
84.792326 28.845058 20.400301
35.164902 1.366345 82.348742
28.877894 0.099727 86.980855
38.093962 15.184279 2.753310
96.017911 29.776289 65.400261
16.957295 29.970711 42.127229
53.181827 5.191697 33.867271
12.051464 12.477211 88.873210
75.318993 8.898370 38.262861
55.294623 8.616461 1.477197
55.660938 22.655338 107.821279
27.061409 21.836334 100.370167
72.604034 0.562712 14.799423
67.798235 0.069722 17.977599
109.514367 18.687401 55.893947
79.594839 0.043865 23.695407
84.790520 3.155238 63.040896
78.268187 20.090474 43.631225
102.018874 22.326634 79.445181
54.562989 5.016079 38.420737
9.033239 2.539021 40.307265
89.574359 29.243610 47.523903
64.981248 15.561154 56.826266
102.365491 5.889719 33.972134
15.324896 0.014856 46.838572
15.595585 27.353821 83.106137
31.087739 28.215305 77.697593
106.271557 6.439913 45.071088
80.835649 0.966989 78.326369
28.863038 12.347282 6.941014
67.547235 27.740244 8.835837
67.867584 18.572503 107.983605
64.952040 2.071322 85.908242
108.830921 17.557220 64.792230
15.650020 24.799175 87.954492
53.515408 0.620169 90.721701
13.374837 29.294298 70.414582
75.335923 17.287591 69.827032
9.949047 10.193496 84.995938
55.655051 3.896861 5.003629
34.157677 26.154327 33.413313
56.274550 5.098873 37.043213
56.255948 5.093326 68.642906
70.433647 10.552566 75.528761
74.442751 13.191029 106.262764
48.074360 8.133199 107.819483
54.425731 24.941952 66.617643
48.367216 17.678003 0.739139
47.225738 26.810116 6.424600
58.364312 5.603250 32.835244
32.527208 26.738234 98.870985
36.130802 29.629206 86.711170
49.632497 23.427920 44.327121
64.971524 15.740326 65.611428
74.805283 17.152793 39.482108
90.923998 2.895612 87.944327
87.861187 5.335584 94.534738
97.300386 15.823563 19.999515
4.610340 24.012281 42.539214
88.132341 0.088422 74.975041
2.080300 16.809822 40.739239
58.683027 25.883860 84.458839
64.992648 15.214010 62.054364
107.885714 9.043611 45.590207
66.034471 18.327196 76.567393
0.467611 18.530984 54.743300
4.534374 25.649952 55.153085
18.147752 0.167216 74.826674
107.025754 21.343326 67.516264
12.767821 12.288533 20.300304
48.263991 4.097658 5.263242
52.570523 29.977887 14.744691
96.099259 29.922174 54.120455
108.791042 12.142647 64.728685
66.477451 15.455230 1.309881
84.176256 2.466710 42.368547
64.851081 5.942532 105.920695
55.208203 24.994346 59.205909
105.344455 4.576699 49.083419
103.109042 25.349621 71.210544
59.440869 28.201420 87.650540
55.743626 24.937842 71.949385
87.139080 0.913276 68.732832
30.809673 28.882339 16.362684
92.295210 12.523144 14.936981
8.936232 28.284380 63.691464
1.449480 18.917665 64.794669
87.826483 8.424599 12.859156
20.312164 29.360733 82.277895
99.034495 19.668219 23.464671
18.286788 28.763544 82.435015
26.070373 25.437310 50.576069
12.929792 29.673274 64.132235
33.512692 20.707103 40.084499
26.364455 5.226053 56.273314
82.702317 3.955171 43.823530
3.107307 19.854283 39.704110
88.328747 0.290458 71.698011
109.713072 12.644763 54.253030
28.160895 9.983910 101.913551
61.454944 22.607596 48.364196
100.403408 22.788189 28.137772
63.118104 9.163185 74.602682
43.271893 11.788578 33.322965
55.371891 24.983107 55.194281
13.752553 29.905879 54.792244
60.805547 25.201444 4.410831
96.679473 29.466904 41.569371
102.667156 8.634759 30.651104
63.508930 1.999810 101.672248
56.974309 14.963752 0.131389
10.995967 11.457901 87.208896
58.849972 24.217792 37.076254
76.789806 23.735755 102.320345
21.542620 28.666236 60.088199
21.724912 28.948167 45.572735
64.719455 1.185227 22.175179
42.747829 17.654113 76.405059
63.217970 21.524286 2.199248
47.623035 0.148493 96.034555
103.258795 18.552080 80.373112
64.041731 20.320599 32.536512
16.788496 0.107655 56.031375
78.790118 20.253180 65.405525
28.727305 29.179234 91.268811
38.925897 29.834520 16.374959
45.790223 11.124272 67.465251
11.584304 28.043452 73.897970
41.849370 1.868642 9.706300
31.382829 28.536663 31.216814
26.545438 25.733580 47.183396
102.248004 2.570269 64.941747
89.917248 29.976516 34.902963
96.394118 29.850141 49.891039
31.923373 25.830515 36.460396
51.304143 5.752447 66.793973
75.286599 0.224820 86.656031
35.321751 5.330470 34.265749
65.611036 21.266967 31.021654
101.690975 3.613820 72.085696
91.459070 16.756572 95.956456
33.794030 18.482540 4.743586
77.662567 4.957894 100.827974
12.569933 25.460070 82.665611
86.713383 21.861498 12.235881
17.449490 0.049519 67.716393
57.091825 5.222559 56.030793
104.717243 3.730136 57.984235
33.693683 23.424076 37.435423
70.609826 21.109985 3.690168
60.592084 6.761463 60.045694
80.575673 20.019839 51.042560
47.203837 29.389377 98.329929
37.807188 19.085272 3.416692
25.163405 0.074119 29.831754
8.285687 11.262100 83.040118
38.523320 6.761625 104.817849
36.945441 28.946114 84.520017
10.365693 9.957246 24.546589
11.812880 17.468715 21.392792
19.423622 21.399022 94.955589
106.621501 5.744869 57.905211
65.190763 10.813359 33.076789
59.518270 23.918814 46.182556
85.437108 14.061421 9.249821
96.036950 1.484573 76.553608
29.135072 27.819977 74.304710
65.768330 17.637804 108.625991
28.383064 7.431395 50.053333
28.660316 28.684806 17.282532
48.498884 2.325253 7.525246
25.586029 18.958504 9.222978
28.121218 24.328485 99.148825
14.708743 16.491417 17.739261
44.103694 16.656729 34.669978
91.986610 0.036768 39.819465
47.427039 22.877127 80.683835
41.588546 29.664595 89.564217
37.210835 29.948824 91.838750
55.562465 5.022701 34.386761
34.187336 9.261986 39.102434
94.958819 20.570213 18.830917
25.179928 29.102268 36.668934
70.480531 21.112364 106.395214
2.425954 22.289197 48.042635
62.312531 16.074278 0.584262
83.656617 5.301984 12.324008
51.950218 0.272248 12.381857
79.067416 29.808418 20.515889
64.166434 27.588628 85.553746
108.280074 9.574188 63.182501
81.391297 27.452507 37.536447
43.563940 23.361223 106.135682
80.841538 9.532498 51.605759
74.155100 8.728696 4.992731
42.361365 22.068686 78.585156
26.884304 6.176799 11.203858
55.122443 24.993827 74.872847
68.086323 23.483212 4.338499
1.504876 11.398039 65.643551
11.812192 0.367150 56.288033
65.376175 23.918564 105.937651
44.469805 0.049660 93.220776
28.730703 27.282558 95.754980
45.611441 11.583221 53.002515
85.883714 28.635057 89.239529
35.136486 26.759452 78.474740
77.225484 29.454061 83.348510
28.021302 5.423772 64.144203
86.580847 1.311533 42.663488
33.366451 21.745751 6.241599
26.261290 13.089297 101.685247
90.375003 0.041445 75.418586
1.832600 14.888049 41.262421
67.850884 4.617983 81.238759
100.291716 28.823966 61.142342
35.087951 14.239170 70.181788
2.208906 9.515591 44.175725
81.504307 7.341244 60.803833
96.682104 29.654641 43.986865
38.124921 20.480686 35.140086
79.913523 27.360266 35.731731
9.296242 1.338066 49.346792
84.614086 1.534722 19.190077
4.478773 25.503462 57.901621
42.006158 2.109405 100.810560
63.681500 22.579655 29.603929
87.560863 28.008163 56.637943
26.074722 27.206147 43.035025
59.631243 6.063757 3.230759
27.573855 23.382754 58.113635
39.700635 13.133008 2.380170
15.155303 6.086161 88.398438
98.712625 15.257241 21.706618
73.752265 4.414313 8.090844
2.473752 12.900304 70.542113
92.269682 29.314096 31.031778
92.467269 0.255242 55.693501
105.339930 12.176693 33.646728
46.271008 5.167100 82.362503
100.387766 1.068312 57.836564
50.061084 6.307702 52.683472
89.493649 4.394609 18.066018
72.531496 25.122586 31.931469
69.392049 26.409782 7.470185
1.330961 20.669812 59.129707
99.556051 1.000707 63.561977
2.708841 17.134327 38.683993
21.081916 8.929285 13.402032
33.881079 27.990775 97.545959
64.164199 18.984679 71.178421
51.499478 4.235923 25.680430
97.148448 0.882432 39.347915
59.801457 23.769524 58.945710
20.124312 6.396531 93.845659
39.638268 1.049243 12.214309
77.315168 0.360279 84.436834
80.111329 16.698556 54.558342
65.081848 29.231119 98.426244
71.061798 0.059006 18.977917
64.400128 11.596766 58.973890
18.568530 21.868218 16.123970
27.196033 20.605483 8.890178
79.202178 2.511820 13.324330
101.278264 23.236501 30.222641
105.802407 4.662676 55.702765
42.695611 26.797123 26.765551
24.206952 27.156635 60.192252
24.084066 29.002436 88.148108
2.271927 12.139012 40.687597
51.318534 10.189051 0.997873
23.358729 0.050329 31.100176
93.809713 12.900001 16.367596
50.194670 26.968676 103.705951
45.832019 11.105328 48.307632
80.701860 6.066108 65.945083
6.185996 7.282512 34.814187
4.019511 19.665176 36.712671
50.819277 28.460118 8.689558
68.131298 19.365676 2.321554
62.459361 21.645024 63.231863
81.209684 23.214174 63.262893
61.149194 27.617095 86.336043
92.181620 29.935402 67.642013
82.752695 27.650354 94.130241
34.265454 0.255475 17.788487
9.000975 10.331888 26.359516
49.066069 5.289672 82.931670
78.811745 14.695723 62.625142
102.723162 26.919062 43.681091
75.467827 21.108549 38.438149
63.820084 24.467673 28.014663
90.709411 29.455047 29.638749
37.210221 25.540446 78.334855
79.423726 0.549343 28.518689
19.307589 5.264834 91.913132
53.471713 5.123455 78.486086
73.822380 26.476780 78.858553
76.423966 22.711358 6.703208
56.467656 5.132031 51.469564
28.559645 29.910440 23.390090
30.217257 21.836262 45.220060
87.237314 3.470725 92.658280
42.005554 26.036244 81.889601
14.531735 12.040144 18.260802
75.869203 27.701680 79.379716
89.149003 28.380613 23.215956
48.411132 22.542798 78.799934
18.015948 29.685005 58.838626
11.859427 17.619758 88.594169
37.826312 4.463372 7.410956
45.162968 13.347234 49.193907
22.547334 1.454245 21.980701
46.055952 15.591983 0.790370
9.109900 28.717923 52.785210
48.486500 22.563392 61.437546
80.190770 26.928931 12.976660
13.938222 13.645979 91.412080
101.206235 14.888709 84.654993
87.703922 29.923346 76.194676
65.357777 1.202693 99.584080
100.292054 1.822344 67.907716
80.073523 19.867352 61.079414
98.272247 29.596148 52.741400
30.853803 15.421279 48.472637
92.976352 0.082791 70.845877
87.624257 26.615744 92.194874
109.536937 14.478225 48.638275
74.716651 3.307263 9.743464
108.652506 20.503229 60.277371
54.785954 24.975749 77.305706
19.585428 29.881042 69.100398
66.449705 1.102273 87.493594
28.129240 0.930558 77.320196
57.343786 9.382884 1.210946
102.039960 28.192343 54.835705
11.264855 27.064867 76.670279
58.938850 29.136889 10.246562
42.497249 29.350197 21.614488
57.428288 29.491370 98.621266
80.188999 3.624001 71.793050
61.149379 28.425269 22.241397
74.023207 5.003427 76.720781
37.167178 25.516511 7.649420
49.237952 6.450626 81.178744
71.720112 14.713242 73.595450
42.431425 20.346624 2.536456
76.468047 28.795956 28.373881
64.562408 24.055149 81.343303
62.844474 29.230337 98.878134
56.777731 29.777199 12.735780
61.473836 22.598969 42.979392
51.839907 1.332201 9.060074
95.342249 2.321350 80.843186
17.030340 17.890962 15.693320
11.292558 2.453148 34.912932
68.621876 21.218736 3.149541
84.170008 28.819147 37.034744
41.770150 25.514512 103.836390
23.071012 5.481953 95.413816
7.719526 6.073151 76.579523
41.189639 3.905649 28.450481
62.756651 6.134350 3.572167
13.241294 17.405658 90.382867
55.863166 15.272518 109.903160
17.252988 0.881934 30.533758
13.032505 21.142819 21.618905
32.943314 3.085644 98.808826
72.967825 29.896729 21.149309
28.134525 7.410515 58.479603
71.799799 1.382678 98.005475
92.398587 6.641348 18.332572
59.998388 15.990483 0.291918
2.073359 7.509036 55.360645
90.257575 17.711033 13.228369
79.804587 23.503385 67.262303
73.885955 19.233280 105.923180
78.840489 29.472686 18.306970
44.739098 1.499233 86.849013
14.599508 0.111292 63.981688
82.751323 26.203959 13.513533
46.279211 19.877713 39.502058
28.441610 6.152830 99.748889
45.312318 12.523420 39.342548
93.861360 0.181021 39.124499
30.495036 17.649002 61.018942
76.574463 2.435132 31.571675
8.119160 8.361230 80.487779
80.130526 18.734299 59.369294
65.448588 19.103845 1.662040
26.580895 6.405831 98.787346
8.406013 20.164543 27.721199
106.131971 6.169483 64.808787
96.144178 29.820417 46.831815
59.565422 11.926633 0.543303
98.693375 28.595602 39.993167
1.691555 20.310709 63.253213
95.662586 0.284945 68.399055
94.767474 29.957086 56.863825
5.795230 4.626721 67.412564
29.235897 29.601885 28.790883
31.270850 11.082553 45.523017
74.362211 28.073782 28.631956
66.853998 0.829807 21.867663
0.833896 10.285050 55.634248
4.228371 24.431486 45.941858
47.442815 26.339730 84.261472
80.669955 19.503278 53.841562
63.357203 0.117126 17.804274
19.595103 29.564605 64.167453
46.080602 3.754457 83.773502
47.305115 21.713812 31.485010
26.492855 1.772519 71.627790
91.188965 1.266322 26.746961
19.172079 11.622928 96.188193
24.900268 26.696933 49.171827
27.071484 29.767369 29.843571
89.092362 4.912620 92.997122
81.974942 22.706512 9.615007
55.646622 5.028183 42.910930
68.216099 0.294825 20.168359
55.907288 24.946813 79.628973
106.350846 24.661606 57.346896
108.801730 9.498276 51.445857
38.173963 26.863647 29.108881
50.303731 3.323921 5.840200
70.169576 18.652722 2.655129
15.355573 13.440625 92.936375
88.690470 11.862871 12.000909
24.283830 16.845465 100.384145
32.843575 1.194190 28.933786
81.015000 3.982400 69.618697
97.056133 6.448189 23.993658
44.513779 13.417202 108.847443
27.299635 5.831931 59.925260
86.388961 9.768465 98.939624
75.574072 1.267379 27.901050
8.995969 8.660592 82.376098
32.136012 19.520538 43.245363
32.105446 0.013040 21.479700
103.498836 2.748506 53.106284
32.647578 13.885938 66.351560
36.950989 0.844074 96.035021
63.419153 20.386683 52.296911
8.497640 28.233755 61.451046
84.265004 0.490315 33.512615
50.060210 12.384577 109.452088
107.388938 6.698106 53.076065
53.590961 29.010893 89.749748
45.638006 10.786312 75.994436
108.844070 10.340952 49.159626
32.229356 13.013004 44.349310
78.880023 29.974937 22.599865
60.904037 0.107028 14.068257
50.530636 6.091794 35.554986
39.866913 8.331889 106.183548
23.067248 11.269347 99.179379
67.893413 4.452607 6.080672
35.443789 0.493896 16.008353
34.987878 6.846397 6.426907
22.712688 7.119034 96.658864
26.767885 29.345100 21.012236
15.144257 28.915321 76.995596
107.814254 22.647471 53.914157
90.499429 0.583451 49.897987
31.744435 12.692894 64.614346
74.652777 29.703619 86.656674
21.977610 28.469356 49.876239
107.716568 18.278816 40.898676
57.518271 5.324153 43.800889
81.726238 25.039114 98.577557
6.832935 10.433073 30.086969
108.181449 20.733295 63.148299
52.173142 1.185712 20.856632
58.084426 24.499644 64.467159
78.279028 0.050165 87.108454
105.731696 22.072855 70.785596
45.299311 28.783350 99.783135
89.409944 13.771401 12.178734
77.746296 1.279372 80.260538
18.672488 0.235830 76.903484
10.659294 1.501745 68.651139
80.952262 20.330739 56.520993
24.503960 0.453206 23.996926
29.471396 22.626663 64.157835
19.335394 15.770668 96.789515
45.080175 16.193657 38.184448
61.607739 7.514385 34.312402
81.586613 24.417532 10.799484
22.685265 29.702632 83.246555
58.004645 25.767144 105.254277
87.690313 29.000079 43.291612
55.983754 3.545922 24.649247
59.403453 0.268176 12.542143
64.103261 10.900934 68.639928
43.383998 24.733420 81.160129
62.414028 2.896138 103.179832
56.952554 28.658306 21.231276
83.902341 2.155342 69.468399
1.614261 17.288767 42.792930
46.120282 19.576075 74.092511
41.827102 10.795534 2.275424
100.478341 13.576263 24.295525
70.440216 29.982277 92.382360
100.192024 1.540228 65.825366
2.976650 14.192864 72.558949
81.345573 2.949525 38.449273
36.217980 25.498490 32.506116
54.219862 24.942669 51.309062
38.750114 26.969046 8.801033
57.247470 2.877153 6.337357
83.418264 0.048785 82.709920
98.213787 22.062961 85.947521
30.902888 1.580725 15.166329
91.128396 29.943512 70.906565
2.197909 20.254106 66.184992
66.424821 23.633040 80.289400
18.895066 0.770398 81.159076
31.545280 18.396272 64.790394
95.912187 28.115728 78.608830
107.640082 21.202971 65.219369
75.688142 4.254627 100.906272
7.238338 19.581878 29.354967
35.102050 6.230409 74.493427
47.515012 8.383464 39.502159
9.502977 26.601336 35.518578
65.631677 2.202096 101.555575
5.887174 15.489928 79.561394
49.920753 6.389865 72.658741
63.423559 28.754365 88.016346
47.283149 21.290220 63.038902
65.226665 27.738649 101.748115
100.844518 4.020337 34.738269
39.553860 6.685801 32.176687
88.072934 8.709723 97.100540
28.892797 20.591016 55.822781
29.412026 6.455632 44.368805
105.695426 15.719382 76.080219
13.603147 28.747015 74.812649
61.307413 29.653996 97.655993
82.605271 29.976670 25.115541
46.825501 0.517685 90.234156
42.616966 28.261778 24.369143
57.870155 24.577785 77.775178
22.888138 15.775976 10.466598
2.636635 10.623626 69.337625
59.731246 6.197961 40.844281
24.236097 0.778071 87.294313
6.275758 3.976628 43.347626
42.830471 5.370605 29.188080
39.413455 4.852513 103.548569
64.587203 12.169847 57.038802
75.580568 25.996961 76.556134
6.773496 2.554605 53.507083
31.455332 0.209663 84.402917
53.839774 13.502505 0.144479
104.839002 4.571771 45.790069
107.049097 8.475270 67.000174
82.640578 10.959604 8.180908
86.339433 27.791242 47.417437
18.517224 27.494796 86.479203
68.476261 5.852111 30.312575
45.243232 12.290450 74.419660
45.099650 21.233108 2.340590
6.092436 12.585280 79.530751
107.107608 14.033090 37.604355
90.706371 1.032452 83.051010
92.369345 1.114895 28.912327
55.849590 19.304017 109.278011
40.481784 3.336484 102.231579
55.884466 25.734656 105.363243
17.559793 10.760656 94.329542
96.181597 21.460551 20.930302
30.815868 29.983089 22.570962
57.129958 24.766954 56.415893
46.755201 23.416767 3.294139
104.985458 26.068670 53.027653
19.816096 0.824213 27.309828
69.602343 29.863684 90.123870
33.409896 29.191758 94.145927
86.043543 4.046325 94.368445
75.040182 1.049572 14.220939
0.966783 19.016912 61.299234
50.343217 6.170008 42.942163
109.180759 18.475520 48.773359
92.846073 0.751646 31.531859
22.674189 27.947804 51.687216
78.330712 15.298278 46.007103
104.100697 3.582656 47.410544
108.054836 13.150766 41.247045
53.221811 24.821514 49.312947
34.126057 22.058482 103.869018
11.390924 0.525408 58.285998
47.358481 21.435427 33.848166
77.649538 0.557275 27.038523
23.245887 24.424495 95.642046
92.464822 19.816787 94.042206
1.136102 20.568582 56.570267
101.074317 1.592784 61.849511
61.255713 13.201558 0.547552
49.278723 23.168243 74.163360
106.627493 24.353066 54.409827
35.253984 28.797069 96.298809
27.334897 26.742225 68.376293
51.128583 5.832285 61.143497
108.306062 11.117180 44.024310
60.670525 23.207470 61.600504
95.466707 14.472738 17.852422
78.496795 1.695150 78.359336
83.235984 5.711559 55.026123
48.117484 27.206370 103.119245
84.664436 0.388052 23.468930
12.083882 6.607367 85.045761
64.126654 10.932941 38.155424
25.950664 4.946889 12.976888
39.720948 20.922628 33.655937
30.599891 2.400182 75.563987
79.482459 6.756441 42.443168
54.399500 6.197658 107.042002
55.741058 3.555154 85.361700
27.709079 7.072638 54.325710
1.260516 9.354596 58.139680
48.800058 22.243621 2.324515
52.230650 24.606363 47.140689
45.217696 13.003351 51.640825
46.482381 9.772739 38.233558
76.007489 29.630890 92.737683
14.651050 10.107251 18.929447
60.998944 8.605881 108.167130
34.083208 18.733534 40.416120
85.618686 28.079452 66.603645
60.452709 6.661797 70.281360
82.442597 29.662289 79.878710
78.098822 13.118721 45.066751
85.425959 29.505196 35.221512
108.879248 18.959783 62.472361
4.541153 9.099818 36.503150
43.915062 18.296016 33.428962
91.255038 22.028924 93.865160
45.394723 17.772809 70.178049
17.208119 27.312319 24.689453
39.078104 4.972446 30.875194
19.876213 29.150801 56.016898
13.363333 29.812156 49.208519
27.054708 1.435418 36.379977
49.412675 6.650399 29.734759
58.640143 28.082343 7.846372
64.678834 17.506026 44.146834
51.095034 24.194326 75.494343
64.281166 11.318327 63.173609
38.102386 9.956650 106.329475
96.859790 21.936444 87.841078
31.028987 26.355490 73.437375
79.419075 18.032035 61.798198
9.581162 2.509258 71.133974
53.254596 0.296137 97.905036
26.574507 29.494000 88.183857
43.378578 16.886994 108.586123
4.712694 15.195260 32.918505
17.542134 29.744395 55.936520
73.184532 0.213537 93.125147
68.892521 9.259122 2.997134
3.025720 8.482687 42.511658
6.888616 25.138631 71.913566
27.390929 23.397240 55.338414
72.262055 4.973339 103.098177
60.895370 17.888946 109.327276
7.863724 3.952860 38.193676
80.309532 29.286199 79.897461
37.306259 29.612276 22.702891
98.147576 0.366594 52.926166
67.999045 28.474438 24.217230
33.030910 17.654608 105.060424
87.097757 1.360752 21.899644
11.013321 1.311158 41.533793
42.679279 1.488539 86.151305
70.994327 16.520627 2.531243
43.534629 29.738149 96.061626
81.940306 1.167230 91.941342
21.917470 0.719936 67.802848
16.077539 23.433929 89.961165
59.403885 23.966489 79.855890
33.043520 29.057538 15.491829
22.543986 1.249448 65.343711
66.146006 4.228112 27.639451
79.641669 18.658220 48.505333
82.303068 23.308613 58.626447
33.700387 25.089261 74.591679
28.319927 29.394420 78.811464
15.171045 22.240467 19.936841
103.279578 24.053739 73.956901
70.460330 27.903992 100.002180
90.954028 26.246735 89.539636
55.174195 22.205760 1.903685
26.894730 3.179682 42.366113
3.361398 10.531643 71.542669
65.875740 27.950737 24.351285
51.423096 24.330907 28.755289
52.357701 5.356537 45.894091
38.872497 7.666825 4.516479
93.019942 8.510428 17.455685
85.141416 26.297285 53.337712
72.713807 18.794209 73.365722
78.167253 23.382056 69.977930
108.989256 14.091088 65.220767
80.543408 11.128326 55.227266
85.245414 3.574544 52.639554
44.832120 18.297049 75.941646
24.927482 29.835919 31.907983
60.806834 25.743813 83.949319
83.497291 2.140308 16.808941
80.862977 17.867856 103.126867
50.758030 5.985961 37.752076
79.234002 27.929366 95.935255
17.528094 1.419485 27.936127
5.733062 7.824955 74.756025
42.506514 0.598507 88.535442
74.112693 29.541339 94.106191
100.798662 7.361912 81.426716
88.953336 17.119274 97.956833
3.453382 24.476866 56.444123
75.691392 26.851145 32.110549
106.628640 17.889322 72.889762
69.017276 0.219531 15.082247
52.762185 12.464593 109.687461
47.951135 22.093034 57.292395
46.210099 0.013451 94.594460
41.404445 19.921760 33.039410
60.374366 6.581892 45.144696
101.919953 28.223316 57.237601
86.369326 27.376560 52.044162
3.377967 5.817871 51.004686
88.765870 0.507762 27.308179
43.477217 9.140093 107.544208
31.867218 10.927161 104.199714
92.708453 29.779361 35.825342
62.575071 28.329823 8.841833
45.090289 29.866793 18.254114
56.043817 1.801401 7.982560
13.227613 4.859108 84.288692
14.006004 0.516826 70.248146
63.196998 9.277687 62.123981
64.048011 10.781985 42.326750
75.029974 1.910310 80.901668
42.961106 11.022964 108.060110
12.347167 5.750077 25.770582
35.703991 17.925270 38.633890
22.568891 29.525075 38.501189
46.620702 20.433412 35.908042
50.828216 5.938140 64.666981
34.199645 27.991874 80.075084
11.850793 22.235272 24.144554
82.816494 0.346017 22.060954
22.084583 0.782028 24.846405
68.564574 16.796674 34.080975
102.635991 27.239362 64.494271
42.322633 7.460930 31.085451
25.352944 29.521724 33.959079
63.476415 17.626587 109.015485
7.347979 3.156978 66.938258
93.071092 29.886565 52.359538
48.943581 22.882868 58.996907
47.040828 0.508598 97.945438
82.758554 5.651087 60.507446
29.628323 8.201278 63.062833
85.396278 2.203562 44.261398
67.617267 22.548780 31.062511
16.812426 28.121693 27.273050
40.817939 0.763087 87.375866
57.913980 1.089546 20.608893
36.781266 5.063391 102.861078
53.292580 20.979901 108.699846
82.147876 4.952057 64.974699
6.190230 27.067223 55.213840
62.992647 7.796079 107.459720
45.122196 16.501678 40.808332
48.921703 22.928799 33.350095
6.782550 3.169596 64.607523
9.660766 3.635868 75.416967
28.832350 28.651053 76.433122
24.954060 29.927117 80.009354
91.261323 4.071311 89.692769
12.718384 0.722391 68.580526
36.319899 19.567098 37.337394
2.969846 23.584500 59.428617
72.458750 27.689772 28.105760
74.319979 14.864867 39.150784
45.195023 13.077813 42.386814
32.269325 28.776225 80.476139
10.028509 26.021293 32.984695
74.828914 24.252468 102.768732
57.143843 5.234753 29.688008
57.917378 24.554885 54.588451
70.463991 8.059989 76.759506
37.888409 14.556240 73.245194
5.421395 24.391199 69.393516
56.061868 5.066268 76.299948
19.880416 0.499892 45.996053
90.940123 6.790655 93.252011
62.878339 21.137673 74.958986
7.716735 27.242790 65.976388
100.179068 5.316320 79.482083
81.121196 29.765091 81.973529
29.492218 9.360085 60.668142
77.195130 1.759590 13.621581
32.593975 7.070424 39.402398
107.643052 15.488961 39.384416
76.224065 22.153346 103.658679
95.067959 0.033342 55.756222
5.335797 23.523441 71.238395
13.902341 29.828533 46.944324
5.364642 19.424659 76.884961
60.752344 4.975603 105.798872
13.691814 1.797569 77.457300
4.566261 5.491658 65.557096
38.935242 13.774018 107.539344
78.894083 23.352926 101.637055
81.785409 29.557431 30.144753
87.971670 28.332600 58.716691
7.377375 3.544841 41.072257
5.161661 14.149585 78.119150
84.768695 15.427742 101.138110
26.878544 3.724096 96.106001
109.721394 17.315619 54.343170
87.555864 26.408971 17.497579
84.840165 25.089737 13.598552
88.407084 1.409970 59.054467
59.355979 23.995982 44.007999
32.331627 20.898028 41.786698
79.228160 29.371059 28.754899
8.544021 28.468546 54.726963
62.521504 8.447252 54.106387
30.173276 24.856516 99.836105
66.220070 3.274131 6.995071
82.815980 0.026254 25.921285
20.536753 28.359398 86.488838
53.190597 25.612834 84.329474
108.189533 18.818673 66.629888
98.502051 0.615297 61.873064
93.359668 10.772453 16.557820
76.970591 15.328126 105.317052
20.136067 18.016779 97.049155
107.510459 19.933653 42.015151
78.631847 17.765845 63.968394
81.295151 24.820794 43.473152
17.396046 0.770734 78.935916
16.142506 28.447235 29.438001
79.926021 14.481788 52.795880
16.450611 3.209862 24.419339
100.938973 1.557606 47.628379
107.165011 17.006669 38.155102
62.292118 8.184904 66.559718
69.133842 26.184204 81.500101
33.311796 3.261295 10.759461
44.073520 23.889319 29.314601
23.759751 28.479809 43.138069
33.757014 19.334302 69.390709
23.329284 29.840940 34.133367
98.476321 25.202568 28.469760
103.190514 4.318290 69.841942
53.548024 25.574271 105.530074
49.404401 1.109214 9.782323
37.874327 12.507468 3.037664
9.256728 1.180848 55.959735
56.821713 0.905170 9.997517
0.581080 12.903939 48.896481
79.790876 20.563157 46.796690
64.915742 13.729094 40.017451
27.941050 2.532310 38.539166
48.196271 29.956362 94.202409
91.978143 24.589796 19.224338
64.394826 10.014512 77.298404
50.857510 5.935773 57.513854
47.525923 8.417021 64.081386
80.808934 12.150884 103.160051
89.530922 29.580599 42.733038
100.407459 1.163088 50.052443
52.519866 24.686113 63.177447
76.180843 8.728556 5.794858
45.398487 12.215488 45.700292
20.860528 28.570140 23.776597
84.937364 29.787314 25.230062
80.080652 11.463776 50.655741
15.464100 5.419243 22.063299
52.659632 2.463034 103.087458
52.811905 27.396166 23.523637
87.077585 1.707039 46.832592
