<<<<<<< Updated upstream
<<<<<<< Updated upstream
56.926432 10.356586 0.868384
43.438467 2.347715 101.534448
104.961439 26.118201 54.341249
57.666896 5.362660 53.911574
105.875346 11.785641 74.811102
46.735755 6.771095 81.094522
23.102330 28.188204 46.862312
71.274275 27.588287 82.424940
2.142128 20.586734 44.707933
55.163098 20.151942 108.995178
55.529022 12.370539 109.672189
6.162186 6.433495 73.572911
55.237840 17.092080 0.202449
84.496682 26.036559 59.588595
76.564934 15.809255 67.756859
56.743264 24.837058 72.647669
57.200978 24.747608 35.921344
47.881978 7.980491 54.874751
23.972442 29.885230 82.430656
22.057381 0.477473 83.518904
26.274026 28.785676 36.482636
78.110777 0.689176 92.824628
61.491673 6.404307 28.452238
29.971585 21.625873 63.881177
82.166334 4.967044 45.172095
58.099866 10.453107 109.127441
78.479269 2.836838 12.336513
101.636281 27.681386 43.891578
45.512448 18.893458 75.707717
89.638675 0.588607 64.150620
32.666768 4.003768 74.733659
101.865421 28.271682 54.480228
22.477424 8.750663 12.427008
33.874681 24.895730 35.457281
39.043898 11.391768 107.164232
15.718395 29.729341 71.729974
35.013825 14.110193 70.101337
44.603050 3.148318 25.938538
8.171578 10.798073 82.571452
52.998127 5.229092 36.972847
50.727590 5.981812 63.647652
20.685285 18.954210 97.210618
54.003928 24.940700 34.728396
3.498586 14.831741 74.162854
55.047995 21.342841 1.445501
12.070399 8.860306 22.821944
45.289792 12.665036 71.118092
38.968248 2.805628 81.867342
43.405246 23.003262 3.649717
105.276188 4.191262 53.996187
30.214403 2.315441 34.696683
94.980398 15.498120 17.355820
64.459857 0.063917 93.130647
84.308668 25.532430 53.657381
49.457313 2.263871 23.331665
12.777792 3.235223 80.349577
27.680085 25.718377 66.121432
71.385577 7.926107 4.452371
54.056972 5.106081 61.589867
11.423080 20.416014 23.243358
33.548493 18.998525 68.907812
30.132116 2.476994 35.234748
66.756185 28.423032 86.185856
104.738579 26.363472 56.094342
84.649636 2.372476 43.092330
86.077338 2.934538 56.491052
57.235051 24.745560 45.725538
68.025972 29.726859 19.978944
19.204197 0.558131 58.767618
19.138164 29.972690 74.236316
53.452168 0.041690 94.836352
0.430449 18.383457 55.373564
32.322190 27.377579 76.902026
101.244315 1.505993 58.899237
100.222212 18.014872 85.657726
10.542687 1.726942 40.098950
55.546508 29.983610 14.523750
12.797177 26.240925 81.507820
49.894536 23.595465 55.948357
80.035916 0.549269 19.035470
23.908482 18.079807 10.101155
76.924133 25.788825 74.823484
57.442508 24.693508 48.807904
45.368272 12.317357 42.997871
15.778201 29.948657 43.421165
62.731948 21.295026 63.461429
73.574646 1.424117 12.637437
17.013472 29.877599 57.915931
64.493516 18.126674 52.190658
85.319644 1.684531 68.369016
61.106897 23.918817 3.403990
31.715794 0.070481 23.558865
104.136005 4.310170 43.557047
54.061451 29.339546 99.195172
101.641158 17.687754 83.520953
12.187723 29.223080 42.499143
101.632256 28.367792 53.012201
105.576108 24.812351 63.557850
40.354045 0.085404 90.899147
12.534630 23.723217 85.229079
60.928120 22.966318 54.370201
73.937637 18.036650 106.227580
74.538932 22.623515 104.139070
82.583471 29.469575 78.312734
55.322922 24.751755 106.329192
82.414329 6.283139 59.638652
98.592067 29.450822 59.702222
24.387624 4.627521 14.523132
5.629241 21.330672 34.228874
10.152603 4.623332 31.206728
51.387593 10.549985 109.116829
88.884380 0.681304 65.791266
64.821255 1.153639 87.907697
34.094742 0.734940 83.626104
6.983947 8.212441 31.912664
82.575430 0.109012 28.608269
66.045637 29.689810 90.518752
86.206480 27.142222 54.812122
48.084149 22.219804 66.705053
45.479170 8.481975 79.291811
31.712076 24.259788 70.940305
26.031321 25.354197 58.523243
104.703188 22.891458 37.466845
46.088573 5.742828 4.038638
100.532470 2.021527 41.537248
63.215765 8.788426 31.895502
70.808539 16.771988 35.460413
12.169591 26.521237 30.094363
26.113726 0.784254 20.987461
65.897263 0.048685 16.858857
52.776917 11.688726 109.561481
64.249385 2.518170 102.314529
12.737801 3.007579 30.394555
70.638072 13.109199 74.656265
91.256511 29.518271 57.406907
77.614854 8.835619 41.467233
72.852929 20.526489 4.129550
87.918574 16.375478 11.086523
45.016457 15.505303 49.334660
59.107428 5.890660 29.979859
48.640679 0.022544 15.171929
101.319164 26.608403 72.430110
60.921341 23.013646 40.620188
69.171731 5.930235 79.202036
108.442714 21.126532 50.474816
101.543769 14.607325 84.123125
43.074333 0.018949 16.399226
21.190404 0.471878 41.530232
28.615198 18.933427 7.378669
50.356238 6.156545 49.216534
70.166582 7.036164 32.247193
28.409810 21.776340 53.683744
102.995666 14.534460 81.698317
25.305138 27.397617 44.355338
109.295784 17.878712 48.940668
64.142040 25.864885 26.798180
76.163402 2.212774 79.321726
37.032557 26.868880 80.123689
96.743025 29.396743 41.020406
16.791849 2.968483 24.554982
104.730060 14.701530 78.376729
78.750551 19.268064 45.332851
27.309704 24.174015 60.029479
101.779522 27.622294 65.718498
74.379227 5.881327 6.955618
14.152651 14.747540 18.243093
100.765759 9.450304 26.543600
35.488576 2.858757 99.607995
61.108000 22.893553 39.877521
22.555976 1.070677 23.126206
8.597451 3.566310 72.700731
57.356117 24.715001 44.261287
23.448023 27.397565 55.845431
58.691637 5.757744 60.608013
30.025700 0.032563 23.634001
83.457226 1.159632 74.172747
106.392507 7.434664 42.471564
79.433257 22.309536 66.314618
20.838175 28.939885 49.631516
63.068702 20.891077 53.497518
54.713861 24.976231 106.152152
82.981833 0.983136 75.636991
32.672527 13.597113 66.449565
77.778682 7.639774 69.385349
6.193517 26.748163 48.137714
51.370198 5.696597 37.923211
101.677314 28.194644 49.196558
82.496034 6.761707 54.737486
28.677693 21.827042 50.851030
73.527367 4.251180 77.985601
17.418558 9.452524 93.598349
105.953240 22.014817 70.202242
8.592232 22.459922 29.533097
74.555569 7.830504 73.363543
91.097263 0.070477 39.825847
74.642222 27.342393 79.560369
52.633040 1.753949 87.928557
5.310128 7.427773 73.144610
28.469757 3.519343 69.856196
32.128403 7.333698 40.363722
89.185369 1.352232 24.057083
32.304388 23.064333 7.546309
98.985169 8.416141 24.748816
33.433527 26.027136 34.375247
34.889655 14.914444 40.156512
11.213175 25.468192 29.560169
38.810146 14.688774 107.499045
31.444906 0.655240 92.388889
90.837218 3.701228 89.588474
47.052750 29.198884 20.656844
68.490775 28.751170 86.282867
7.371470 24.124680 75.368240
21.182852 28.664211 53.725414
17.276353 16.276560 15.067443
82.382860 29.156146 77.033018
50.235470 6.216019 70.718597
71.540138 29.776299 93.948824
34.078774 10.814783 69.796379
76.549746 24.122499 36.993150
78.581835 12.042638 45.805188
96.963059 6.875340 86.634144
54.499179 5.021418 41.603001
1.570586 21.447902 53.245437
35.467611 24.126386 34.803933
73.968595 0.065908 20.617371
79.288052 22.990447 67.550836
4.130550 4.787989 52.679139
34.925347 0.520601 85.058924
103.026544 26.711739 66.173655
94.370487 11.615186 92.797654
55.410466 28.684034 100.997774
24.394562 0.437739 34.990397
97.146138 0.221214 58.592280
38.923568 3.452498 29.107189
105.260982 11.828547 33.611721
17.859006 0.131036 73.631763
77.654730 26.571307 34.534790
45.894176 8.281378 107.529537
80.422616 18.886648 52.575925
103.148172 27.123829 47.436210
28.092232 23.097111 49.795926
9.737027 27.963219 40.489915
102.234958 27.514552 45.667230
79.565099 8.205883 7.718736
14.489367 24.244175 22.845104
64.513372 18.078348 69.741035
70.950068 9.637271 106.546639
38.472287 11.388184 106.963910
36.026189 22.298320 104.523314
73.548948 10.659834 106.002786
7.561103 25.899927 71.420637
59.074092 0.023462 14.906174
57.013696 4.736668 105.853511
19.322545 29.395895 52.302065
36.386802 29.812584 87.876044
53.265649 5.162026 66.418372
105.579913 25.414351 51.234573
78.701953 9.713948 6.533821
79.931693 10.036443 61.863451
62.955339 7.094500 29.228038
72.504624 28.876889 84.628673
30.755348 24.458112 100.497442
75.332247 7.695488 37.367674
13.363103 29.380738 69.413598
61.788339 27.698533 102.412655
56.530305 29.653734 18.032597
29.609590 29.690414 27.803051
29.936720 19.186706 103.205517
80.379524 26.183323 71.052810
40.049943 27.641532 83.258086
63.337880 6.786671 106.819412
103.189026 22.398471 77.017937
56.802856 28.589305 88.606092
32.906109 0.377396 25.507118
30.498852 16.296774 60.381475
11.098811 28.592219 69.363578
88.566719 6.969755 95.541100
28.373878 5.919351 46.137739
70.110529 0.543481 96.108977
42.396505 19.309886 77.219224
79.676698 6.945637 101.462609
72.747759 28.794336 12.804766
4.292678 19.221672 74.509583
37.257130 14.638409 106.958227
6.158674 25.512961 41.792676
23.684843 29.955049 81.252651
38.886157 15.049373 2.514132
66.697638 21.572726 31.205640
94.825558 8.643630 19.205427
49.947562 23.628197 38.831975
38.375520 15.794595 2.668302
96.641341 16.964368 19.395795
95.406674 4.220564 84.989356
17.324877 7.438641 92.148615
103.160181 6.995812 76.266912
33.604825 4.229596 100.562984
57.801204 0.634516 19.402171
63.703461 24.911064 82.444657
78.490555 0.083644 85.885897
26.845302 28.837780 35.420163
56.139536 5.079099 34.422387
22.989870 0.159465 28.147852
82.468079 21.508915 9.179476
70.522839 5.490445 31.169550
107.346265 22.973651 49.309090
79.232459 20.377083 6.831067
22.781687 16.955584 10.694183
79.060213 0.482342 27.771742
99.757371 24.483777 29.461258
35.870106 21.162182 105.099819
74.208754 0.027634 19.101429
63.279199 20.587653 35.914240
67.542921 13.238617 108.370580
34.220583 0.897441 26.845582
53.601053 4.047566 4.877907
59.978179 6.328351 40.416284
61.117497 4.176712 83.975149
33.905086 12.265159 68.888934
4.175435 5.616800 46.025888
32.335834 3.569345 34.809695
28.224773 28.801336 76.287507
23.264986 7.725396 12.519358
62.721038 21.294839 58.853927
35.267713 7.954517 73.050184
21.892974 3.591183 17.973114
63.316401 20.531493 34.943703
84.742486 27.117733 64.341949
25.948928 3.572022 46.266372
65.718384 0.638444 97.798289
76.901667 19.881507 41.324162
64.301794 4.485547 104.737569
70.585620 13.670666 74.630359
105.746175 7.204665 40.605147
38.483742 18.103233 74.248306
22.533864 3.302352 92.182589
20.534158 0.101730 38.178744
50.581367 2.401279 86.596498
94.759955 29.966101 45.972866
19.934205 29.964998 35.731374
90.778400 25.249041 18.831621
4.675589 25.329155 47.955837
32.743290 10.305681 104.362850
4.092683 5.047630 60.584312
12.702963 27.085729 79.355946
29.988163 21.072693 46.768570
102.913496 5.528489 35.976265
95.399411 1.420858 77.483536
43.430003 24.697404 105.065558
80.315193 10.425745 59.534697
30.873412 15.974797 61.831168
104.691772 5.961312 40.113392
58.463541 5.648961 61.073280
37.263711 29.051810 13.421704
36.197314 6.169520 75.574723
30.256758 14.133778 51.034999
67.608011 23.775488 79.832577
23.321779 28.802160 21.961505
100.020221 6.610976 28.272671
33.050862 4.933438 73.840282
31.171725 13.586886 47.087044
38.590026 29.432574 14.309175
30.049277 19.207569 60.799260
39.459288 6.907259 105.259568
43.308281 25.248620 28.353662
70.235990 17.090506 75.002143
66.472062 27.073386 7.562896
23.909447 1.501576 42.643141
58.935588 2.329941 23.228372
4.973605 23.833369 40.738646
102.881362 3.996690 40.251175
47.554129 12.443770 0.821926
76.634019 21.216863 39.915367
62.830330 26.214877 104.247522
69.627766 15.367667 75.263274
104.768795 16.242804 31.830273
5.013810 6.857114 71.172026
92.608734 8.816439 93.202070
46.317618 22.740030 107.057942
49.922623 23.610013 71.289125
22.625275 28.278352 48.245046
48.214182 22.336753 58.374828
61.802229 7.675405 66.634210
42.129379 5.471867 104.862826
6.475790 10.995535 79.553635
57.647759 5.358377 38.015145
22.061804 28.217982 53.491760
41.848023 20.124177 32.666910
65.367762 0.052673 93.185358
59.889579 6.281592 31.896215
60.283284 6.521804 49.670480
84.155718 1.390373 38.113944
18.139722 25.623552 20.493188
70.038017 15.185210 74.962555
62.142461 7.485237 30.153696
61.696684 1.193133 100.256106
11.659440 12.798568 21.510183
13.245890 4.116999 82.909715
74.373081 0.623421 85.005523
21.701714 22.637731 13.952531
82.293545 29.722390 29.509785
35.888637 24.691059 33.734517
41.662370 20.166747 2.638584
43.726475 22.746081 30.227707
75.405044 18.741673 70.295760
77.331973 26.245285 10.451622
97.647527 0.266031 54.085919
5.804508 8.726213 33.786354
98.978062 4.817417 80.765043
77.609189 24.618070 37.585629
71.633336 0.228629 88.725068
7.274116 10.650228 80.832086
101.872576 2.768395 67.798269
61.327794 7.431578 2.512339
74.067502 7.959171 36.254229
53.016237 24.776384 34.685607
55.067844 4.713857 83.825454
75.032389 22.937811 103.738961
94.932802 16.538589 92.621147
8.630714 21.083014 28.022398
34.987011 26.386610 100.476732
14.059648 16.455885 18.418914
47.018989 13.889535 0.668710
59.025759 24.098031 64.723622
81.824883 1.676791 16.693932
103.440295 11.864807 29.728733
86.554730 27.651364 60.242130
85.278436 2.106263 66.583717
2.632009 18.438318 39.746518
80.598141 14.390114 6.411463
12.765227 29.503655 44.029635
29.336456 10.492044 7.217807
60.366879 12.063554 0.621516
46.504225 20.268720 48.337079
7.996374 23.359323 78.138206
66.139178 0.026774 16.364428
27.418906 0.096347 24.300973
50.396518 6.131339 79.973053
75.774487 0.042344 90.157237
71.389508 8.497854 34.157803
63.977946 0.018639 15.597716
11.626908 3.189718 31.791391
63.274580 9.398688 66.495593
105.912208 19.739910 73.485168
53.314331 5.163577 57.328910
76.399961 9.075081 5.686178
57.529934 24.672907 72.392152
74.458861 26.402434 31.772013
106.444774 22.649095 42.822090
88.756209 1.254415 59.495482
87.108868 29.028883 23.090568
8.190941 28.183701 50.229570
45.020058 14.235288 37.075821
92.602586 4.992735 89.635548
22.750960 28.794057 43.662154
42.747829 17.654113 76.405059
57.078490 5.219148 29.402318
78.675148 17.572718 46.327843
6.487668 3.585533 44.310254
58.997159 0.896375 99.831717
27.347748 0.321428 87.984344
15.071854 7.265176 89.533190
42.953750 29.963108 16.900324
80.263316 1.081006 31.477701
12.494973 27.321488 78.221518
97.729026 14.879196 20.517652
33.153174 25.936455 34.820134
63.987104 19.352549 46.478937
11.650731 1.823356 36.580721
47.508372 8.432431 60.416210
65.860740 25.546228 5.619754
30.162811 3.303394 37.016842
22.636236 0.632756 39.957152
74.605436 21.219236 72.642435
52.623064 24.711833 47.792726
26.381887 4.020066 96.145648
32.533337 29.618154 84.182088
39.327548 0.635644 87.079819
81.520007 10.078264 7.845952
22.667817 29.263239 85.533487
38.744459 11.686972 2.914122
9.862140 0.978514 51.205392
103.527586 7.689015 33.644374
109.204010 16.593897 46.480314
61.963055 26.939220 103.497808
52.819895 24.758493 54.111852
19.264657 11.835820 13.737967
59.096008 3.496107 5.565077
66.312778 0.039234 94.209584
79.733266 14.487539 58.775033
78.737545 10.351357 64.913443
64.956492 18.322642 1.337789
101.096656 28.202099 45.754795
33.540138 4.201650 34.657000
44.735662 11.571006 1.420879
48.715334 7.251324 63.247354
28.438998 28.985543 32.695600
2.523203 17.921460 39.824141
27.332812 2.276227 15.962651
19.720851 29.929832 71.977919
59.334919 29.353469 11.049598
73.887816 7.815622 104.616527
52.140657 5.431038 68.889165
57.660188 24.638994 48.010558
54.268984 5.033296 29.313243
81.285748 22.233273 49.447841
17.371782 29.928979 44.338522
12.166998 1.516418 37.003015
81.171125 22.205085 48.942006
10.680644 15.862908 22.566297
41.624401 16.196507 108.249721
32.758012 18.532789 42.625070
26.397600 0.444372 77.719607
44.604509 1.864750 9.002899
70.923846 7.145163 4.740735
26.041066 25.968587 61.891092
56.099795 2.775495 6.436533
12.214001 25.784093 28.483889
81.912020 9.162007 101.560617
95.925276 29.817933 45.575184
11.123265 29.266509 62.126526
45.335849 12.431210 41.308641
79.410712 17.656283 61.428630
69.494997 18.913758 107.451282
56.016512 5.091281 60.896781
38.840106 13.671334 107.488559
3.617780 17.362860 73.924795
44.425114 26.391790 83.386501
22.545056 1.508945 63.047582
8.506051 27.684739 66.540210
93.460248 29.887939 39.673852
59.101071 24.113323 34.281760
68.844949 16.089922 75.693921
78.658469 28.981874 80.348092
13.309103 0.601923 69.053858
107.633358 14.708380 39.349697
106.774707 24.199553 55.934266
78.289709 5.752188 70.917702
30.038818 16.120316 52.665797
107.059314 6.335909 58.013473
1.954050 7.776201 54.366799
99.545586 2.930349 74.937618
82.706230 15.970323 7.592615
56.237968 25.735368 84.488393
46.206219 28.176024 8.750217
16.590281 29.902315 52.765423
103.660346 2.870868 52.359337
105.944723 5.565684 46.860594
37.969661 21.291873 34.817942
69.381374 29.279031 12.958405
39.512049 8.642405 76.445928
60.743478 6.828719 38.096293
28.069651 1.024262 18.468877
105.203270 24.250520 42.536780
55.482773 28.902703 20.525253
47.840641 8.025887 34.040445
2.441747 16.819231 39.450362
97.448230 29.539248 45.340706
109.112683 15.573284 45.666303
81.560347 9.758440 101.980977
102.178246 5.177171 75.086789
73.599516 12.860579 71.930173
35.569168 4.719284 101.995140
19.146503 24.554751 91.947676
76.560187 18.552783 4.896098
5.863763 16.489892 79.417465
104.162329 3.939530 45.752547
48.028519 1.724469 8.650357
83.228820 26.551272 66.502296
39.232603 13.784761 74.478641
74.755243 25.981235 77.304772
58.850407 5.782941 33.717333
32.355353 0.386500 18.150590
104.672598 4.319713 46.316980
103.712118 20.185723 78.343734
15.695845 2.635283 26.808284
45.478176 11.949848 42.242493
46.330365 19.983581 64.697789
53.469074 3.790537 85.039399
35.637708 20.261940 72.303463
107.395794 8.202511 64.839702
63.687244 19.948365 41.066214
85.539718 1.238728 39.830252
33.921795 29.208406 83.298578
44.498071 10.447246 108.188502
102.966413 13.825042 81.754274
54.180515 0.015580 95.483704
61.273974 7.261499 41.151157
59.813813 13.932544 109.692162
107.029670 19.480840 70.325613
61.012974 29.955102 15.686791
29.909923 16.832100 56.358114
86.801870 5.353845 95.391838
43.674506 19.456383 77.507643
98.883715 18.561980 22.609507
12.864251 0.204590 53.794837
80.072918 10.823797 6.801075
61.885296 22.246348 52.822864
26.986898 25.602601 63.900577
41.606921 3.597689 82.202465
79.244140 5.359284 9.636340
95.128557 0.583331 72.898925
93.744320 7.762330 18.756077
26.558813 3.390453 66.181112
45.213115 17.030807 41.047232
84.891372 13.428725 8.985137
1.278734 16.967544 44.273469
4.048906 8.910232 71.778591
9.341092 1.660237 45.006957
17.759153 0.082687 44.026760
62.694802 0.029219 15.593160
23.332964 29.577160 73.451742
59.742961 29.557468 11.810409
77.403489 0.269226 91.360825
19.709921 11.924653 13.334571
80.662330 24.122310 43.580410
99.872024 24.034342 28.984980
78.137123 7.323689 7.526349
15.165755 28.128530 29.667522
61.255225 22.774100 43.443170
74.232311 2.719496 30.194192
20.804227 20.366646 13.283289
92.548701 5.341840 19.880333
101.289768 10.968550 83.526357
104.694019 25.332088 65.514284
44.652855 29.937922 17.039589
64.691315 28.250100 86.588029
51.131815 1.640021 101.519574
28.427616 5.115275 98.851002
27.831721 5.268608 45.943091
17.380905 27.649341 25.245908
36.161488 10.272045 105.764981
76.501785 26.380310 99.821052
29.659417 25.485675 69.730904
18.371272 25.879569 89.361087
55.038744 19.112893 109.341762
45.569875 5.769018 28.427025
53.484980 27.591614 6.985786
30.026155 0.359699 90.222352
30.429119 6.009332 68.373863
45.417675 1.582229 23.099782
95.564903 16.775493 18.084628
14.772037 23.003444 21.046828
69.387623 18.984598 2.534677
34.225610 15.139678 4.175317
99.917228 6.851155 27.733632
26.998558 0.033058 84.592466
88.746874 1.372611 55.941726
49.288177 6.807324 41.775620
47.467520 1.535925 100.846775
67.289335 29.689001 19.886557
87.853487 1.221577 64.358016
64.197375 11.120702 70.087705
69.796181 13.669363 75.248495
36.770295 23.980910 76.234518
49.608029 6.633728 70.171794
23.125144 2.382478 56.775485
60.841815 6.379048 3.145090
9.278528 28.336992 64.700189
45.158776 16.668322 63.002812
32.465509 0.429700 83.829485
35.950589 22.462581 35.854908
93.429320 0.043510 68.843386
31.056649 21.579940 66.460569
61.361876 2.814944 103.238595
7.982013 8.914916 80.852129
11.021246 1.425087 40.635543
25.986929 1.753198 39.227250
48.924903 22.865547 57.797476
86.265295 1.222049 41.268983
53.593845 5.142202 55.735904
34.235405 0.080801 22.136751
40.974486 0.258795 95.222580
17.182268 6.315655 19.110080
40.335096 19.495341 76.086197
11.242708 22.812813 25.550127
25.780103 26.241691 62.242000
71.917056 19.948108 35.475808
2.899812 11.490120 38.830562
4.149395 6.146915 44.038351
38.519327 3.326831 101.533384
108.238044 12.140808 67.276943
42.901085 7.631668 79.097911
8.428216 1.624367 57.663810
38.817917 28.015369 26.673852
45.321135 12.488863 42.316999
4.609401 11.163102 34.333911
93.917689 23.399992 19.928190
89.471736 3.001314 89.701445
1.484538 17.005939 43.227883
24.754350 0.760848 36.684825
84.041810 29.854160 30.522026
10.912480 21.286156 24.622547
50.949636 24.126707 60.997366
77.799749 10.961435 66.588539
87.824168 20.553224 97.711437
103.045800 21.537997 31.668526
55.967577 5.063345 39.088747
81.332222 25.021359 11.200637
46.910891 9.132929 68.256822
49.007689 22.953183 65.826843
87.141340 1.692996 46.970565
78.625558 3.345141 11.585673
34.425861 12.573956 4.308923
57.036948 2.104800 87.346974
16.234775 29.919270 57.862091
104.125084 9.424393 77.108167
45.177583 6.518479 106.364104
55.210977 7.886387 108.105350
51.128583 5.832285 61.143497
56.226005 29.062124 9.859638
107.350989 7.225575 61.636313
14.532454 0.596794 72.212339
44.357885 27.879636 85.578068
109.475084 14.704047 48.049781
92.515469 12.411327 94.779088
58.669999 2.884650 103.588232
79.695202 15.056130 58.780847
71.522768 19.286329 74.614911
14.433757 29.969174 51.384654
107.536321 12.536698 39.760700
31.394739 3.158303 98.077510
23.230083 1.339961 43.386732
8.059352 27.912297 62.764595
100.095210 13.271858 86.247766
67.756372 29.970009 16.935995
53.559968 17.600396 109.676909
109.042013 18.084753 62.776355
5.397937 7.909096 74.072653
56.015848 28.235401 101.942420
32.473296 5.328801 8.809348
5.196434 3.836280 51.305355
90.645207 29.859081 33.483658
92.546922 0.167787 59.986257
53.967266 24.904904 64.310789
26.337215 28.970240 74.487376
84.458737 7.293633 11.145404
83.569609 2.695102 41.960182
99.926422 8.818858 25.733078
49.363810 11.547535 109.257218
33.700387 25.089261 74.591679
52.788837 4.663219 83.962935
52.186503 29.424790 19.207823
53.136667 0.339404 11.952514
39.205332 0.381618 88.278885
32.197237 11.855498 66.107542
76.402618 0.590770 16.574646
29.846292 12.916371 55.098398
69.697639 8.771955 33.072813
31.579896 0.981965 29.285984
54.444871 24.943822 70.622744
91.586427 7.881503 16.463192
25.688652 28.731481 72.291510
106.105911 5.911232 46.321045
86.410453 0.036443 79.722283
26.726179 20.005440 101.099862
106.024964 24.704524 49.076133
70.014298 3.935479 80.848937
82.115016 7.335849 53.869010
64.707346 21.954881 30.297234
88.692726 29.604653 27.828091
14.011627 1.608308 77.208887
75.165929 13.606105 40.051589
48.637515 1.578309 22.293028
18.516607 0.068708 69.280187
1.794458 16.568753 41.617457
101.688373 24.590715 76.701863
91.712922 11.864130 95.410847
61.540720 22.493504 67.914385
69.488253 10.308887 107.185311
95.086350 12.140879 92.130170
61.115138 22.827278 59.484591
57.750100 18.466934 0.531179
30.437563 7.678740 66.026421
47.311743 29.736696 13.046835
58.063713 29.550284 91.363939
45.210786 18.980839 108.502524
47.004524 25.939582 83.643394
71.954818 29.752311 21.570954
74.071289 27.061133 99.930888
5.385366 5.527309 69.084635
89.483512 29.916912 37.130721
82.044901 0.278930 21.853471
95.493594 2.816204 81.941500
63.094480 14.180184 109.313861
31.010303 21.519537 43.735759
26.328525 26.553936 65.405559
78.778488 5.384801 39.242905
53.144810 5.200061 44.590269
0.598488 18.904415 53.962830
45.181233 16.748809 61.935265
48.433912 8.677081 1.884135
24.451751 1.256314 89.240781
103.777376 17.290014 30.122758
4.813108 4.732756 46.720097
37.907824 28.755400 25.512622
55.084105 24.998103 39.817684
12.864503 16.882714 19.972324
71.925970 0.685365 14.075929
27.814374 5.098606 98.428540
103.609666 27.194481 56.539012
36.938050 4.121314 101.881147
28.280546 7.145058 49.625287
99.394211 1.871755 71.007682
39.742521 22.331388 32.807148
77.123966 28.876255 81.353152
101.336523 5.273189 32.872613
42.788515 8.611924 2.914914
57.270917 24.734009 78.013529
82.134995 2.054190 37.110685
57.717334 5.379904 43.510694
105.153327 8.146595 37.115633
25.394622 26.511623 62.045023
34.296582 21.766582 38.283478
59.552883 26.411572 104.451577
57.246768 5.259328 33.425560
25.489783 29.394468 87.655169
80.006263 15.671746 53.497125
38.078188 9.818739 35.348801
107.569541 21.784864 46.251238
19.487522 1.363832 25.607120
21.052549 1.300835 55.549049
28.983566 8.221402 49.357640
59.583408 20.936057 1.429189
47.293203 21.331717 69.350832
27.655443 14.899568 7.373580
71.116973 0.217294 94.079525
105.792167 15.684568 34.067247
4.759413 25.854477 56.547298
17.281913 20.540562 16.528622
2.640021 22.269242 46.508186
69.936166 21.377142 76.822524
76.877852 10.185626 41.340068
36.984237 26.286336 30.814077
16.303085 0.176425 71.119946
30.226164 23.595260 67.446418
73.439505 8.132999 35.739316
97.042944 0.711793 69.196788
83.983352 27.145803 15.884806
74.524701 27.601086 11.081586
33.495930 21.049507 104.167625
24.640668 2.915955 48.004651
25.920428 26.747305 45.060728
71.542551 28.971568 85.442212
55.438599 24.980787 48.775438
76.169538 29.949784 20.026504
64.790745 16.896009 61.938209
5.287529 3.863351 50.169257
79.722794 2.188163 75.753942
89.043958 17.199225 12.071021
38.418498 13.955161 107.362659
79.816454 16.499810 51.146065
109.243461 19.455813 55.199865
66.373972 11.540741 108.386084
84.071440 11.833690 8.791351
74.033919 7.043387 104.136853
21.733620 11.129649 98.077208
53.305169 22.236813 108.040746
12.780228 25.681662 27.403612
5.594911 9.601199 33.369597
82.173132 29.523402 89.047056
7.632724 4.928697 35.902754
48.502713 7.433359 36.693498
75.540060 3.969901 100.648002
31.342340 7.141661 68.576511
40.479171 21.236302 3.430572
60.594069 26.269576 25.380092
68.677246 19.700671 2.569702
37.381367 0.211107 21.700603
102.891074 15.028280 28.143462
63.053183 29.918361 93.035548
67.586938 16.493694 34.045303
76.833437 4.577251 100.763709
81.628539 2.289734 72.917576
94.752696 17.627168 92.557020
60.723722 15.498680 0.383549
85.737737 28.545681 68.402479
63.523325 20.399629 76.553822
45.963263 3.864255 104.126955
47.707452 8.172142 49.277961
47.537338 11.208713 1.060958
20.911983 26.239468 91.357239
9.065094 2.096804 67.538943
52.505408 24.682498 34.633885
8.928291 22.812630 29.320931
96.621820 26.441162 27.927553
45.748727 23.582576 28.883873
81.059333 21.175303 50.953070
55.328451 15.283280 109.903160
76.715919 29.985327 89.203446
6.668358 24.379414 36.902254
99.515380 4.148994 31.618469
31.801397 12.531970 45.143585
61.398349 18.169507 109.239324
60.730173 27.040499 85.551321
14.229368 29.819169 64.909390
2.282092 14.135497 70.421317
87.044149 24.306492 95.525211
109.675307 15.935229 49.954778
63.815955 21.680080 2.357136
80.070196 24.819489 41.024248
41.724114 29.322010 12.779499
10.787753 28.514129 40.973712
30.883063 1.026046 30.100112
98.629499 0.557148 59.636934
8.064003 16.503277 83.415295
23.842299 1.346871 21.045002
67.126762 7.155991 106.318820
64.241486 0.596330 98.027518
45.142430 16.434764 49.958790
63.968272 10.593679 64.960581
25.781499 6.483639 11.635628
71.788248 26.964218 28.942115
85.806026 3.089902 57.775589
25.342889 29.198008 74.040424
76.042725 0.114568 23.162933
31.511081 11.347715 45.075589
0.572616 11.114223 54.901091
103.031947 26.737831 43.845202
59.550587 28.365037 8.534488
8.432243 2.999360 39.981981
45.071895 2.253947 101.811843
75.837849 27.615023 79.213212
48.080520 7.786657 45.304967
27.441485 24.160684 60.630703
84.603139 4.624101 13.794277
20.237914 0.868736 50.262486
78.018304 2.551590 33.296935
69.372177 0.236819 15.069769
26.514882 0.024122 83.495755
106.319377 5.747797 48.628434
90.623870 20.036825 95.670293
79.230461 10.423976 46.405730
8.660131 28.526744 55.035340
61.584040 0.277631 12.739195
67.629607 6.554938 4.205615
105.464673 25.629869 56.706479
57.863120 29.937294 94.213266
47.020112 24.858424 105.627297
33.079160 2.747198 32.593442
25.165388 3.802485 51.399485
26.064161 21.087286 9.809903
46.325783 23.575372 28.704651
46.422642 20.132385 69.665777
58.767162 5.773508 44.125061
105.099556 21.706279 73.353179
6.119381 15.217961 80.005564
45.443564 9.356932 78.297435
82.253682 8.205308 9.224828
79.704061 15.558898 50.961908
82.300373 12.657622 7.562349
37.334642 13.671706 3.003135
72.197617 26.536243 80.146461
105.291842 8.277533 72.733918
23.704206 2.441704 60.893128
30.791421 10.376972 6.538409
12.272046 0.637665 66.024854
19.646943 29.762411 42.390997
25.992880 1.585246 91.426311
106.884486 7.923310 43.476705
27.789849 24.122460 10.918113
96.716305 20.535877 89.136394
62.798311 21.236157 37.623643
47.289653 3.667924 104.144176
76.720481 10.482964 68.722279
29.515415 7.159159 64.679846
15.049539 29.868806 43.587635
27.493146 3.299784 14.014829
23.817690 20.544114 98.951747
76.987342 27.851685 12.706542
47.637433 8.249032 34.999319
66.853239 4.058938 103.731752
101.221202 19.178774 26.417895
78.086868 0.624190 27.753226
31.271351 19.007398 45.458117
70.016437 14.789926 2.182806
33.705892 14.766331 41.888639
16.848192 28.901828 79.871000
79.996907 14.363917 56.302618
67.698298 12.245093 33.560163
23.947292 6.043249 96.646078
76.746607 25.734437 9.567792
45.774208 11.182212 39.579343
43.839249 21.053881 78.697646
45.712544 18.653949 70.044475
77.819724 0.312439 84.335682
53.098155 5.155124 27.392896
82.723490 1.323267 74.495265
78.637600 16.859865 63.567135
0.188280 16.628851 53.330560
9.346544 22.767601 81.530829
8.340459 13.484766 83.847296
92.430284 8.186028 92.916162
47.184890 24.826991 82.626009
49.839622 6.441343 33.143490
98.865158 29.438766 55.124521
26.226522 29.467554 33.166687
29.280331 4.275989 69.476862
6.987742 14.659363 81.666583
88.928330 25.231440 17.064197
46.904331 20.865382 72.299334
47.337038 3.494459 84.443795
94.540633 5.338807 87.897574
68.413295 3.562921 27.785147
29.612620 11.663698 103.301530
66.220927 22.844748 79.846415
37.101823 15.157212 106.904144
71.738395 28.786115 12.386514
36.470297 2.540801 80.687040
19.796175 2.031034 23.074416
46.488912 4.169955 83.372617
68.525757 18.746826 33.439525
81.035877 2.299338 73.737971
108.567249 18.160167 44.499541
101.247225 13.131835 25.528249
67.086514 0.473552 96.859790
64.629426 17.692309 40.311555
72.712565 20.993669 4.265008
4.536850 14.900604 76.632784
5.082288 14.875168 77.930328
60.793555 23.940392 81.973387
45.735753 6.174235 28.705852
24.372778 28.641046 69.299534
104.007989 25.153958 41.000962
58.518316 18.828998 109.332605
60.901447 22.975910 51.749919
21.558352 29.521898 40.685214
64.419898 0.031973 94.633901
48.092433 7.776136 46.351178
55.268236 20.914175 1.229751
71.784484 0.177176 16.552709
7.642779 22.406497 78.707595
75.400243 28.425633 96.863641
106.605069 19.051618 37.804991
101.466849 1.764168 48.074471
5.002387 23.584285 39.940146
67.308843 3.209491 7.327850
20.989714 1.080686 49.126347
87.954010 0.777451 67.717576
18.586137 0.333098 62.058131
2.237409 22.424689 50.516235
77.123717 1.049826 81.601837
62.930824 21.165128 108.022636
70.421145 27.233269 27.729257
29.841115 10.469645 6.975633
11.880616 0.579301 63.474363
45.041220 14.202363 43.405100
46.416872 20.260802 76.367319
77.894002 14.822462 44.954237
107.764369 17.730026 69.388305
19.430323 0.744657 81.717395
107.518687 17.013376 39.425879
94.358148 29.953087 60.277455
59.492141 23.930799 31.153218
70.694415 11.068736 2.910639
76.974630 24.807521 73.469303
25.494716 25.739416 56.059275
88.637166 0.013020 77.668463
7.088662 21.047477 30.778668
28.451298 0.012477 24.335116
96.052493 0.072154 54.116331
24.332635 0.785097 87.418214
63.276536 19.381017 108.622996
57.967047 24.532886 32.083742
45.183951 16.713946 53.473813
85.966136 0.499350 24.249479
108.165518 12.931553 41.775823
80.071185 19.989903 48.664165
1.895982 8.927237 47.060264
29.417913 2.952076 96.619317
69.314837 14.951208 108.008567
38.134865 29.943756 17.675225
29.032191 5.286022 10.684926
50.162059 23.748747 43.148287
46.604797 25.450520 104.958358
39.791674 5.517556 5.762832
44.981836 1.159759 10.440292
21.414879 1.061007 85.640242
17.794766 29.387429 78.546020
83.103079 5.838669 54.053682
35.740764 18.078044 71.476908
45.026322 15.719277 42.097993
99.248447 27.486328 74.088079
20.282748 29.709834 80.144883
3.165086 21.165656 41.326793
72.165870 0.894415 13.395359
91.259881 9.952920 14.924170
102.085662 14.320172 83.269239
19.607961 25.974427 90.510878
61.048299 22.942239 37.896026
82.054482 27.624058 71.967982
40.550773 2.313793 26.399650
75.967258 14.590482 41.343668
12.561603 1.451437 73.478304
83.564998 0.153689 24.526951
28.950154 25.768748 98.110676
16.900115 0.603663 77.078933
76.819849 1.698370 30.099211
6.185566 18.386227 79.368401
79.790089 5.517622 100.176795
83.991023 27.677092 16.840953
50.184386 6.242886 73.421316
66.418424 0.228945 14.207068
51.696030 5.582509 77.275383
56.833420 29.877672 93.075134
5.019498 25.953806 50.899871
58.386238 26.861414 24.322559
22.047516 28.244854 56.936624
91.963041 1.199688 81.977831
83.029788 5.618379 50.845794
13.859323 1.428032 33.842220
6.704939 6.385890 35.155496
71.654800 21.181326 75.433429
64.563660 17.912748 61.773815
79.496680 11.644589 6.254154
64.707346 24.901214 27.898723
38.087805 29.794031 16.348457
49.649663 1.286224 100.647539
59.337058 5.997159 39.262782
90.706784 22.289092 15.789983
68.878643 0.378711 89.147525
44.096920 10.058435 107.989120
51.847398 0.736417 99.348936
79.382161 24.326090 9.441132
28.163574 19.795628 7.988405
1.284178 20.844791 52.133298
4.487261 8.374794 37.738761
94.480310 0.028319 62.578960
63.253009 18.472148 108.914025
26.669079 29.323276 33.439218
79.041446 0.148157 89.076511
31.263573 17.869047 63.774445
71.155382 20.403184 106.460851
16.892839 6.727371 18.963833
64.304534 11.346081 46.743265
38.214434 27.078070 9.182851
87.986245 0.032768 32.272450
41.452104 2.582142 83.534423
41.440388 7.554554 78.350485
30.836653 18.843549 46.742744
77.997872 4.654224 37.044950
28.788335 2.373329 36.749887
71.090920 28.942774 24.392273
3.144845 7.076894 64.460397
79.809790 12.379931 59.662976
83.741278 1.859903 92.374957
69.794308 5.466320 30.703372
15.342993 0.603956 74.115449
84.700719 27.261430 93.363138
100.870988 26.940217 37.831745
79.119724 0.020162 87.395551
36.884832 24.653190 77.074839
9.559430 1.113739 58.520633
67.223294 23.111129 30.483028
96.189098 0.928361 73.447185
84.411103 9.354612 9.879056
80.274212 29.973433 86.277893
80.367158 24.884282 99.515211
83.424678 2.084614 93.166660
2.903527 13.007211 71.921001
0.342472 12.082256 55.962727
9.929871 7.908766 83.111927
46.334497 19.990114 38.508146
25.655803 27.509302 67.089408
104.298005 5.265989 40.644342
50.323680 1.347998 88.493438
26.351016 3.925654 46.435439
105.090882 4.003325 54.484512
0.539608 11.555979 57.978132
6.775313 16.776791 28.906333
24.945123 0.514647 34.857744
7.204838 7.014230 77.160180
49.666232 7.079707 2.572745
8.342564 2.798380 68.676246
26.810095 12.607294 101.935667
103.481304 26.290504 66.318887
43.687547 23.196379 29.936555
79.626881 29.122487 30.061574
10.071887 2.439013 72.192347
33.419981 29.637716 25.042349
99.493675 22.378605 26.210686
2.840806 6.649477 60.175277
102.616149 22.031673 78.636551
2.896735 7.269820 63.472722
70.873613 12.229823 74.653003
50.602798 24.165136 106.582583
107.047418 23.550711 59.558215
46.843508 22.416948 80.165239
106.406366 5.323803 55.437653
43.108903 0.745712 12.117391
66.241775 23.851600 80.518887
45.880290 3.032926 25.382555
87.294075 28.808423 66.335489
83.322825 2.992888 42.291587
21.018014 1.249030 57.389782
41.674800 29.637775 13.932140
82.426156 0.300897 88.059497
50.627618 0.928739 89.664488
39.387764 0.580158 22.721053
64.635764 9.183658 31.473612
21.899624 1.331999 47.889754
71.146295 0.442926 14.666658
82.380478 0.769568 19.799615
29.594568 4.708930 69.250794
107.031871 21.126854 67.987287
94.119797 23.995864 20.871400
54.748002 26.117940 84.968544
4.789279 11.266420 33.777115
87.291660 0.166586 28.396234
14.088131 0.244464 43.565092
42.939955 0.722328 88.340966
77.396278 11.497766 5.238122
70.793155 27.550074 82.613976
30.198195 6.635335 42.942104
97.234146 28.875381 37.759468
55.423324 29.586754 18.314289
48.688833 15.740319 0.457760
94.761423 26.976644 26.481955
84.383351 22.602478 11.023295
40.121685 8.184706 3.855652
82.701274 3.447379 67.761529
52.168488 5.412148 32.806183
90.376434 25.314336 18.518222
82.791826 0.028798 25.986784
56.803852 5.180482 37.042770
90.932410 4.106847 19.946501
44.178865 2.750948 25.583496
30.065359 16.142870 57.759405
54.409184 24.959696 57.105087
100.317693 11.726708 24.590599
45.944503 21.241249 78.851281
38.882006 26.476947 29.233296
98.657406 8.268241 85.650333
86.451226 0.423079 25.120857
23.239807 29.379114 71.347683
8.838442 3.238164 37.872320
49.265862 3.406910 25.005138
101.858258 1.767111 57.897202
24.398736 0.298551 85.147931
101.067710 11.193623 84.016375
37.544215 23.157078 33.813305
2.592897 16.219405 38.546832
21.642844 21.944275 96.437667
34.671595 22.326100 6.052165
22.350947 29.897277 29.652659
66.833737 1.320989 86.749723
82.502840 20.421709 8.636146
75.260452 20.715113 38.450222
71.758537 7.556669 33.810309
2.469453 7.128535 59.476199
83.762447 22.721765 10.706910
90.385973 9.992455 95.907091
46.726097 20.591043 52.119586
35.891205 29.847786 87.800182
49.931109 28.680269 9.268997
37.994727 29.453779 95.375086
24.728706 26.631864 50.496131
45.002933 15.156520 42.129588
8.190436 4.212524 73.467095
100.379883 1.164193 60.374596
81.180891 2.891969 13.879378
79.898856 24.432430 9.790417
106.344235 7.369276 67.465590
44.299031 29.076774 11.165390
35.007941 27.075634 99.497958
57.271604 5.265251 43.109858
37.631843 0.016129 18.293437
95.869051 4.270820 25.546787
35.310246 23.884125 6.889167
103.512527 7.214405 34.196890
93.080027 0.168143 37.629487
25.838152 17.267755 8.675532
26.019531 27.816112 40.802977
96.196568 0.772777 37.873498
35.487087 10.165857 38.134933
45.980644 10.754401 53.035463
63.941039 19.420345 60.837391
34.617916 9.270676 38.587757
57.792955 0.216153 12.833075
65.506480 16.989355 34.830029
70.560097 29.949500 91.439445
91.235141 3.523720 21.122580
71.806680 17.598071 2.959255
62.245337 9.399071 108.384721
30.486159 8.199730 44.568953
4.380494 4.588133 57.856918
78.629459 11.318730 64.555816
88.555426 0.228839 80.840887
26.217862 3.401455 65.241618
85.106604 28.266199 19.061463
29.572287 11.530962 54.438702
44.469608 0.471538 89.862024
69.909120 9.881046 106.929912
92.702957 29.216782 31.067014
76.271568 1.000606 82.442700
75.200267 11.216981 39.395571
57.705577 16.458769 0.202955
76.817334 23.163914 71.656240
43.010880 0.898458 11.596616
93.784405 5.181130 88.560529
5.835904 24.116224 38.573772
45.824655 18.931599 69.575038
69.361851 4.262107 29.195323
40.833351 10.975033 76.267442
85.745173 0.867926 71.884475
22.592625 0.104769 29.334112
46.098952 1.042925 21.536482
15.854953 29.038314 77.736788
105.743357 10.641966 35.781131
56.894233 24.800764 49.227785
88.612638 0.064925 34.698251
80.360107 28.952243 31.451344
70.070012 27.041595 101.459929
103.988386 3.219003 60.051357
98.719205 28.075635 36.921674
79.888929 14.135044 57.915504
105.408105 4.704638 48.415856
57.416302 17.455861 109.689992
96.506514 0.920117 72.618711
55.011262 6.310129 2.828259
48.215990 7.662471 74.062978
12.023723 0.336921 51.763151
28.302194 28.180587 35.769750
56.839675 15.337706 109.903160
60.587088 2.467156 23.700754
30.842996 25.202191 38.877121
26.838749 0.544790 77.487950
13.823346 9.449109 20.274365
27.126241 2.394279 39.472724
109.859224 14.615132 52.327644
95.597000 1.108702 34.266027
61.057483 23.261238 29.308896
42.930148 24.381037 4.805057
7.622323 7.440743 78.495565
25.498017 24.456420 12.713993
31.674102 13.015973 45.604084
80.792641 24.337438 66.600386
71.010575 27.343884 100.669062
73.414277 1.370104 26.699860
46.331597 19.985733 60.332363
4.558988 5.048351 63.747266
23.619529 8.444429 98.260147
62.829756 21.181954 51.995392
28.575511 28.403809 75.238608
86.032514 29.815157 26.675853
107.858409 19.486813 42.752797
96.093088 7.009453 87.936929
12.417006 29.075690 40.101955
81.225889 5.920799 64.979884
99.706123 7.499107 83.284599
37.121724 21.683868 105.246004
50.261639 23.800221 66.179113
42.698079 0.106384 91.200295
22.465721 4.716338 94.076213
64.258951 18.773350 73.689458
44.885004 2.140400 85.724913
78.731412 10.388258 45.038582
7.234566 23.742787 75.782456
60.241394 29.365650 19.694180
69.914821 8.628919 76.833607
83.406889 25.508670 13.095861
81.049029 4.155688 40.887607
27.741406 4.877859 64.846481
33.991975 29.961797 88.973382
62.592480 0.160936 92.160264
19.909244 26.690475 20.313983
6.318391 27.051733 58.686259
73.593356 1.835647 98.270335
92.761877 0.081135 45.749840
1.308858 13.118447 44.041045
108.292417 8.410629 58.073673
26.448768 22.898166 99.294637
102.289683 23.921265 33.477741
53.307901 1.648188 88.168894
15.577729 27.257106 26.705303
73.494453 15.143538 3.272626
109.608663 13.786004 49.331573
54.697545 4.135732 105.228421
58.485354 14.709170 0.194721
104.605785 8.793375 75.260391
78.736608 9.201321 103.300729
100.052608 11.274267 24.378706
46.876752 9.183866 55.877608
60.340149 29.679956 18.252142
28.019142 29.751289 87.864497
89.206805 1.202885 55.608821
63.530882 27.067108 6.928439
14.990123 28.010423 80.446052
83.444649 5.160530 50.903886
86.065140 4.875873 14.532765
56.118840 0.522421 18.878218
80.149142 17.062247 54.962757
29.548869 6.875669 100.976916
45.816082 2.384012 24.428865
65.737395 19.024286 1.696298
23.934882 27.872198 64.124054
104.990166 11.078954 33.455269
8.332913 5.664651 32.884818
58.130859 5.546009 38.325254
45.412160 17.820181 46.411076
13.770111 29.554160 68.730436
41.154306 8.733129 3.243482
2.069405 14.128099 69.762576
58.793872 24.217644 49.819131
47.216098 29.898231 17.450988
69.152627 27.901446 9.564274
16.178286 29.881705 69.588707
85.574125 0.512551 35.586882
106.260896 15.065054 35.327619
31.755067 1.837305 78.258379
65.571163 0.461899 20.134167
53.523734 1.421584 21.421970
71.357332 2.612255 81.981894
34.981144 18.187932 105.825049
70.047707 26.549308 28.481584
28.836653 22.704592 47.716228
51.763850 20.628418 108.753975
39.009074 26.561747 80.985653
70.902746 2.920858 101.112390
105.837331 7.821386 70.281020
35.096542 1.711351 12.597383
56.043193 24.889165 55.005596
19.063287 8.211031 15.642010
55.490380 1.574998 101.543195
16.533514 8.920078 92.453430
73.616229 2.601737 99.599325
18.617220 6.509535 92.546798
60.975410 7.449540 107.560612
64.331477 22.249212 29.977730
28.987950 3.793167 70.109794
41.236870 29.866046 15.738989
57.727868 5.382797 47.559442
49.080230 23.302272 80.649322
48.909977 7.087456 37.775261
34.115993 0.620720 26.020462
60.157295 6.442021 67.291436
49.059573 4.641724 105.434557
107.162768 12.863426 38.225503
75.306633 1.220507 82.468275
20.318400 1.016156 54.785480
106.946236 10.299238 70.345009
60.282311 3.092623 6.251695
60.221956 6.477578 39.890554
79.828544 4.243157 98.796224
84.471104 8.088733 99.304792
42.947965 1.151370 99.037499
80.722129 5.798466 66.457703
82.399404 0.247139 87.516261
66.804625 4.478825 104.195166
68.645164 14.915689 34.335463
13.353622 5.562372 24.569414
57.018129 25.809414 25.477086
12.353540 0.452893 63.581221
102.126815 21.379039 80.311248
74.578092 19.219670 4.343772
37.651543 4.236957 102.256989
7.470477 25.497249 37.610121
49.043622 7.009416 69.063107
78.537464 28.771583 94.340301
36.562873 29.471286 23.954487
15.293331 2.131358 81.331454
37.599730 15.899957 36.964694
28.071773 24.351785 63.656648
64.487342 18.434218 74.794535
37.304687 29.858509 92.694024
5.174206 10.300666 33.715677
30.433383 0.557535 91.312209
3.444475 8.114358 68.275749
64.431848 25.591702 27.157232
35.918551 28.174857 81.807360
8.406916 8.871756 28.457462
23.255074 4.371236 94.243789
9.729087 2.074584 69.553161
71.748634 2.871170 9.247254
27.534382 23.869300 50.116628
42.865054 17.795732 108.301932
6.801727 23.802118 35.300195
36.391535 13.762654 38.159569
7.601169 10.745885 81.526550
64.909225 16.314504 71.693511
46.894774 20.764387 46.557649
88.663348 1.228027 60.600245
46.468701 0.707215 98.543502
109.186825 11.308998 61.003171
62.560267 8.471067 36.289840
100.484805 1.556801 45.256589
20.788863 11.867094 12.415601
83.825558 5.487608 97.689618
104.742227 4.036824 48.726076
87.435922 10.917239 11.383541
50.935477 5.873463 80.006843
78.337642 11.368131 44.765917
106.354704 6.037194 62.651414
27.316229 23.564712 53.852122
15.784935 1.335254 30.845708
108.914327 17.180694 64.645915
45.733807 29.424723 12.087440
49.379372 12.049504 109.340318
49.120381 27.517098 86.206133
45.163107 13.274948 43.476661
38.479999 19.627012 3.402315
78.452684 24.174506 70.539800
40.050497 26.576049 28.383855
80.042280 13.719968 56.408632
97.802734 29.717891 56.136111
83.917589 1.841086 70.613059
70.506565 0.034803 92.707555
17.718278 3.975164 21.528812
55.207512 24.995312 32.320236
79.349159 0.585812 81.281744
15.660387 18.574368 17.250872
99.951591 25.077618 30.765053
0.818385 10.733960 51.117064
19.218512 27.352755 87.565330
29.895594 13.546412 55.171269
90.276822 28.064115 23.432598
88.007213 23.553570 95.483205
33.191236 10.749738 104.724424
80.243332 10.871224 59.270360
65.440104 28.481919 86.752071
45.040809 15.861433 56.263789
108.168318 8.064629 52.986650
33.702675 22.184924 71.318285
75.751535 7.076236 103.426840
102.683169 14.594700 27.783360
5.221675 20.015832 76.035999
20.873234 25.602083 92.230364
68.728862 11.657600 76.320941
15.913800 0.068674 57.520334
18.770299 29.503839 56.708166
58.458165 0.877891 99.812994
39.298546 29.139445 23.620492
102.964596 27.634797 56.641767
105.241795 19.874276 34.926478
50.992542 15.345848 109.759874
68.370404 25.448685 6.117431
28.209032 1.186092 76.321548
12.253124 23.863791 84.680279
83.417277 26.971932 94.867675
75.089620 8.157970 37.491140
52.635619 24.714961 43.492579
40.367168 0.103888 19.607024
48.187379 22.312248 54.869168
76.469519 0.038110 21.326246
82.848125 2.158706 38.612996
78.744693 29.642126 26.694697
29.259221 20.048359 102.505080
100.429362 5.926209 79.991666
13.587732 6.430939 23.139809
64.405986 0.428590 90.368138
70.171357 10.329478 107.017011
9.828044 7.472034 82.524069
28.960824 3.335501 13.042991
93.508957 0.697028 77.004411
51.807097 5.588197 68.516700
16.589934 26.489793 23.651500
80.365780 10.640617 58.829909
68.150856 27.912441 84.648089
17.585788 12.791675 94.958893
63.183754 28.554430 22.442836
27.882499 5.567706 46.677756
105.508808 8.146760 38.071243
55.400813 5.015010 42.451034
63.581107 20.126297 54.707012
101.770727 13.774819 26.208869
83.724873 25.306559 59.885623
30.694513 0.603021 18.283279
28.166174 0.529685 20.425230
40.426162 20.024257 76.371824
22.022762 0.104498 79.910361
9.607442 28.561204 46.099025
64.860729 16.627571 40.230294
80.181752 21.295704 62.954434
15.470291 21.908448 19.311347
49.116362 4.277737 105.059373
98.890323 5.308663 81.718951
107.770011 22.658129 52.068873
42.175034 29.221279 12.280407
59.981708 1.794437 101.752353
54.695139 0.101733 16.631416
51.159750 5.734656 28.388821
61.397584 22.873962 30.112943
73.652717 11.320990 37.622013
19.523597 0.625582 81.160925
83.478371 0.498270 77.446722
62.521632 4.034262 26.180036
45.159222 13.449947 50.924411
93.294714 20.675054 92.870165
14.816347 12.473159 17.869675
61.962914 22.172914 38.967157
55.225503 24.991637 62.002940
75.892103 1.194251 82.092503
0.627385 15.444003 47.074850
41.500537 18.276030 2.083134
41.832981 0.151939 15.396898
83.607544 15.497427 8.138471
42.194512 29.428576 13.021451
34.140287 25.605633 100.988997
48.524713 7.445491 42.197973
29.877385 5.446787 41.586426
41.182782 17.835771 2.097000
79.409960 29.815903 83.876760
44.731671 2.791655 7.506748
45.199112 13.036704 39.823376
38.285540 15.288933 2.695469
106.582767 6.260243 62.253338
62.744151 21.291151 67.329391
78.281712 0.839747 93.334621
81.080813 17.676953 6.917534
68.022017 0.061611 93.853931
45.400310 12.203877 70.540651
107.056116 23.013186 62.776127
15.532252 0.022283 46.734242
75.186376 11.656230 4.315666
84.383581 24.043291 97.741713
36.484282 3.826472 101.385986
47.662197 8.221837 48.589465
68.845681 15.221723 108.129025
4.241201 8.842076 37.697435
20.204426 29.491321 65.069498
6.319615 5.115373 38.928180
