9.114368 3.444915 -13.191131 -0.000294 0.258819 -0.965926 
19.454971 5.184955 -12.657057 -0.000395 0.384561 -0.923099 
8.500444 12.586908 5.268860 -0.002617 0.906304 0.422618 
27.017355 21.302677 1.838584 -0.000001 0.311865 0.950127 
28.495594 20.257549 2.176809 -0.010217 0.224334 0.974459 
28.214657 21.080908 -8.943632 0.000156 0.147187 -0.989109 
28.199009 16.750484 -15.614324 -0.000778 -0.200639 -0.979665 
41.547653 8.566441 -18.922274 -0.004566 -0.676275 -0.736635 
28.195768 2.792388 -22.725166 0.000409 -0.783176 -0.621800 
30.968897 -12.225798 -17.444448 -0.000000 -0.977493 0.210968 
25.598156 -12.228847 -17.458576 0.000000 -0.977493 0.210969 
25.160978 -12.128734 -16.994715 0.002049 -0.975461 0.220165 
31.803999 -20.945948 -5.789807 -0.003547 -0.624762 0.780807 
41.264660 -14.351035 14.781687 -0.006502 0.408507 0.912732 
41.265301 -8.430055 18.798700 -0.007475 0.696216 0.717794 
30.968897 -8.994439 19.310078 0.000001 0.671451 0.741049 
25.598347 -9.007104 19.321554 0.000000 0.671451 0.741049 
25.157887 -8.665126 19.011694 0.001938 0.678123 0.734946 
30.968897 12.225799 17.444452 -0.000001 0.977493 -0.210968 
31.803999 20.945948 5.789806 -0.003549 0.624762 -0.780807 
40.974586 21.414894 6.187291 0.003417 0.689615 -0.724168 
85.363876 -7.140000 -4.495081 0.000000 -1.000000 0.000000 
86.161240 -7.140000 -4.313768 0.000000 -1.000000 0.000000 
85.363953 7.140000 4.494510 0.000000 1.000000 0.000000 
86.161110 7.140000 4.313108 0.000000 1.000000 0.000000 
85.363876 4.495082 -7.140000 0.000000 0.000000 -1.000000 
86.161400 4.313759 -7.140000 0.000000 0.000000 -1.000000 
74.172783 7.630730 4.611757 0.001236 0.858859 0.512211 
94.454285 7.140000 2.108094 0.000000 1.000000 0.000000 
80.495102 7.921436 -4.050414 -0.000162 0.903233 -0.429150 
39.267399 -19.030409 -2.354566 -0.000000 -0.143359 -0.989671 
93.692924 -7.140000 -4.150062 0.000000 -1.000000 0.000000 
93.696716 7.140000 4.140117 0.000000 1.000000 0.000000 
93.691856 4.148039 -7.140000 0.000000 0.000000 -1.000000 
78.517250 8.787144 1.558266 0.000169 0.984533 0.175201 
62.004677 -3.561369 13.164822 0.002684 -0.258817 0.965923 
15.217051 -7.658199 -11.307787 -0.002203 -0.566055 -0.824365 
55.763763 13.440544 2.539339 0.000975 0.982780 0.184778 
29.554882 -5.325939 -21.730639 -0.001892 -0.968969 -0.247176 
29.787258 -12.447698 -18.704229 -0.002325 -0.996930 0.078258 
29.787258 -9.974490 20.132139 -0.002325 0.566242 0.824236 
29.554882 5.325941 21.730639 -0.001892 0.968969 0.247175 
29.787258 12.447697 18.704229 -0.002325 0.996930 -0.078259 
62.412075 7.857772 -11.144757 0.002268 0.573575 -0.819150 
50.130394 9.486618 -9.848394 0.002228 0.700080 -0.714061 
41.464993 21.222559 1.864881 0.000001 0.311864 0.950127 
25.859913 20.993273 -1.938589 0.000000 0.306042 -0.952018 
31.869074 18.433113 -14.173062 -0.000001 0.935019 0.354597 
31.869074 12.473990 -19.622818 -0.000000 0.999910 0.013414 
41.809593 5.620959 -18.253155 0.000000 0.999529 0.030674 
31.869556 -17.159267 -15.692073 -0.000000 0.186842 -0.982390 
32.619762 -19.105492 -2.343690 -0.000000 -0.143359 -0.989671 
41.678822 -20.996410 1.937580 -0.000000 -0.306042 0.952018 
31.869080 -22.168932 7.013818 0.000000 -0.757354 -0.653004 
31.869080 -18.433111 14.173054 0.000001 -0.935020 -0.354595 
41.694294 -14.840842 14.981364 -0.000001 0.377503 0.926008 
41.694294 -8.821898 19.153742 0.000000 0.671451 0.741049 
31.869576 -5.010096 22.706406 -0.000000 -0.944196 0.329384 
31.870798 -1.297857 20.115051 0.004417 0.931588 0.363488 
31.869074 3.057676 23.050079 -0.000000 -0.774599 0.632452 
41.840927 9.278093 19.563969 -0.000136 -0.662899 0.748709 
25.210400 12.291701 17.749802 -0.000037 0.978740 -0.205104 
31.869074 21.490791 8.877016 -0.000000 0.160420 0.987049 
41.358299 20.029621 5.078494 -0.004019 0.590176 -0.807265 
-6.829154 6.812889 -4.881547 -0.705757 0.580331 -0.406353 
-6.829342 8.340741 -0.820853 -0.705758 0.705757 -0.061746 
-6.829387 8.118436 2.081343 -0.705758 0.684313 0.183361 
-6.829390 5.990101 5.861712 -0.705757 0.500952 0.500953 
-6.828850 -0.640011 8.357055 -0.705757 -0.061747 0.705758 
-6.829390 -4.732490 6.916974 -0.705758 -0.406352 0.580331 
88.032944 -4.870270 7.140000 0.000000 0.000000 1.000000 
48.389267 -12.604971 -5.288411 0.000567 -0.921537 -0.388290 
61.546432 8.372424 -10.786791 0.003353 0.583313 -0.812241 
2.535861 -0.618067 8.870927 0.001583 -0.075013 0.997181 
40.223839 -19.560173 -2.277828 0.000036 -0.143610 -0.989634 
70.562126 -8.841106 -0.958899 0.000617 -0.996070 -0.088564 
70.563400 0.959208 -8.841079 0.000586 0.088554 -0.996071 
53.021301 -3.820362 13.119275 0.001421 -0.274350 0.961629 
51.062622 -9.897706 9.421350 0.003107 -0.709369 0.704830 
61.825893 12.695031 5.039392 0.001440 0.918404 0.395641 
51.558270 10.988830 8.136248 0.002011 0.809138 0.587615 
31.312494 19.747869 2.250639 0.000886 0.158183 0.987409 
39.802773 -20.001379 -2.213916 -0.008330 -0.180669 -0.983509 
35.459900 10.897633 20.698013 0.000001 -0.511573 0.859240 
57.368149 -7.701234 11.272502 0.002792 -0.573574 0.819149 
28.021990 18.244598 -15.268119 -0.000001 0.766045 -0.642787 
28.035551 11.879771 -20.611919 0.000001 0.499999 -0.866026 
37.457378 5.630403 -18.560894 0.000000 0.999529 0.030674 
28.021990 4.162016 -23.423460 0.000000 0.173649 -0.984808 
28.447645 -14.941841 -15.023371 0.000000 0.371827 -0.928302 
28.035551 -22.349518 8.153480 0.000001 -0.939693 0.342019 
28.035551 -18.213024 15.305750 0.000000 -0.766046 0.642786 
28.446711 8.903114 19.228363 -0.000000 -0.666902 0.745145 
61.232025 -13.327409 2.964905 0.003984 -0.966861 0.255270 
60.194313 -13.089976 3.862671 0.002908 -0.965921 0.258819 
49.974586 9.263745 10.032141 0.000781 0.700668 0.713487 
10.741531 -9.193364 -10.101684 0.000077 -0.698197 -0.715905 
16.273979 4.100600 13.034706 -0.000001 0.288906 0.957358 
33.336895 18.305651 -13.836954 0.002564 0.932457 0.361272 
33.336880 12.469170 -19.263382 0.002563 0.999785 0.020567 
30.640474 -5.451352 -21.089251 0.000152 -0.987746 -0.156072 
33.339569 -16.762728 -15.616653 0.001132 0.194595 -0.980883 
33.336689 -21.934334 6.741733 0.002337 -0.753086 -0.657918 
38.686081 -19.101479 4.518289 0.000001 -0.473201 -0.880955 
33.336758 -18.305639 13.836929 0.002331 -0.932685 -0.360685 
27.872646 -16.355911 10.724835 -0.000000 -0.745967 -0.665983 
33.336922 -5.128707 22.366404 0.002555 -0.946519 0.322639 
33.339569 2.802805 22.737926 0.001133 -0.779569 0.626315 
30.640474 5.451352 21.089252 0.000152 0.987746 0.156070 
33.339569 21.093029 8.941662 0.001133 0.152620 0.988284 
73.805542 -2.566335 8.517032 -0.002175 -0.267740 0.963489 
73.135017 -8.174057 -3.508664 0.000746 -0.906735 -0.421701 
73.971100 -8.851997 -0.834415 0.000000 -0.996195 -0.087155 
73.135010 3.508285 -8.174233 0.000731 0.421719 -0.906726 
59.399578 -1.392414 13.574647 0.002542 -0.087155 0.996192 
60.956738 -13.074749 3.910935 0.002923 -0.965895 0.258918 
51.161201 -13.679261 -0.128995 -0.003555 -0.999890 -0.014386 
55.169254 13.129597 3.771270 0.003540 0.964411 0.264383 
0.760611 1.658109 8.760391 0.002970 0.194060 0.980985 
0.277811 -0.773954 8.857288 -0.000000 -0.087156 0.996195 
33.677193 19.056644 2.350767 -0.000000 0.143359 0.989671 
33.852650 18.579268 -4.237784 -0.000000 0.473200 0.880955 
33.852650 16.009396 -10.336700 0.000000 0.745967 0.665983 
33.849899 11.506089 -15.182693 -0.000000 0.928760 0.370683 
33.310593 5.648349 -19.145706 -0.000710 0.999572 0.029237 
33.852650 -0.947148 -19.032890 -0.000000 0.949741 -0.313035 
33.694824 -7.505869 -17.695887 0.000000 0.785401 -0.618988 
33.852650 -12.959664 -13.971225 -0.000000 0.526329 -0.850281 
42.089462 -17.322811 -12.001116 -0.000000 -0.846387 0.532568 
33.852650 -16.956539 -8.696192 0.000000 0.203774 -0.979018 
35.915165 -18.928352 4.425294 0.000000 -0.473201 -0.880954 
31.059626 -3.136147 23.146189 -0.000000 0.774599 0.632453 
33.852650 0.947148 19.032890 -0.000000 -0.949741 0.313035 
33.888977 7.398209 17.559280 -0.000000 -0.785400 0.618988 
33.852650 12.959665 13.971226 0.000001 -0.526329 0.850281 
33.852650 16.956543 8.696191 -0.000001 -0.203773 0.979018 
79.194733 -7.870941 -4.158698 0.003002 -0.894671 -0.446717 
79.194656 4.158611 -7.870982 0.002998 0.446708 -0.894675 
62.171402 -12.954025 4.347834 -0.000934 -0.959458 0.281848 
47.527267 8.932689 -10.360413 0.001200 0.655327 -0.755345 
0.710595 3.696761 8.086347 0.000000 0.422618 0.906308 
11.428742 -12.926478 -4.458548 0.003051 -0.953905 -0.300093 
42.062565 20.116728 -2.203205 -0.003653 0.207751 -0.978175 
30.674097 -5.613736 -17.975882 -0.000000 -0.999426 0.033871 
25.024906 -9.663402 -19.908817 0.001710 0.625136 -0.780514 
26.150524 -12.219251 -17.414116 0.000000 -0.977493 0.210969 
30.674135 -11.423306 -14.971813 -0.000000 -0.927569 0.373652 
25.024965 -15.889858 -15.403096 0.001717 0.320485 -0.947252 
30.674416 -18.374594 -4.126385 0.000000 -0.470380 0.882464 
25.024876 -22.073557 -1.585554 0.001719 -0.363416 -0.931625 
26.150581 -8.971539 19.289330 0.000001 0.671451 0.741049 
30.674135 -7.254314 17.378778 0.000000 0.787377 0.616472 
30.674135 5.613737 17.975901 -0.000000 0.999426 -0.033871 
30.674135 11.423307 14.971812 -0.000000 0.927568 -0.373654 
30.674416 18.374594 4.126386 -0.000000 0.470380 -0.882464 
27.242876 -5.631505 19.812380 0.000211 -0.994861 0.101252 
6.128675 4.151391 7.874349 0.004826 0.456836 0.889538 
57.582520 -13.221645 -3.362328 0.001466 -0.965569 -0.260144 
10.971133 12.644690 -5.169688 -0.002271 0.912133 -0.409888 
66.908775 6.990691 -5.517310 -0.003680 0.795933 -0.605373 
67.045700 -6.939062 5.594989 0.002878 -0.782705 0.622386 
67.045700 -5.594988 -6.939062 0.002878 -0.622386 -0.782705 
89.273811 -4.964458 7.140000 0.000000 0.000000 1.000000 
27.211597 5.639392 -18.853815 0.000000 0.999529 0.030674 
27.423105 -17.513447 -8.812107 0.000000 0.203774 -0.979018 
39.818604 -19.877533 -4.960434 -0.002222 -0.564582 0.825374 
25.981546 13.432163 14.263706 -0.000000 -0.526329 0.850281 
3.803870 5.861608 6.712219 -0.002795 0.663288 0.748359 
7.272175 4.730768 7.541435 -0.009000 0.547221 0.836940 
5.184759 5.543420 6.972409 -0.000277 0.614930 0.788582 
4.838360 6.807691 5.766137 0.001363 0.761099 0.648634 
4.837149 7.706011 4.495727 0.001434 0.862246 0.506489 
4.837149 8.369642 3.089232 0.001432 0.937101 0.349055 
4.837149 8.778924 1.588944 0.001433 0.983477 0.181029 
4.837149 8.921452 0.040561 0.001446 0.999971 0.007541 
4.837149 8.792964 -1.509180 0.001450 0.986091 -0.166202 
4.837149 8.397307 -3.013153 0.001446 0.942247 -0.334915 
4.837149 7.746430 -4.425716 0.001437 0.869757 -0.493478 
4.837149 6.860301 -5.703526 0.001446 0.770870 -0.636991 
4.837149 5.765704 -6.808122 0.001447 0.648553 -0.761168 
4.837149 4.495746 -7.705998 0.001435 0.506492 -0.862243 
4.837149 3.089414 -8.369556 0.001444 0.349094 -0.937087 
4.837149 1.589011 -8.778905 0.001436 0.181043 -0.983474 
4.837149 0.040542 -8.921453 0.001444 0.007536 -0.999971 
4.837149 -1.509381 -8.792946 0.001437 -0.166243 -0.986084 
4.837149 -3.013199 -8.397294 0.001444 -0.334923 -0.942244 
4.837149 -4.425536 -7.746513 0.001449 -0.493442 -0.869778 
4.837149 -5.703486 -6.860329 0.001447 -0.636984 -0.770875 
4.837149 -6.808248 -5.765578 0.001437 -0.761193 -0.648524 
4.837149 -7.705922 -4.495852 0.001446 -0.862229 -0.506517 
4.837149 -8.369529 -3.089474 0.001446 -0.937083 -0.349104 
4.837149 -8.778905 -1.589013 0.001436 -0.983474 -0.181043 
4.837149 -8.921451 -0.040562 0.001446 -0.999971 -0.007541 
4.837149 -8.792963 1.509181 0.001450 -0.986091 0.166202 
4.837149 -8.397312 3.013133 0.001448 -0.942249 0.334909 
4.837149 -7.746514 4.425535 0.001448 -0.869777 0.493442 
4.837149 -6.860329 5.703486 0.001447 -0.770876 0.636984 
4.837149 -5.765579 6.808249 0.001436 -0.648524 0.761193 
4.835323 -4.495098 7.706451 0.002921 -0.506010 0.862523 
4.820732 -1.917306 8.690938 -0.009771 -0.239479 0.970852 
73.132607 -2.117834 8.637208 -0.000000 -0.258818 0.965926 
65.039902 -8.542871 -2.469897 0.000740 -0.964970 -0.262359 
65.039902 2.469863 -8.542881 0.000740 0.262354 -0.964971 
41.908592 15.851208 9.404530 0.000000 0.866025 0.500002 
41.915352 -18.187349 2.987471 0.000001 -0.984808 0.173647 
41.908592 -15.851205 -9.404528 0.000000 -0.866025 -0.500001 
47.805519 -13.684198 -0.018009 0.001077 -0.999996 -0.002792 
29.003244 22.481964 -7.789589 0.000000 0.939692 -0.342021 
41.999916 17.640177 -12.509502 -0.000002 0.849632 0.527376 
25.180916 -15.586498 9.863016 0.000000 -0.994741 -0.102426 
29.003204 17.987034 15.575073 0.000000 0.766047 0.642785 
88.687607 -4.924668 7.140000 0.000000 0.000000 1.000000 
101.973099 5.331080 4.285169 0.993239 0.071363 0.091559 
50.286163 -10.869634 8.299055 0.001103 -0.798835 0.601550 
39.825031 20.278038 -2.168512 -0.000095 0.235690 -0.971828 
39.841911 1.391757 -20.358047 -0.003045 -0.915119 -0.403173 
39.811127 -14.108381 14.682763 0.003401 0.449374 0.893337 
39.811146 -8.235728 18.622623 0.003404 0.727821 0.685759 
39.982265 19.888979 4.969318 -0.001065 0.567252 -0.823543 
82.489090 -8.720078 -1.808555 -0.005127 -0.974186 -0.225689 
82.489700 1.811438 -8.719305 -0.003571 0.227311 -0.973816 
37.375668 22.228954 -7.083431 0.000001 0.757354 0.653005 
42.473099 16.524431 13.049535 1.000000 0.000000 0.000000 
46.596935 -9.515216 -9.833954 0.004714 -0.699450 -0.714666 
46.148609 11.923871 6.714342 0.034295 0.871013 0.490061 
42.635391 5.904588 15.074000 0.957057 0.115273 0.265997 
45.479717 3.171544 13.355614 0.162636 0.223889 0.960949 
8.478531 13.073891 -3.884787 -0.001824 0.965924 -0.258820 
20.624180 7.032573 -11.731944 0.001829 0.526572 -0.850128 
24.278446 15.595120 -1.962223 -0.901942 0.427942 -0.058019 
27.922031 23.288372 -0.959197 -0.000000 0.488337 -0.872655 
27.922024 22.211969 7.063736 -0.000001 0.757353 -0.653005 
-5.010710 1.185244 0.054359 -0.163691 -0.986402 -0.014722 
24.623102 -8.956890 15.040096 -0.999887 -0.008867 0.012116 
42.533642 6.853710 15.118206 0.983999 0.079463 0.159472 
20.933029 11.464669 -7.454262 -0.034513 0.826442 -0.561963 
78.792290 -7.821784 -4.264115 0.004771 -0.886735 -0.462253 
78.792038 4.264003 -7.821836 0.004771 0.462240 -0.886742 
42.473099 -16.079435 -12.060081 1.000000 0.000000 0.000000 
42.473099 2.250082 -20.049025 1.000000 0.000000 0.000000 
42.513901 -16.531151 2.575519 0.988412 -0.150590 0.019094 
56.995659 -4.905030 12.763187 -0.001786 -0.373999 0.927427 
57.152561 -13.053448 -3.992270 0.001338 -0.965925 -0.258820 
61.709831 -5.062096 -12.688378 0.002739 -0.398602 -0.917120 
16.898924 -3.383452 13.241101 -0.002926 -0.257275 0.966334 
17.422155 -13.101542 3.920055 -0.002160 -0.959250 0.282549 
101.603302 -0.967410 2.094850 0.498088 0.366926 -0.785668 
78.728653 8.892961 -0.366226 -0.005672 0.997095 -0.075952 
-7.506898 -4.951591 -4.420129 -1.000000 0.000000 0.000000 
-7.506898 3.254639 -5.699532 -1.000000 0.000000 0.000000 
70.560089 -8.647182 -2.080605 -0.000000 -0.965926 -0.258819 
70.560097 2.080550 -8.647197 -0.000000 0.258820 -0.965926 
42.473099 -2.011739 19.101421 1.000000 0.000000 0.000000 
50.793423 10.032616 -9.281148 0.000082 0.730414 -0.683005 
51.763268 5.483969 12.492091 0.001795 0.411691 0.911322 
101.973099 3.052768 -5.231820 1.000000 0.000000 0.000000 
16.568333 -13.205581 3.521517 -0.003989 -0.966901 0.255120 
10.088114 11.504884 -7.342639 -0.002960 0.819355 -0.573279 
11.295311 10.812451 -8.334396 -0.001360 0.819151 -0.573576 
39.494537 -18.810251 2.388190 0.000000 -0.140192 0.990124 
77.585243 0.477922 8.883188 -0.001081 0.071821 0.997417 
77.027237 -8.911170 -0.158066 0.010925 -0.999660 -0.023666 
45.550484 11.160822 -7.944788 0.151640 0.801964 -0.577806 
49.491325 -5.083013 12.687374 -0.000678 -0.384478 0.923134 
-7.506898 -5.603745 2.742815 -1.000000 0.000000 0.000000 
-7.506898 5.882677 0.688168 -1.000000 0.000000 0.000000 
13.394955 -2.625937 13.424994 -0.002285 -0.211944 0.977279 
16.419411 -9.600733 9.695863 -0.003185 -0.699685 0.714444 
15.924430 -11.526279 7.346649 -0.003014 -0.834906 0.550385 
11.576461 12.429249 5.626012 -0.002616 0.906305 0.422616 
21.702879 -13.682034 1.111936 -0.181021 -0.979361 0.089904 
28.628830 18.413111 14.120317 -0.000001 0.935020 -0.354596 
42.473099 18.449894 -7.870544 1.000000 0.000000 0.000000 
42.473099 -4.322394 19.638573 1.000000 0.000000 0.000000 
46.578941 -9.864632 -9.461764 0.003647 -0.731461 -0.681874 
55.308937 -13.632283 0.764524 0.001645 -0.996193 0.087156 
58.346733 8.737562 10.527739 -0.002351 0.641586 0.767048 
58.166817 1.934588 13.530359 -0.000244 0.115146 0.993349 
1.789541 -1.940174 8.684812 0.005770 -0.234336 0.972139 
-7.506898 -6.749094 -2.682438 -1.000000 0.000000 0.000000 
-7.506898 4.702638 -5.528971 -1.000000 0.000000 0.000000 
15.770903 -6.195926 12.173325 0.001395 -0.424941 0.905220 
12.158595 -12.588617 5.278150 -0.002216 -0.904900 0.425619 
20.101421 -5.565012 -12.497334 -0.004328 -0.418476 -0.908218 
15.507890 5.406531 12.543446 -0.001421 0.408498 0.912758 
21.964720 11.599041 -7.488097 -0.262625 0.802519 -0.535715 
25.149916 19.766745 -4.875631 -0.007537 0.542058 0.840307 
25.149916 16.907101 -11.342220 -0.007536 0.796771 0.604234 
25.150003 5.660951 -19.556330 -0.007558 0.998757 -0.049276 
25.149916 -1.369102 -20.313087 -0.007536 0.921669 -0.387904 
37.507912 -9.620898 -19.870775 0.004577 0.630863 -0.775881 
29.376072 -3.057235 23.049541 -0.000000 0.774599 0.632453 
25.149916 1.369102 20.313087 -0.007536 -0.921669 0.387905 
25.149916 18.276197 8.970865 -0.007536 -0.124900 0.992141 
12.905103 -3.420325 13.216091 -0.003660 -0.258817 0.965919 
70.512383 -8.601615 2.250663 0.000086 -0.966128 0.258063 
70.512207 -2.251184 -8.601477 0.000082 -0.258094 -0.966120 
53.010933 -5.975575 12.284241 0.002220 -0.420763 0.907168 
-1.020373 -1.024733 8.835347 0.000001 -0.087155 0.996195 
9.081299 8.055313 -11.003495 -0.000850 0.573577 -0.819151 
8.641144 12.187869 -6.127604 -0.003944 0.906301 -0.422615 
76.489822 -7.234316 5.186057 -0.002994 -0.824271 0.566187 
76.489639 -5.185884 -7.234429 -0.003011 -0.566104 -0.824329 
31.286228 -12.469674 -19.301086 0.001033 -0.999742 0.022705 
31.694319 -18.473646 -14.279943 -0.000001 -0.935019 0.354597 
31.286228 -10.480398 20.449602 0.001035 0.519535 0.854449 
31.286228 12.469675 19.301086 0.001034 0.999742 -0.022705 
80.938881 -4.475949 -7.719859 0.000860 -0.495347 -0.868695 
68.593811 6.149370 6.430533 -0.000482 0.705492 0.708717 
51.197418 -5.098593 12.679922 0.002582 -0.395696 0.918378 
50.112499 -13.602812 -1.400530 0.002427 -0.994562 -0.104118 
56.718483 -12.590880 -5.306103 0.002566 -0.911686 -0.410881 
57.685051 9.826915 9.460096 0.001543 0.703670 0.710525 
19.565285 -13.383750 -2.833907 -0.002746 -0.974372 -0.224926 
36.017738 19.157255 -2.339057 0.000000 0.140192 -0.990124 
31.076715 18.830040 -4.372486 -0.000000 0.473201 0.880955 
36.017483 17.203161 -8.750423 -0.000000 -0.206905 -0.978361 
31.076715 16.198973 -10.549047 0.000000 0.745968 0.665982 
36.017483 13.172863 -14.106535 -0.000000 -0.529046 -0.848593 
36.017742 1.023100 -19.272387 -0.000000 -0.950738 -0.309995 
31.076715 -1.036256 -19.303242 -0.000000 0.949742 -0.313035 
36.017483 -5.630187 -18.461298 0.000000 -0.999426 0.033871 
36.017483 -11.604781 -15.422311 0.000000 -0.927569 0.373652 
31.076696 -13.201720 -14.121058 0.000000 0.526330 -0.850281 
31.076715 -17.235228 -8.754198 0.000000 0.203773 -0.979018 
36.017456 -18.803268 -4.354882 -0.000000 -0.470380 0.882464 
39.943802 -19.486370 4.725031 -0.003773 -0.502219 -0.864732 
36.017483 -17.203161 8.750423 0.000000 0.206904 0.978361 
36.017517 -13.172854 14.106530 0.000000 0.529046 0.848593 
36.017517 -7.553714 17.761181 0.000000 0.787377 0.616472 
36.017479 -1.023492 19.273586 -0.000000 0.950738 0.309996 
31.076715 1.036256 19.303242 -0.000000 -0.949741 0.313036 
36.017483 5.630187 18.461302 0.000000 0.999426 -0.033871 
31.076893 7.575587 17.784346 0.000000 -0.785400 0.618988 
36.017483 11.604783 15.422312 0.000000 0.927569 -0.373652 
31.076715 13.201704 14.121049 0.000001 -0.526329 0.850281 
31.076715 17.235228 8.754197 -0.000001 -0.203774 0.979018 
36.017452 18.803268 4.354883 0.000000 0.470380 -0.882464 
12.774617 3.188730 -13.260890 -0.000294 0.258819 -0.965926 
37.312241 -11.508850 15.189609 0.000000 -0.928759 -0.370683 
37.312241 -5.619628 18.209820 0.000000 -0.999529 -0.030674 
79.145187 8.865388 -0.681375 0.000001 0.996195 -0.087156 
69.806564 -8.557183 2.416485 -0.000000 -0.965926 0.258820 
69.806557 -2.416757 -8.557110 -0.000000 -0.258820 -0.965926 
60.310329 -0.627008 13.639288 0.002443 -0.082797 0.996563 
61.137947 -13.536183 -1.793175 0.002882 -0.995754 -0.092006 
48.876984 -13.675428 -0.215170 0.001310 -0.999631 -0.027124 
51.299809 3.399973 13.237809 0.001627 0.259636 0.965705 
38.214977 21.984827 -6.800295 0.000226 0.756870 0.653565 
31.032066 -5.498040 -20.749346 0.000610 -0.990416 -0.138118 
31.032066 5.498039 20.749348 0.000611 0.990416 0.138117 
55.701962 -9.793715 9.511171 0.002159 -0.707105 0.707105 
56.805996 -11.355757 7.585996 0.004349 -0.822281 0.569065 
56.549713 -0.453334 -13.664631 0.002600 -0.059076 -0.998250 
2.331336 -3.127277 8.351902 -0.003669 -0.352509 0.935801 
15.072090 -10.336629 8.963955 0.002408 -0.742100 0.670285 
15.434284 -9.466052 9.825541 -0.001528 -0.703815 0.710381 
15.900558 6.713465 -11.916985 0.004551 0.492735 -0.870168 
18.069523 5.467888 12.517623 -0.000160 0.403762 0.914864 
32.203423 22.241644 -8.449857 0.000000 0.939694 -0.342017 
28.919104 5.514677 -20.625969 -0.000001 0.989847 -0.142140 
29.081009 5.573701 -20.214930 0.000497 0.990783 -0.135461 
34.536030 -12.187865 17.263252 -0.000001 -0.978766 -0.204981 
34.536030 -5.548468 20.390650 -0.000000 -0.989847 0.142140 
64.304649 -8.201701 -3.449379 0.009340 -0.914075 -0.405437 
64.304649 3.449366 -8.201707 0.009341 0.405435 -0.914076 
96.174049 -6.256804 6.358871 0.000230 -0.702634 0.711551 
96.174049 -6.358871 -6.256804 0.000229 -0.711552 -0.702634 
94.525520 5.691399 -6.873040 -0.000702 0.645118 -0.764083 
25.424171 12.038126 13.957224 -0.000000 0.642787 0.766045 
25.424171 -18.106373 3.446712 -0.000000 -0.984808 0.173646 
25.424171 -16.085789 -8.998217 -0.000000 -0.866025 -0.500001 
25.424171 -12.038128 -13.957224 -0.000001 -0.642789 -0.766043 
25.424171 18.193272 2.953896 -0.000000 0.984808 0.173646 
54.456158 -7.115010 -11.667919 -0.001534 -0.549382 -0.835570 
48.735661 6.723464 -11.911914 -0.002462 0.485394 -0.874292 
50.019310 13.243274 -3.342585 0.001412 0.965129 -0.261770 
50.093323 13.658769 -0.589645 -0.001373 0.999071 -0.043066 
49.906109 13.635094 -1.038463 -0.001369 0.997174 -0.075118 
9.269341 -11.335410 7.588536 -0.003908 -0.819146 0.573572 
14.866669 -13.572796 -1.597491 -0.001572 -0.994799 -0.101846 
11.979478 -12.914202 -4.507036 -0.002227 -0.949428 -0.313977 
15.351801 5.825544 -12.356252 -0.002993 0.428519 -0.903528 
11.150977 11.880415 -6.787620 0.004407 0.866294 -0.499515 
15.952024 3.789040 13.128727 -0.002461 0.274335 0.961631 
41.875854 19.424997 -2.301147 0.000000 0.140192 -0.990124 
26.706234 -12.243011 -17.524204 -0.000001 -0.977493 0.210968 
33.930687 -16.457956 -15.558689 0.000141 0.223768 -0.974643 
39.910942 -20.040043 5.081256 0.000009 -0.584918 -0.811093 
33.552380 -16.250235 10.606467 -0.000000 -0.745967 -0.665983 
40.705811 -16.643532 15.593984 0.000931 0.205388 0.978680 
41.277550 -13.523333 14.325031 0.000001 0.529046 0.848593 
26.706236 -9.054898 19.364859 0.000001 0.671451 0.741049 
33.930706 2.606593 22.497616 0.000136 -0.797904 0.602785 
26.698299 12.243710 17.527443 -0.000001 0.977493 -0.210968 
36.491173 18.256428 13.707166 -0.005299 0.929205 -0.369527 
41.038944 17.980700 13.083443 0.001801 0.892049 -0.451934 
33.930687 20.786810 8.991430 0.000141 0.123074 0.992398 
41.769852 21.785198 6.568765 -0.003678 0.738282 -0.674483 
98.985725 2.860568 7.140000 0.000000 0.000000 1.000000 
87.433937 5.650613 -6.905407 0.002509 0.641026 -0.767515 
94.136528 -3.059985 7.140000 0.000000 0.000000 1.000000 
37.330936 16.397594 10.765695 -0.000000 0.743833 -0.668366 
70.192688 7.237930 5.181065 -0.000513 0.817567 0.575833 
36.575005 7.418259 -17.588173 0.000000 -0.787377 -0.616472 
31.954128 -19.997219 2.220127 -0.000725 -0.183729 0.982977 
96.567581 -7.140000 4.901494 0.000000 -1.000000 0.000000 
96.567581 -4.901494 -7.140000 0.000000 0.000000 -1.000000 
56.761055 8.873847 -10.413534 0.002940 0.654587 -0.755981 
37.029762 21.104244 -8.939839 0.001436 0.149255 -0.988798 
37.029762 16.773893 -15.618777 0.001437 -0.197935 -0.980214 
37.029762 -5.139309 -22.336008 0.001437 -0.947858 -0.318690 
37.029762 -12.468737 -19.231236 0.001437 -0.999693 0.024716 
37.029762 -21.104244 8.939839 0.001436 -0.149255 0.988798 
37.029716 -2.810070 22.746822 0.001460 0.781677 0.623682 
37.029762 5.139311 22.336008 0.001437 0.947858 0.318691 
37.029762 12.468738 19.231236 0.001437 0.999693 -0.024717 
35.896492 18.229626 13.636496 0.002755 0.924276 -0.381715 
49.486862 -1.674489 13.575265 0.000222 -0.104974 0.994475 
61.197441 2.486449 13.454116 0.005659 0.187036 0.982337 
11.362961 -4.003748 13.053921 -0.002403 -0.265280 0.964168 
32.701015 22.773359 -1.247399 0.001702 0.468671 -0.883371 
34.660862 20.474045 -5.422435 -0.000000 0.618019 0.786163 
39.992153 16.934622 -8.693632 0.000000 -0.206905 -0.978361 
34.661205 17.384851 -12.098160 0.000000 0.849632 0.527376 
40.876167 17.140219 -11.704043 -0.000709 0.840315 0.542097 
39.992153 12.939944 -13.961324 0.000000 -0.529046 -0.848593 
25.156996 12.806877 -13.878365 0.000000 -0.529046 -0.848593 
34.660862 12.198554 -17.314293 -0.000001 0.978766 0.204981 
26.396158 11.920764 -16.221674 0.007070 0.939706 0.341910 
31.856508 5.006056 -22.717989 -0.000001 0.944196 -0.329384 
34.548820 5.539104 -20.455858 -0.000000 0.989847 -0.142138 
31.856508 -3.065853 -23.060095 -0.000001 0.774598 -0.632454 
39.992153 -5.620890 -18.186981 -0.000000 -0.999426 0.033871 
41.303505 -15.552354 -15.267909 -0.001296 0.365971 -0.930625 
34.661205 -19.169735 -9.006643 -0.000000 0.031905 -0.999491 
31.857658 -23.243359 -0.984385 -0.000001 -0.488337 -0.872655 
39.992153 11.502224 15.167715 0.000000 0.927569 -0.373653 
25.146086 11.447130 15.030949 -0.000001 0.927568 -0.373653 
4.191369 -0.685580 8.865020 -0.000000 -0.087155 0.996195 
80.504791 -4.026079 -7.932783 -0.000126 -0.425421 -0.904995 
67.798294 -6.997401 5.509679 -0.005674 -0.794350 0.607434 
67.798294 -5.509678 -6.997400 -0.005675 -0.607433 -0.794350 
57.179741 -8.136141 10.968619 0.002460 -0.577962 0.816060 
12.912683 -0.550971 -13.654528 -0.002110 -0.074077 -0.997250 
31.598713 22.514664 -1.386244 -0.007678 0.433324 -0.901206 
41.340897 17.013962 -11.500635 -0.002991 0.818412 0.574624 
27.287603 12.155327 -17.107880 -0.000000 0.978766 0.204981 
26.353117 -7.655420 -17.885643 0.000000 0.785401 -0.618988 
40.404690 -19.626537 4.800321 -0.003720 -0.517931 -0.855414 
29.136732 17.788450 -15.811738 -0.000000 0.335710 -0.941965 
29.136732 3.463153 -23.546688 0.000000 -0.348318 -0.937376 
27.025032 -18.499029 -14.346872 -0.000001 -0.935019 0.354597 
77.268661 8.183034 -3.489414 0.000000 0.906308 -0.422619 
60.448082 -12.982401 4.261293 0.000845 -0.962704 0.270555 
-0.959669 -1.503721 8.793443 -0.005448 -0.169820 0.985460 
37.698215 -13.404274 -14.246441 -0.000000 0.526330 -0.850281 
37.742855 1.110174 19.527508 0.000000 -0.949741 0.313035 
37.742855 13.402485 14.245335 -0.000000 -0.526329 0.850281 
37.698227 17.468437 8.802737 -0.000000 -0.203774 0.979018 
97.055939 -7.140000 -3.107566 0.000000 -1.000000 0.000000 
97.416367 -7.140000 -2.657624 0.000000 -1.000000 0.000000 
97.659126 -7.140000 0.351100 0.000000 -1.000000 0.000000 
97.659729 -0.350329 -7.140000 0.000000 0.000000 -1.000000 
97.032516 -3.125697 7.140000 0.000000 0.000000 1.000000 
38.014801 -8.905094 -19.230135 -0.000000 0.666902 -0.745146 
37.393845 -16.041416 -15.446440 0.002337 0.300177 -0.953881 
37.393845 20.356997 9.028418 0.002337 0.044174 0.999021 
72.890900 8.794233 1.494672 0.007021 0.985934 0.166988 
64.721954 7.673498 4.544377 -0.000915 0.857956 0.513722 
68.621323 -5.490644 7.018218 -0.000337 -0.602497 0.798121 
68.621346 -7.018184 -5.490690 -0.000339 -0.798124 -0.602493 
48.653210 -2.084321 13.520202 -0.002291 -0.145849 0.989304 
62.507385 6.624767 -11.957279 0.011576 0.460991 -0.887329 
63.439075 1.873277 13.522268 0.002542 0.087156 0.996192 
1.093130 6.068839 6.504989 -0.001894 0.698578 0.715532 
1.091842 7.106061 5.352544 -0.002371 0.804684 0.593699 
1.091842 7.927722 4.036936 -0.002371 0.895566 0.444922 
1.091842 8.508296 2.598940 -0.002371 0.959222 0.282642 
1.091842 8.830322 1.082186 -0.002371 0.993729 0.111790 
1.091842 8.884124 -0.467212 -0.002373 0.998046 -0.062438 
1.091842 8.668033 -2.002793 -0.002375 0.972043 -0.234792 
1.091842 8.188494 -3.477706 -0.002374 0.916501 -0.400025 
1.091842 7.460060 -4.846981 -0.002373 0.833103 -0.553113 
1.091842 6.505308 -6.068517 -0.002374 0.724413 -0.689362 
1.091842 5.352589 -7.106030 -0.002373 0.593700 -0.804683 
1.091842 4.037101 -7.927643 -0.002373 0.444931 -0.895562 
1.091842 2.599340 -8.508186 -0.002372 0.282671 -0.959214 
1.091842 1.082219 -8.830317 -0.002373 0.111798 -0.993728 
1.091842 -0.467391 -8.884108 -0.002372 -0.062447 -0.998046 
1.091842 -2.003182 -8.667927 -0.002374 -0.234820 -0.972036 
1.091842 -3.477584 -8.188550 -0.002373 -0.400024 -0.916501 
1.091842 -4.846652 -7.460291 -0.002374 -0.553089 -0.833119 
1.091842 -6.068604 -6.505220 -0.002373 -0.689363 -0.724412 
1.091842 -7.106162 -5.352397 -0.002374 -0.804694 -0.593685 
1.091842 -7.927487 -4.037435 -0.002373 -0.895552 -0.444950 
1.091842 -8.508176 -2.599382 -0.002373 -0.959212 -0.282678 
1.091842 -8.830317 -1.082231 -0.002373 -0.993728 -0.111799 
1.091842 -8.884124 0.467212 -0.002374 -0.998046 0.062438 
1.091842 -8.668035 2.002782 -0.002375 -0.972043 0.234792 
1.091842 -8.188570 3.477544 -0.002374 -0.916505 0.400016 
1.091842 -7.460292 4.846651 -0.002374 -0.833118 0.553090 
1.091842 -6.505221 6.068605 -0.002373 -0.724413 0.689362 
1.091843 -5.352390 7.106168 -0.002373 -0.593684 0.804695 
1.090765 -4.038368 7.927053 -0.002466 -0.444876 0.895589 
40.528435 10.409737 -20.407530 0.002807 -0.522861 -0.852414 
29.053997 10.680071 -20.568480 0.000001 -0.511571 -0.859241 
25.698128 9.832827 -20.030169 -0.003875 -0.596474 -0.802623 
35.591198 -21.398346 -1.807182 0.000000 -0.311865 -0.950126 
40.528183 -22.878019 1.188830 0.002808 -0.476675 0.879075 
29.101433 -23.226582 0.993774 0.000000 -0.488338 0.872655 
29.053995 -21.402576 8.891354 -0.000000 -0.160419 0.987049 
25.075109 -15.847712 10.155601 0.000000 -0.745967 -0.665983 
40.299538 -17.071623 15.675404 -0.000031 0.188818 0.982012 
29.053997 -17.070814 15.675249 -0.000000 0.186844 0.982390 
40.528439 -10.409716 20.407518 0.002808 0.522875 0.852405 
97.961380 -7.140000 -1.437595 0.000000 -1.000000 0.000000 
97.630005 -2.955379 7.140000 0.000000 0.000000 1.000000 
89.448792 -3.848684 7.140000 0.000000 0.000000 1.000000 
56.085495 13.607195 1.023259 0.001547 0.996145 0.087711 
20.404987 -12.737922 -4.971135 0.000703 -0.928795 -0.370594 
15.941761 5.982565 -12.285466 -0.002071 0.436456 -0.899723 
41.188541 6.495127 -17.248564 -0.000000 0.342020 -0.939693 
5.221914 4.966064 7.376678 0.000000 0.573577 0.819152 
27.623983 -9.441878 -19.710554 0.002983 0.648009 -0.761627 
27.623873 -21.789337 -1.678844 0.002990 -0.335502 -0.942035 
9.228198 -8.325220 10.819225 -0.003901 -0.574365 0.818590 
26.309046 23.325396 0.938479 0.000000 0.488337 0.872655 
40.548164 22.465168 -7.835733 -0.000002 0.939693 -0.342020 
40.550362 12.172850 -20.442711 -0.000001 0.500000 -0.866025 
41.913876 -9.659034 -19.904909 0.005640 0.626177 -0.779661 
40.550362 -12.172849 20.442709 -0.000001 -0.499999 0.866026 
40.548164 -4.446640 23.373274 0.000000 -0.173650 0.984807 
-7.506898 -5.569068 3.408311 -1.000000 0.000000 0.000000 
-7.506898 4.595904 -4.994142 -1.000000 0.000000 0.000000 
42.473099 14.467236 -13.234671 1.000000 0.000000 0.000000 
42.473099 -18.769922 -5.671892 1.000000 0.000000 0.000000 
33.496479 1.733985 -21.006569 0.000000 -0.884411 -0.466710 
6.209685 5.466059 7.026579 -0.002860 0.603398 0.797435 
24.623102 -18.303371 -1.895950 -1.000000 0.000000 0.000000 
44.822842 -5.070533 -12.927214 0.332578 -0.333565 -0.882115 
45.555515 10.596966 8.686551 0.126434 0.765376 0.631042 
96.251167 0.337997 -0.087170 0.914407 -0.391949 0.101172 
45.862476 12.759336 -4.952804 0.078447 0.926677 -0.367582 
46.497219 4.585071 12.888505 0.000163 0.332118 0.943238 
21.655157 12.744417 5.127440 -0.160439 0.917568 0.363771 
20.949446 12.698962 5.098441 -0.037137 0.922318 0.384643 
-6.832284 1.930598 -0.904818 -0.500884 -0.783803 0.367107 
-5.433160 1.057578 -0.803869 -0.444874 -0.717447 0.536057 
-6.828124 0.874912 -1.941902 -0.502443 -0.344093 0.793190 
-6.553186 -0.964612 -1.725596 -0.508312 0.415738 0.754175 
-5.474273 -1.218935 -0.582826 -0.478914 0.807815 0.343622 
-6.830958 -2.129051 -0.119289 -0.501716 0.864194 0.038064 
98.442558 -1.092547 0.462089 0.024817 0.912632 -0.408028 
42.473099 19.546755 -7.815016 1.000000 0.000000 0.000000 
42.473099 -10.357166 -14.515640 1.000000 0.000000 0.000000 
46.730698 -11.783754 -6.954756 0.001652 -0.863061 -0.505097 
-7.506898 1.771544 6.969471 -1.000000 0.000000 0.000000 
-7.506898 5.392036 -3.391183 -1.000000 0.000000 0.000000 
24.255152 7.098005 -13.956651 -0.888516 0.204347 -0.410831 
24.377821 -3.968616 -15.453592 -0.934021 -0.092276 -0.345095 
24.396734 -15.614798 3.490799 -0.937228 -0.339588 0.079268 
101.783211 5.260478 5.298417 0.894711 0.294351 0.335932 
42.473099 2.008102 -20.634037 1.000000 0.000000 0.000000 
24.623102 -19.962505 -0.343594 -1.000000 0.000000 0.000000 
42.515633 13.710670 9.537888 0.987872 0.122494 0.095412 
42.473583 -15.218157 8.090829 0.998954 -0.041590 0.019026 
46.078346 -13.269895 3.300181 0.035685 -0.970776 0.237320 
46.171497 13.293414 -3.177340 0.034681 0.965623 -0.257622 
46.174343 9.814879 9.510780 0.028874 0.698325 0.715198 
47.706528 -6.876470 11.830346 -0.000902 -0.506845 0.862037 
12.796661 -4.818993 12.798216 0.003386 -0.373738 0.927528 
30.943180 -17.887840 -12.899093 0.002862 -0.872338 0.488895 
-2.040898 0.417998 0.307915 -0.824985 -0.469372 -0.314785 
-4.997973 0.943941 -0.718720 -0.133820 -0.767347 0.627113 
-5.887094 -1.577411 -0.195864 -0.508367 0.855425 0.099052 
-7.506898 3.439873 5.669038 -1.000000 0.000000 0.000000 
17.029360 10.806539 -8.356425 -0.000909 0.808636 -0.588309 
17.515476 3.226062 13.285610 -0.003312 0.243960 0.969780 
20.805691 12.915562 4.504872 -0.011170 0.947201 0.320446 
22.028090 9.108016 10.397755 -0.265820 0.644130 0.717242 
22.028147 -10.802547 -8.624228 -0.265705 -0.760743 -0.592175 
39.487293 20.229876 5.233945 0.000000 0.613196 -0.789931 
45.126740 -13.687613 1.768823 0.260579 -0.958439 0.116161 
45.166595 6.010411 12.411273 0.240056 0.411345 0.879300 
56.689789 -10.229841 9.072028 0.001689 -0.728400 0.685150 
52.833733 -13.571150 1.503427 0.001641 -0.996023 0.089077 
0.871488 5.630267 6.911598 0.010746 0.620919 0.783801 
-7.506898 4.126776 -5.061176 -1.000000 0.000000 0.000000 
13.393839 -3.589260 13.172676 -0.003776 -0.260896 0.965360 
10.634109 -8.018008 11.040872 -0.003807 -0.573572 0.819147 
10.516779 11.134862 -7.872099 -0.001359 0.819151 -0.573576 
26.203474 -6.227186 17.346085 -0.000001 -0.342020 0.939693 
26.203474 -11.784352 14.170166 -0.000001 -0.642788 0.766044 
42.473099 10.345977 -15.349560 1.000000 0.000000 0.000000 
48.929737 -13.329696 3.033558 -0.000922 -0.974315 0.225187 
19.883110 -12.403137 -5.770059 -0.001826 -0.908426 -0.418043 
22.082035 11.010282 -8.356866 -0.305128 0.762837 -0.570067 
34.517006 -19.377638 4.666625 -0.002529 -0.487804 -0.872950 
36.940834 2.368041 22.156118 -0.002771 -0.841305 0.540553 
-4.325692 0.705978 -0.952863 -0.001094 -0.615402 0.788213 
76.071419 7.851947 4.199433 0.004482 0.900248 0.435355 
53.530369 13.289463 3.193058 0.000481 0.970118 0.242635 
54.028370 6.796485 11.876629 0.004646 0.493876 0.869520 
14.522643 12.167810 6.200390 -0.001704 0.901261 0.433274 
18.965517 -12.829883 4.758051 -0.002207 -0.936140 0.351621 
18.816626 7.712014 -11.265671 -0.003921 0.558678 -0.829376 
9.899312 6.341452 12.092097 -0.003451 0.427609 0.903957 
41.435982 23.153299 1.034783 0.000000 0.488338 0.872655 
37.641212 22.356695 -8.133761 0.000002 0.939693 -0.342020 
37.682617 4.125897 -23.429831 -0.000001 0.173648 -0.984808 
37.661415 -18.229155 15.286526 0.000001 -0.766046 0.642786 
58.091496 7.920461 -11.112824 0.002267 0.573575 -0.819150 
36.978100 18.803856 -4.358421 0.000000 0.473201 0.880955 
36.978100 11.603049 -15.425632 -0.000000 0.928759 0.370683 
36.978134 -1.026960 -19.275038 0.000000 0.949741 -0.313036 
36.992012 -13.174988 -14.104511 -0.000000 0.526330 -0.850281 
28.327202 -3.868462 23.475222 -0.000001 -0.173649 0.984808 
37.001076 1.034508 19.297939 -0.000000 -0.949741 0.313035 
39.260395 9.891789 20.073513 -0.003125 -0.583957 0.811779 
37.001076 13.196959 14.118112 0.000000 -0.526329 0.850281 
36.992012 17.204464 8.747793 0.000000 -0.203773 0.979018 
17.275826 -7.495898 11.437322 -0.003489 -0.556937 0.830548 
10.524101 -11.916020 -6.719902 -0.003798 -0.881124 -0.472870 
9.104237 13.492177 -2.256051 -0.006631 0.988614 -0.150331 
28.099968 8.093517 -18.450634 -0.003507 -0.753228 -0.657750 
28.100042 -20.025507 2.216121 -0.003517 -0.193028 0.981187 
28.100666 -18.060406 8.931714 -0.003404 0.154147 0.988042 
28.100666 -13.916407 14.570089 -0.003405 0.482780 0.875735 
28.100651 -1.295120 20.106657 -0.003408 0.932731 0.360558 
96.986656 7.140000 4.606576 0.000000 1.000000 0.000000 
77.449364 5.974647 6.616703 -0.000426 0.690230 0.723590 
54.577484 -7.441093 -11.439502 0.000623 -0.573576 -0.819152 
51.958012 7.716377 -11.269952 0.001018 0.564221 -0.825623 
1.719626 4.684980 7.573495 -0.001064 0.540985 0.841031 
1.863018 5.968701 6.605126 0.002098 0.687913 0.725790 
1.480698 5.874002 6.699825 -0.000062 0.668790 0.743452 
1.833498 7.022959 5.471226 0.004571 0.804516 0.593914 
1.492150 6.960543 5.560364 -0.006893 0.790265 0.612727 
1.833497 7.866467 4.168293 0.004538 0.895448 0.445143 
1.492149 7.820475 4.266926 -0.006890 0.884686 0.466137 
1.833497 8.470789 2.738915 0.004527 0.959148 0.282870 
1.492149 8.442630 2.844011 -0.006890 0.952197 0.305407 
1.833497 8.817694 1.226526 0.004533 0.993694 0.112034 
1.492149 8.808212 1.334894 -0.006889 0.990762 0.135438 
1.833497 8.896750 -0.322903 0.004577 0.998056 -0.062151 
1.492149 8.906232 -0.214521 -0.006882 0.999232 -0.038583 
1.833497 8.705531 -1.862843 0.004590 0.972105 -0.234501 
1.492149 8.733698 -1.757729 -0.006880 0.977356 -0.211488 
1.833497 8.249733 -3.346378 0.004584 0.916610 -0.399756 
1.492149 8.295732 -3.247734 -0.006883 0.925778 -0.378006 
1.833497 7.543181 -4.728272 0.004543 0.833239 -0.552895 
1.492149 7.605591 -4.639140 -0.006889 0.846040 -0.533075 
1.833497 6.607743 -5.966082 0.004577 0.724605 -0.689149 
1.492149 6.684675 -5.889150 -0.006882 0.740655 -0.671850 
1.833497 5.471286 -7.022917 0.004583 0.593929 -0.804504 
1.492149 5.560444 -6.960488 -0.006883 0.612743 -0.790252 
1.833497 4.168442 -7.866398 0.004543 0.445157 -0.895441 
1.492149 4.267057 -7.820412 -0.006889 0.466154 -0.884677 
1.833497 2.739285 -8.470690 0.004571 0.282937 -0.959128 
1.492149 2.844394 -8.442525 -0.006885 0.305483 -0.952173 
1.833497 1.226586 -8.817687 0.004544 0.112053 -0.993692 
1.492149 1.334981 -8.808204 -0.006889 0.135463 -0.990758 
1.833497 -0.323060 -8.896735 0.004572 -0.062167 -0.998055 
1.492149 -0.214658 -8.906219 -0.006884 -0.038601 -0.999231 
1.833497 -1.863205 -8.705435 0.004545 -0.234568 -0.972089 
1.492149 -1.758105 -8.733597 -0.006889 -0.211566 -0.977340 
1.833497 -3.346295 -8.249771 0.004578 -0.399758 -0.916609 
1.492149 -3.247691 -8.295751 -0.006881 -0.378012 -0.925775 
1.833497 -4.727968 -7.543394 0.004589 -0.552838 -0.833276 
1.492149 -4.638826 -7.605812 -0.006882 -0.533007 -0.846083 
1.833497 -5.966142 -6.607684 0.004582 -0.689147 -0.724607 
1.492149 -5.889179 -6.684647 -0.006883 -0.671844 -0.740661 
1.833497 -7.023043 -5.471106 0.004543 -0.804536 -0.593887 
1.492149 -6.960631 -5.560237 -0.006890 -0.790289 -0.612695 
1.833497 -7.866266 -4.168726 0.004577 -0.895418 -0.445203 
1.492149 -7.820284 -4.267331 -0.006882 -0.884651 -0.466202 
1.833497 -8.470673 -2.739349 0.004583 -0.959123 -0.282953 
1.492149 -8.442502 -2.844481 -0.006884 -0.952165 -0.305507 
1.833497 -8.817686 -1.226596 0.004545 -0.993692 -0.112053 
1.492149 -8.808203 -1.334991 -0.006889 -0.990758 -0.135464 
1.833497 -8.896749 0.322901 0.004578 -0.998056 0.062151 
1.492149 -8.906232 0.214518 -0.006881 -0.999232 0.038582 
1.833497 -8.705533 1.862836 0.004589 -0.972105 0.234501 
1.492149 -8.733699 1.757722 -0.006881 -0.977357 0.211487 
1.833497 -8.249801 3.346234 0.004589 -0.916617 0.399740 
1.492149 -8.295791 3.247606 -0.006882 -0.925785 0.377987 
1.833497 -7.543395 4.727966 0.004590 -0.833276 0.552839 
1.492149 -7.605815 4.638823 -0.006880 -0.846082 0.533008 
1.833497 -6.607685 5.966143 0.004584 -0.724608 0.689146 
1.492149 -6.684648 5.889179 -0.006885 -0.740662 0.671843 
1.833510 -5.471108 7.023041 0.004540 -0.593888 0.804535 
1.492155 -5.560234 6.960635 -0.006890 -0.612694 0.790290 
1.853039 -4.174374 7.863632 0.000165 -0.447128 0.894470 
1.488250 -4.271588 7.818301 -0.007511 -0.466611 0.884431 
1.495359 -2.853532 8.440078 -0.002424 -0.306985 0.951711 
15.948156 -6.783932 -11.881254 0.003857 -0.497098 -0.867686 
15.074530 12.614779 -5.265005 -0.001663 0.915529 -0.402248 
34.576958 -8.794971 -19.131575 -0.000001 0.666902 -0.745145 
37.173702 -21.712894 -6.484909 0.001636 -0.727462 0.686146 
37.174957 21.713564 6.485683 0.001720 0.727237 -0.686385 
38.089516 20.796333 5.673666 0.000855 0.623841 -0.781551 
73.118515 8.798615 -1.444595 0.000431 0.987736 -0.156134 
71.399017 -2.790962 8.456843 0.001875 -0.299635 0.954052 
73.118515 1.444544 8.798619 0.000430 0.156122 0.987738 
66.254456 -8.853234 0.820284 -0.000000 -0.996195 0.087156 
66.254456 -0.820211 -8.853241 0.000000 -0.087156 -0.996195 
49.802185 -9.700102 9.619208 0.001335 -0.699812 0.714326 
47.205975 -11.888567 6.776911 -0.001125 -0.867295 0.497793 
47.481075 9.699837 -9.638952 0.002099 0.717902 -0.696141 
48.079407 12.681244 5.134091 0.003923 0.917225 0.398350 
63.233749 1.357322 13.567933 0.002543 0.087155 0.996192 
9.297576 -13.573811 1.302113 -0.002039 -0.996193 0.087156 
14.990773 13.018241 -4.138352 -0.001319 0.963059 -0.269286 
34.079453 5.322651 -21.746424 0.003755 0.971004 -0.239036 
34.079037 -2.436182 -22.255589 0.003506 0.830451 -0.557080 
34.542877 -5.614427 -19.901997 -0.001582 -0.992612 -0.121324 
34.542877 -12.082719 -16.781513 -0.001582 -0.974245 0.225486 
32.121410 -18.476971 4.182837 -0.000000 -0.473201 -0.880955 
34.542877 -8.491854 18.854694 -0.001581 0.682399 0.730978 
34.503899 -1.578476 20.711882 -0.001587 0.888606 0.458668 
34.542877 5.614426 19.901997 -0.001582 0.992612 0.121325 
32.067253 7.362729 17.514261 -0.000000 -0.785401 0.618988 
34.542877 12.082720 16.781513 -0.001581 0.974245 -0.225485 
97.458687 7.140000 -1.229399 0.000000 1.000000 0.000000 
97.283096 3.600755 7.140000 0.000000 0.000000 1.000000 
54.664749 6.348872 -12.101848 0.003030 0.452949 -0.891531 
80.594505 6.448486 6.146927 -0.000604 0.714599 0.699535 
58.828785 13.522252 -2.029688 0.000467 0.992348 -0.123468 
68.949776 -8.669324 1.997972 0.003228 -0.972403 0.233284 
68.949776 -1.998090 -8.669292 0.003229 -0.233286 -0.972403 
18.124931 11.853347 6.839330 0.000376 0.866943 0.498408 
54.233929 3.672449 13.156648 0.000841 0.268100 0.963391 
64.373711 -8.646820 -2.081957 0.000000 -0.965926 -0.258819 
64.539223 -8.771021 -1.618433 0.003123 -0.981831 -0.189731 
64.373711 2.081953 -8.646821 0.000000 0.258820 -0.965926 
64.539223 1.618435 -8.771021 0.003123 0.189731 -0.981831 
42.473099 -19.673828 -0.543645 1.000000 0.000000 0.000000 
59.912384 2.233435 -13.493881 -0.003466 0.160704 -0.986997 
41.949104 18.714281 2.400360 0.000000 0.143359 0.989671 
39.174824 23.790333 0.312642 0.000000 1.000000 0.000000 
25.635502 20.528988 -5.465627 0.000000 0.618019 0.786163 
39.209057 22.464432 -7.837754 0.000001 0.939692 -0.342021 
31.954639 18.226439 -8.966826 -0.001646 -0.128657 -0.991688 
25.635502 17.421583 -12.157336 -0.000000 0.849632 0.527376 
39.174824 18.425413 -15.052632 -0.000000 0.766046 -0.642786 
31.954639 14.060418 -14.659872 -0.001647 -0.460073 -0.887880 
25.633472 12.212631 -17.381506 0.000001 0.978766 0.204981 
31.954645 8.198495 -18.584715 -0.001664 -0.735999 -0.676980 
25.635307 5.531100 -20.511600 0.000000 0.989847 -0.142138 
39.200977 4.439121 -23.374599 0.000000 0.173651 -0.984807 
25.635502 -1.817769 -21.166203 -0.000001 0.881537 -0.472114 
39.200977 -3.823175 -23.483206 -0.000000 -0.173649 -0.984808 
26.260218 -7.264867 -17.390091 0.000000 0.785401 -0.618988 
39.201050 -11.624344 -20.759392 0.000001 -0.499998 -0.866026 
27.048582 -11.764548 -20.678444 0.000001 -0.500000 -0.866026 
39.200928 -18.023449 -15.531678 0.000001 -0.766045 -0.642787 
36.325890 -16.189430 -10.534026 -0.000000 -0.743834 0.668365 
41.692455 -20.227451 -9.038416 0.004941 -0.025942 -0.999651 
27.345634 -23.790331 0.083433 0.000000 -1.000000 0.000000 
39.174824 -22.462530 7.842988 -0.000000 -0.939693 0.342019 
31.954639 -18.226442 8.966827 -0.001646 0.128656 0.991688 
31.954639 -14.060418 14.659872 -0.001646 0.460073 0.887879 
39.209133 -4.444518 23.373648 -0.000000 -0.173650 0.984808 
25.635502 1.817770 21.166203 -0.000000 -0.881538 0.472114 
39.174824 3.823256 23.483192 0.000001 0.173652 0.984807 
39.201046 11.624345 20.759392 0.000000 0.500001 0.866025 
27.048582 11.764549 20.678444 0.000002 0.500003 0.866024 
25.900156 12.235120 17.487642 0.000001 0.977493 -0.210969 
25.640722 14.985078 15.040689 -0.000001 -0.371828 0.928302 
25.635502 19.239353 9.008866 0.000000 -0.031906 0.999491 
40.686600 22.056831 6.883805 0.002309 0.752751 -0.658302 
98.301987 0.649532 -7.140000 0.000000 0.000000 -1.000000 
60.250977 8.844508 -10.440022 0.001692 0.650188 -0.759771 
41.578350 -17.352339 -12.048043 -0.000001 -0.846387 0.532569 
36.085861 22.588661 1.350756 -0.000916 0.453452 0.891280 
35.808105 18.742361 2.396292 0.000000 0.143359 0.989671 
67.215065 -3.614058 8.124912 -0.000000 -0.422618 0.906308 
75.966301 -8.915277 -0.111124 -0.005172 -0.999820 -0.018276 
61.227943 3.448450 13.197237 0.002683 0.258819 0.965922 
2.806576 2.833663 8.445402 0.003496 0.301689 0.953400 
36.552929 21.653187 -6.419343 0.004007 0.724482 0.689282 
40.033180 19.241167 -9.008533 0.000001 -0.038024 -0.999277 
31.880743 17.535398 -8.820685 -0.000000 -0.206904 -0.978361 
40.033180 14.999681 -15.046117 0.000000 -0.377504 -0.926008 
31.880743 13.461033 -14.286191 -0.000000 -0.529047 -0.848593 
31.880749 7.763068 -18.028572 0.000000 -0.787377 -0.616472 
40.033180 -5.530480 -20.513165 0.000000 -0.990698 -0.136076 
35.628761 -16.080523 -10.412822 -0.000000 -0.743833 0.668366 
40.033180 -19.241163 9.008533 0.000001 0.038024 0.999277 
31.880743 -17.535398 8.820685 0.000000 0.206905 0.978361 
27.293190 -17.269766 11.912751 0.000001 -0.849631 -0.527377 
39.962940 -15.586498 9.863016 0.000000 -0.994741 -0.102427 
31.880743 -13.461033 14.286192 -0.000001 0.529046 0.848593 
40.033180 -1.818963 21.167603 0.000000 0.884411 0.466710 
40.033039 5.530499 20.513027 -0.000001 0.990698 0.136077 
40.033035 12.212837 17.384396 -0.000000 0.977493 -0.210969 
9.696883 11.772627 6.964835 -0.009902 0.856157 0.516620 
37.635777 -19.520309 2.287653 -0.000000 -0.140192 0.990124 
73.866859 -7.108864 -5.375216 -0.000635 -0.804603 -0.593813 
73.866859 5.375217 -7.108865 -0.000635 0.593812 -0.804603 
16.095428 -1.273582 -13.602709 -0.001820 -0.098344 -0.995151 
36.384838 21.374004 -6.145820 0.005090 0.668842 0.743387 
39.003719 -13.381614 -14.232413 -0.000000 0.526330 -0.850281 
37.501377 1.412473 20.409426 0.005672 -0.913262 0.407333 
39.004101 1.102651 19.504683 0.000000 -0.949742 0.313035 
37.501373 14.200938 14.726605 0.005670 -0.437772 0.899068 
39.004101 13.382050 14.232685 -0.000000 -0.526330 0.850281 
39.003387 17.440378 8.796897 -0.000000 -0.203773 0.979018 
75.945831 6.772716 -5.806975 -0.005808 0.758432 -0.651727 
56.140438 -13.549924 -1.803335 0.003511 -0.993875 -0.110456 
52.040089 7.218433 -11.605294 -0.001375 0.542095 -0.840316 
0.688727 2.476209 8.541182 -0.000719 0.263764 0.964587 
