-5.684287 5.621401 71.979927 -0.708688 0.705522 0.000345 
-5.440773 5.856830 70.350998 -0.679172 0.733978 -0.000671 
-5.613742 5.675289 87.715820 -0.704017 0.710183 -0.000304 
-5.835396 5.461569 85.034264 -0.721499 0.692415 0.000598 
-6.089856 5.186879 75.186279 -0.761215 0.648499 0.000451 
-5.925637 5.370279 78.093224 -0.735857 0.677135 0.001487 
-6.226352 5.021334 71.212524 -0.783967 0.620797 0.002452 
-5.667573 -5.630118 68.652809 -0.708476 -0.705728 0.003278 
-5.628546 -5.670111 69.982681 -0.703719 -0.710476 -0.001736 
-5.687282 -5.610528 79.250221 -0.707787 -0.706425 -0.000764 
-5.039629 -6.211709 70.216049 -0.633361 -0.773829 -0.006503 
-5.464539 -5.833398 70.483887 -0.688628 -0.725101 -0.004488 
-5.523402 -5.764109 77.505516 -0.698110 -0.715988 -0.001993 
-5.497417 -5.793621 74.505447 -0.690383 -0.723443 -0.000887 
-5.246224 -6.038552 68.282166 -0.660331 -0.750974 0.000884 
-5.551714 -5.732222 87.331261 -0.698828 -0.715288 -0.001293 
-5.325716 -5.953639 85.225845 -0.668964 -0.743295 0.000083 
-4.252198 -6.768533 77.205902 -0.541211 -0.840886 0.001442 
-4.079157 -6.880376 70.679176 -0.512867 -0.858468 -0.000112 
-4.269801 -6.763016 70.045845 -0.532126 -0.846665 -0.000016 
-4.126878 -6.849044 84.818893 -0.523261 -0.852167 0.002866 
-4.673352 -6.459769 91.790848 -0.573576 -0.819152 0.000779 
-4.617317 -6.525288 70.603897 -0.576336 -0.817210 0.002008 
-2.901928 -7.452516 68.879044 -0.365276 -0.930895 0.002879 
-2.573332 -7.574136 71.268318 -0.322907 -0.946430 0.001027 
-3.901257 -6.976074 93.167877 -0.483174 -0.875504 0.006016 
-3.099097 -7.372498 70.732758 -0.386610 -0.922240 0.002691 
-3.675959 -7.099251 78.318031 -0.450395 -0.892829 0.000430 
-3.599434 -7.141480 71.794479 -0.442634 -0.896703 -0.000366 
-1.773497 -7.793540 78.630135 -0.232048 -0.972701 0.002728 
-1.803258 -7.790853 72.352715 -0.230501 -0.973071 -0.001419 
-1.594953 -7.834936 71.129486 -0.200925 -0.979606 -0.000890 
-2.062864 -7.723533 70.797989 -0.254895 -0.966969 0.000477 
-1.094988 -7.921587 70.877182 -0.128872 -0.991661 0.000834 
-0.567490 -7.968776 71.300293 -0.076957 -0.997034 -0.000319 
-0.612136 -7.965242 70.596741 -0.076516 -0.997068 0.000238 
-0.928424 -7.921031 92.142998 -0.099538 -0.995025 0.004292 
-0.129411 -7.998446 71.696754 -0.012236 -0.999924 0.001503 
0.415497 -7.963652 91.661865 0.077739 -0.996972 -0.001771 
0.666189 -7.941720 90.540451 0.087113 -0.996198 0.000041 
0.021220 -7.998163 75.064178 0.007739 -0.999944 0.007200 
0.817766 -7.951107 71.081848 0.088947 -0.996036 -0.000584 
0.427504 -7.976980 70.687752 0.057180 -0.998363 0.001526 
1.827071 -7.761228 80.624870 0.237840 -0.971304 0.001302 
1.902989 -7.740900 78.495728 0.239567 -0.970874 0.003245 
2.134338 -7.678875 83.678047 0.256581 -0.966520 0.002222 
1.755062 -7.793946 71.067047 0.221410 -0.975168 0.004994 
1.785925 -7.789824 70.432953 0.227164 -0.973848 0.004171 
2.292462 -7.662904 70.116302 0.284423 -0.958696 0.002551 
3.272613 -7.270047 78.258194 0.412731 -0.910853 -0.000851 
3.670059 -7.102478 76.581055 0.438381 -0.898781 0.003913 
4.134329 -6.840554 76.809723 0.531471 -0.847074 0.002245 
4.146007 -6.832935 77.310318 0.532060 -0.846707 0.000453 
3.579319 -7.134871 59.428612 0.427612 -0.903957 -0.003211 
3.200465 -7.306768 59.195240 0.421219 -0.906946 0.004814 
4.888580 -6.326950 62.764732 0.606898 -0.794777 -0.002101 
4.986475 -6.252141 72.405426 0.617091 -0.786887 0.002938 
4.749352 -6.426423 63.965023 0.588881 -0.808220 -0.000419 
4.784368 -6.403916 62.056316 0.596739 -0.802433 0.001825 
6.203691 -5.037172 116.599434 0.800323 -0.599554 -0.004208 
6.000000 -5.291502 110.625000 0.444579 -0.895738 0.001973 
5.215553 -6.061998 63.792606 0.649206 -0.760612 0.001108 
5.498513 -5.797053 75.497040 0.688199 -0.725520 0.001742 
5.553965 -5.754084 64.147575 0.690272 -0.723550 0.000677 
5.954197 -5.342923 65.102303 0.741502 -0.670949 0.001599 
-4.564637 6.561747 49.283997 -0.570548 0.821231 0.007412 
-4.918015 6.300120 49.745605 -0.610447 0.792021 0.007526 
-6.153543 5.110884 51.709583 -0.763512 0.645793 0.000770 
-6.407858 4.784922 52.160122 -0.806823 0.590777 0.004469 
-5.741961 5.556366 52.547359 -0.715857 0.698247 -0.000446 
-5.431966 5.861730 52.071774 -0.684289 0.729211 0.000246 
-6.204980 5.042328 54.968700 -0.773540 0.633742 -0.002753 
-6.275106 4.953629 54.340862 -0.783848 0.620953 0.000100 
-7.075655 3.709209 53.662048 -0.885758 0.464138 -0.002864 
-7.060009 3.738766 55.535011 -0.886610 0.462517 -0.000770 
-7.289469 3.257089 55.791500 -0.908304 0.418297 -0.003474 
-7.466737 2.861171 56.202560 -0.930631 0.365957 -0.001028 
-7.519001 2.731503 58.193241 -0.940476 0.339858 0.001168 
-7.666489 2.274904 57.250607 -0.963393 0.268091 0.001294 
-7.753317 1.894422 57.583805 -0.971670 0.236339 -0.000618 
-7.920458 0.909860 107.973763 -0.995469 0.095048 0.002819 
-7.886261 1.302394 79.707405 -0.987648 0.156650 0.003387 
-7.932289 0.775513 92.962036 -0.994527 0.104468 0.001670 
-7.889941 1.260681 73.628708 -0.987701 0.156328 0.002851 
-7.898139 1.179806 74.373940 -0.989485 0.144634 -0.000526 
-7.940112 0.832207 80.993004 -0.994229 0.107275 -0.000292 
-7.983107 -0.309488 88.455208 -0.998793 -0.049124 0.000350 
-7.989608 -0.190371 59.924309 -0.999810 -0.019465 -0.001191 
-7.882748 1.363366 59.080574 -0.987882 0.155196 0.001986 
-7.861454 1.473371 57.847149 -0.980552 0.196257 -0.000287 
-7.935826 0.754933 59.272514 -0.995958 0.089793 -0.002230 
-7.932950 1.016229 56.998814 -0.993544 0.113370 0.004166 
-7.856704 1.499323 72.963676 -0.982760 0.184872 0.002199 
-6.955582 3.941301 107.615807 -0.872621 0.488378 -0.004396 
-6.847327 4.135482 74.897118 -0.856939 0.515401 0.004052 
-7.240073 3.393911 73.586838 -0.902661 0.430352 0.000133 
-7.155765 3.552004 74.076431 -0.896180 0.443671 0.004243 
-7.036345 3.774183 75.383575 -0.880997 0.473112 0.003077 
-7.409945 3.000925 73.284210 -0.927468 0.373887 -0.003443 
-7.499753 2.783715 75.049713 -0.939139 0.343422 -0.008929 
-7.579704 2.504324 107.745728 -0.957075 0.289841 -0.000162 
-7.557065 2.589185 79.546074 -0.948577 0.316529 -0.003411 
-7.620006 2.402157 73.502129 -0.952465 0.304648 0.000832 
-6.517040 4.620152 71.651131 -0.816180 0.577797 0.001160 
-6.081618 5.196633 90.588196 -0.759442 0.650575 0.000955 
-6.370119 4.816922 90.893349 -0.807176 0.590311 0.000068 
-6.873854 4.092306 74.172668 -0.859900 0.510460 -0.001697 
4.568202 6.548561 57.586369 0.566034 0.824374 0.003577 
6.961657 3.933820 53.216587 0.870916 0.491411 0.004450 
6.567430 4.529096 55.766186 0.825360 0.564606 0.000164 
6.585750 4.517237 57.040382 0.824374 0.566017 -0.005628 
6.038536 5.240187 55.333061 0.760074 0.649837 -0.000556 
5.712223 5.581554 58.612408 0.715375 0.698734 -0.002937 
6.755638 4.263466 55.365097 0.839004 0.544070 0.007749 
6.928646 3.999225 54.908901 0.866707 0.498818 -0.000087 
7.099554 3.661891 56.146656 0.888172 0.459511 -0.000487 
7.092289 3.672903 54.427212 0.889562 0.456812 -0.001463 
7.555966 2.619408 53.014633 0.946626 0.322334 0.000666 
7.602566 2.471251 54.486816 0.950704 0.310093 0.002152 
7.824670 1.639749 53.691154 0.977519 0.210598 -0.010237 
7.925338 1.057668 49.848305 0.990864 0.134864 0.000139 
6.522207 4.579843 96.788010 0.826322 0.563195 0.001577 
7.013073 3.847500 74.961205 0.875626 0.482983 0.002503 
6.846326 4.116974 73.582870 0.857186 0.515007 0.000421 
6.353149 4.821269 113.237701 0.810499 0.585729 0.003674 
6.772132 4.231624 74.645271 0.842858 0.538135 0.000486 
5.793707 5.478763 78.875069 0.715633 0.698463 0.004368 
5.836327 5.444305 87.070587 0.719978 0.693997 0.000233 
6.447317 4.724479 70.295715 0.814232 0.580532 0.003069 
6.224072 5.021423 84.909981 0.778147 0.628083 -0.000056 
6.455907 4.710022 83.315956 0.816653 0.577126 0.001781 
7.405309 3.017527 73.997055 0.923899 0.382632 -0.001841 
7.473526 2.850887 81.897484 0.931907 0.362698 0.000570 
7.150369 3.562000 80.283905 0.901336 0.433117 0.001747 
7.383584 3.028861 114.388573 0.920748 0.390147 0.003066 
7.586066 2.525945 87.136581 0.950381 0.311066 0.003761 
7.638139 2.366184 74.954834 0.956234 0.292604 -0.000108 
7.738642 1.999804 74.453117 0.967371 0.253360 -0.001340 
7.825430 1.649971 73.181084 0.977574 0.210578 0.002586 
7.706560 2.130912 73.110924 0.963633 0.267213 0.003093 
7.999537 0.050410 73.394287 0.999989 0.004471 0.001570 
7.984471 0.458650 74.517281 0.998406 0.056445 0.000500 
7.950332 0.840109 72.556885 0.994719 0.102627 0.001144 
7.899871 1.247329 73.715889 0.987634 0.156777 -0.000525 
7.943688 0.795581 91.978912 0.995907 0.090381 0.000826 
7.853697 1.518574 74.443703 0.980536 0.196340 -0.000193 
7.973114 -0.570831 73.647064 0.997804 -0.066233 -0.000629 
7.996614 -0.167203 72.725525 0.999675 -0.025481 -0.000598 
7.910368 -1.053193 113.926071 0.994787 -0.101794 0.006094 
7.998494 -0.075676 81.786743 0.999804 -0.019622 -0.002771 
7.981112 -0.364799 88.479073 0.998224 -0.059565 0.000227 
7.912211 -1.178043 70.623840 0.990148 -0.140006 -0.002319 
7.935099 -1.002308 73.339081 0.992600 -0.121428 0.000395 
7.706730 -2.098922 70.902527 0.963714 -0.266936 0.000375 
7.783207 -1.780150 98.545074 0.969802 -0.243891 -0.001276 
7.671042 -2.211243 90.458252 0.962465 -0.271404 0.001371 
7.340758 -3.165173 70.750824 0.916555 -0.399904 -0.002085 
7.590209 -2.513768 71.942337 0.952866 -0.303376 -0.003005 
7.512409 -2.748729 77.405090 0.942105 -0.335317 -0.000471 
7.663176 -2.253830 71.495583 0.959765 -0.280803 -0.001060 
5.979002 -5.314676 69.115417 0.745510 -0.666487 0.003111 
6.958261 -3.934923 83.571320 0.878053 -0.478564 -0.000240 
6.364715 -4.826786 89.541504 0.804730 -0.593641 0.000782 
6.257484 -4.962107 114.167046 0.803848 -0.594832 0.001653 
6.474293 -4.652728 113.813156 0.819153 -0.573576 0.000415 
6.637746 -4.459653 68.853951 0.830951 -0.556338 0.003033 
6.974277 -3.900458 76.485695 0.878787 -0.477199 0.003914 
7.174358 -3.519665 69.115036 0.897062 -0.441902 -0.001523 
7.242521 -3.365882 78.321030 0.902961 -0.429721 -0.000907 
0.738155 -7.945426 55.198593 0.087290 -0.996183 0.000532 
0.895930 -7.940356 56.249752 0.102211 -0.994761 0.001611 
1.403996 -7.875164 57.931759 0.181515 -0.983382 -0.003494 
2.023057 -7.725667 57.680820 0.258352 -0.966028 -0.006693 
2.208120 -7.678643 56.161251 0.273199 -0.961955 -0.002370 
0.151626 -7.991932 55.142529 0.029868 -0.999553 -0.001624 
-0.322078 -7.982961 56.195614 -0.041703 -0.999129 0.001137 
-0.180665 -7.990281 54.447807 -0.021023 -0.999779 -0.000394 
-0.940098 -7.941808 52.159733 -0.109368 -0.993993 0.004174 
-1.363320 -7.881751 53.038116 -0.174835 -0.984594 0.002673 
-1.433333 -7.867520 52.365395 -0.186913 -0.982376 0.001378 
-1.914570 -7.756295 52.683865 -0.243245 -0.969964 0.001584 
-2.394641 -7.627830 53.518414 -0.288234 -0.957560 -0.000715 
-2.386473 -7.629022 52.971100 -0.290082 -0.956998 -0.002629 
-2.416914 -7.617484 52.355671 -0.295719 -0.955275 -0.000010 
-2.853469 -7.472466 53.208984 -0.355347 -0.934726 -0.003948 
-3.238184 -7.299355 50.720127 -0.413562 -0.910471 0.003078 
-6.171745 -5.086034 73.678276 -0.768766 -0.639530 -0.000301 
-6.283930 -4.940314 95.201012 -0.805385 -0.592751 0.000667 
-6.932546 -3.992380 83.749466 -0.860235 -0.509888 0.003041 
-7.377155 -3.043376 113.730949 -0.919625 -0.392797 -0.000632 
-7.468884 -2.861778 91.165306 -0.930654 -0.365897 -0.001424 
-7.332754 -3.180472 71.094841 -0.917047 -0.398775 -0.001843 
-6.891439 -4.051861 68.334320 -0.858440 -0.512905 -0.002988 
-6.729069 -4.307322 70.765869 -0.835142 -0.550034 0.000837 
-6.684688 -4.376112 70.174950 -0.834326 -0.551271 0.000500 
-7.756240 -1.955933 61.209633 -0.971191 -0.238302 0.001061 
-7.681715 -2.225929 67.182022 -0.962444 -0.271478 0.001188 
-7.726662 -1.968244 113.583908 -0.966087 -0.258215 0.000498 
-7.586907 -2.532839 80.243011 -0.949972 -0.312333 0.001071 
-7.978759 -0.389139 65.686310 -0.998546 -0.053857 0.002144 
-7.950379 -0.833858 65.405174 -0.995779 -0.091744 0.002612 
-7.946632 -0.721963 88.939262 -0.996149 -0.087671 0.000419 
-7.944965 -0.748761 86.787277 -0.996105 -0.088176 -0.000535 
-7.899293 -1.257965 65.148186 -0.987508 -0.157563 0.001284 
-7.947333 -0.630164 112.183784 -0.996272 -0.086265 0.000383 
-7.835078 -1.590342 68.157028 -0.978345 -0.206970 0.002223 
-1.500000 -5.291502 120.000000 0.000000 -0.707107 0.707107 
4.500000 -5.291502 120.000000 0.000000 -0.707107 0.707107 
4.794526 -4.913538 120.000000 0.000000 0.000000 1.000000 
1.500000 5.291502 120.000000 0.000000 0.707107 0.707107 
-4.500000 5.291502 120.000000 0.000000 0.707107 0.707107 
-4.844316 4.949507 120.000000 0.000000 0.000000 1.000000 
5.136342 -4.440251 120.000000 0.000000 0.000000 1.000000 
-0.706032 -4.657182 120.000000 0.000000 0.000000 1.000000 
6.000140 -2.692395 120.000000 0.000000 0.000000 1.000000 
5.679035 -3.044412 120.000000 0.000000 0.000000 1.000000 
-0.392218 -3.445004 120.000000 0.000000 0.000000 1.000000 
-0.619465 -3.833426 120.000000 0.000000 0.000000 1.000000 
6.310539 -2.273700 120.000000 0.000000 0.000000 1.000000 
6.289010 -1.425436 120.000000 0.000000 0.000000 1.000000 
6.001258 -1.822797 120.000000 0.000000 0.000000 1.000000 
-5.137704 4.520262 120.000000 0.000000 0.000000 1.000000 
-5.412589 4.012500 120.000000 0.000000 0.000000 1.000000 
1.119510 4.782829 120.000000 0.000000 0.000000 1.000000 
0.337094 3.998086 120.000000 0.000000 0.000000 1.000000 
-5.695959 3.474945 120.000000 0.000000 0.000000 1.000000 
0.914137 4.116673 120.000000 0.000000 0.000000 1.000000 
-6.047692 2.263460 120.000000 0.000000 0.000000 1.000000 
5.911616 -0.875959 120.000000 0.000000 0.000000 1.000000 
6.252680 -0.373932 120.000000 0.000000 0.000000 1.000000 
-0.179859 -3.084275 120.000000 0.000000 0.000000 1.000000 
-1.046195 -3.342352 120.000000 0.000000 0.000000 1.000000 
6.189798 0.660083 120.000000 0.000000 0.000000 1.000000 
0.181447 -1.660974 120.000000 0.000000 0.000000 1.000000 
1.200247 -0.806821 120.000000 0.000000 0.000000 1.000000 
5.925334 1.078135 120.000000 0.000000 0.000000 1.000000 
6.056654 1.727722 120.000000 0.000000 0.000000 1.000000 
6.465671 1.165607 120.000000 0.000000 0.000000 1.000000 
0.832209 3.527880 120.000000 0.000000 0.000000 1.000000 
0.404011 3.433258 120.000000 0.000000 0.000000 1.000000 
0.145603 2.964695 120.000000 0.000000 0.000000 1.000000 
-6.558217 -0.147664 120.000000 0.000000 0.000000 1.000000 
0.719904 2.931372 120.000000 0.000000 0.000000 1.000000 
-6.273095 -1.200949 120.000000 0.000000 0.000000 1.000000 
-5.698882 -1.228946 120.000000 0.000000 0.000000 1.000000 
-6.195174 -2.110195 120.000000 0.000000 0.000000 1.000000 
-5.847328 -2.549784 120.000000 0.000000 0.000000 1.000000 
-5.486050 -3.021942 120.000000 0.000000 0.000000 1.000000 
-0.323420 0.656586 120.000000 0.000000 0.000000 1.000000 
-4.810351 -3.005118 120.000000 0.000000 0.000000 1.000000 
-1.461998 -2.137135 120.000000 0.000000 0.000000 1.000000 
5.846565 3.685857 120.000000 0.000000 0.000000 1.000000 
5.506099 2.816188 120.000000 0.000000 0.000000 1.000000 
7.259140 1.286905 54.023827 0.204316 -0.766090 0.609394 
-6.001637 -4.314424 43.499306 0.404343 -0.666359 -0.626476 
-4.245583 -5.289117 45.942379 0.587894 -0.557909 -0.585763 
-2.057605 -6.586410 54.505268 -0.795113 0.192854 0.574981 
-2.679440 5.873570 46.473000 -0.777965 -0.282660 -0.561136 
-1.394660 6.722435 49.364609 0.777555 0.230858 0.584904 
0.129169 6.365893 47.263836 0.830578 0.058489 0.553823 
6.459899 -0.614309 46.484188 0.142403 0.814981 -0.561718 
5.485129 -2.309170 64.157181 0.633498 0.482066 -0.605221 
4.973456 -2.174290 63.729710 0.661003 0.490535 -0.567847 
4.673017 -3.186020 62.266647 0.709351 0.547825 -0.443520 
-4.747192 -3.592962 64.153214 0.101987 -0.791522 -0.602571 
-4.374112 -3.218348 63.726597 0.096373 -0.817324 -0.568061 
-5.095455 -2.453852 62.266537 0.119625 -0.888234 -0.443544 
-0.742749 5.904849 64.157158 -0.734233 0.307591 -0.605219 
-0.603733 5.394283 63.729706 -0.755313 0.327182 -0.567850 
0.422655 5.639946 62.266655 -0.829091 0.340435 -0.443522 
6.785623 -1.530929 26.386505 0.970033 -0.232623 -0.070162 
-5.960536 1.804308 18.565599 -0.956164 0.267175 -0.119865 
-5.836846 1.225786 16.361794 -0.968425 0.220306 -0.116701 
-6.537028 -1.765963 24.074915 -0.958993 -0.267643 -0.093268 
-4.224880 -5.724380 28.852510 -0.595617 -0.800518 -0.066424 
-4.077684 -5.704636 27.213919 -0.593167 -0.802890 -0.059343 
-0.349133 -7.539441 36.227718 -0.038520 -0.997584 -0.057810 
0.751039 -7.475145 35.709003 0.092536 -0.994543 -0.048187 
1.941945 -7.357634 37.704266 0.259568 -0.964729 -0.043853 
2.016657 -7.394090 38.950657 0.269507 -0.961882 -0.046364 
5.865603 -5.156040 42.994743 0.756370 -0.653446 -0.030206 
5.472658 -5.572683 42.744595 0.691403 -0.721624 -0.034951 
6.652137 -4.228067 44.951916 0.843067 -0.537060 -0.028359 
6.505477 -4.424138 44.338070 0.824065 -0.565501 -0.033555 
6.585249 -4.399629 45.970695 0.828131 -0.559212 -0.038475 
6.357010 -4.588200 43.779449 0.804166 -0.593132 -0.038871 
6.844069 -3.998119 46.247894 0.867826 -0.495794 -0.032639 
6.919996 -3.692695 43.745987 0.878803 -0.475786 -0.036509 
7.154438 -3.262940 44.189419 0.910210 -0.413050 -0.030107 
7.318062 -2.901342 44.724072 0.933944 -0.355942 -0.032452 
7.346020 -3.052584 47.500641 0.925783 -0.376343 -0.035936 
7.906293 -1.101373 48.269341 0.988546 -0.147572 -0.031602 
5.444117 -5.567718 42.191402 0.690087 -0.722557 -0.041136 
2.896722 -7.026875 37.649960 0.371124 -0.927714 -0.040178 
-3.393254 -6.318535 29.637455 -0.476603 -0.877119 -0.059261 
-6.208101 -2.486516 23.127836 -0.925149 -0.370975 -0.080477 
-4.294141 3.377903 12.925622 -0.773286 0.613927 -0.158505 
4.551956 -4.803005 22.370226 0.679771 -0.727713 -0.091353 
4.120193 -5.045953 21.313589 0.636742 -0.764627 -0.099519 
5.374880 -4.250500 25.052105 0.783073 -0.615146 -0.091613 
6.754803 -2.015617 27.694395 0.954160 -0.290186 -0.073286 
6.562406 -2.424498 27.122377 0.937120 -0.341131 -0.073733 
7.001009 -0.696962 27.441841 0.991454 -0.113191 -0.064852 
7.137363 -0.530881 29.252026 0.996100 -0.064267 -0.060457 
7.074782 -1.105192 29.372063 0.985911 -0.152270 -0.069228 
7.090135 -1.270474 29.968557 0.984057 -0.163484 -0.070034 
7.043185 -1.002875 28.702368 0.987101 -0.145134 -0.067580 
7.269568 1.231184 33.037373 0.983311 0.171347 -0.061151 
6.221261 4.194312 35.361012 0.827946 0.558489 -0.050945 
6.793859 3.219294 35.703751 0.897336 0.437987 -0.054364 
6.675968 3.235401 33.812271 0.897747 0.437387 -0.052376 
6.887538 2.494174 32.309074 0.940275 0.335570 -0.057228 
6.093598 4.412562 35.910126 0.798996 0.599394 -0.048295 
5.778240 4.828792 36.211262 0.766535 0.640424 -0.047767 
5.645032 4.906163 35.070709 0.763062 0.645009 -0.041225 
5.716312 5.051704 38.255749 0.749767 0.660048 -0.046757 
5.318407 5.461513 38.014221 0.694081 0.718314 -0.047719 
5.150253 5.646865 38.543880 0.666448 0.744127 -0.046055 
1.249611 7.779538 44.759884 0.154086 0.987479 -0.033816 
0.868151 7.847147 45.356647 0.096774 0.994497 -0.040143 
0.024205 7.866764 44.645226 0.020199 0.999330 -0.030537 
0.027980 7.832579 43.393707 0.013889 0.999243 -0.036330 
-0.103266 7.924995 46.179569 -0.013913 0.999346 -0.033386 
6.980447 -1.635591 29.439852 0.974334 -0.213144 -0.072405 
6.927256 -1.482684 28.203384 0.976722 -0.202939 -0.069504 
4.692647 3.884904 17.363043 0.762417 0.634905 -0.124966 
2.367605 6.121047 21.779352 0.358653 0.928606 -0.095182 
1.998652 6.121723 20.429306 0.321640 0.942051 -0.095331 
-3.416345 6.197315 28.123699 -0.469984 0.880683 -0.059269 
-6.593258 3.730149 36.812538 -0.873769 0.483823 -0.049430 
-7.019974 2.859024 37.018150 -0.924438 0.377859 -0.051358 
-7.179472 2.481976 37.352112 -0.946658 0.318153 -0.051165 
-7.128865 2.327348 35.244873 -0.949128 0.311963 -0.042840 
-7.251047 2.404741 38.421978 -0.951166 0.305570 -0.043704 
-7.386013 -2.713911 44.469929 -0.939334 -0.341659 -0.030334 
-7.033533 -3.628138 45.876377 -0.887404 -0.459625 -0.035477 
-6.876643 -3.948754 46.394218 -0.856981 -0.513994 -0.037322 
-6.275141 -4.808776 45.711781 -0.800477 -0.598805 -0.025878 
-7.583031 1.165082 39.105801 -0.989488 0.139356 -0.038638 
-7.519473 1.614378 39.578827 -0.978014 0.202536 -0.049677 
-6.261760 3.893118 33.039005 -0.842804 0.535990 -0.048946 
-4.343260 5.837694 31.456871 -0.594570 0.801974 -0.057649 
-3.604580 6.257669 30.342062 -0.489891 0.869376 -0.064752 
-3.312425 6.375360 29.864798 -0.455060 0.888210 -0.063279 
0.536165 6.785107 24.537289 0.076373 0.993843 -0.080270 
1.314541 6.672734 24.456171 0.188241 0.978029 -0.089575 
1.845527 6.292452 21.655588 0.277853 0.956302 -0.091024 
1.449007 6.425768 22.098412 0.220021 0.971596 -0.087136 
4.395901 4.503211 19.096529 0.678281 0.725373 -0.117341 
-1.500000 -5.291502 95.000000 0.000000 -0.707107 0.707107 
4.500000 -5.291502 95.000000 0.000000 -0.707107 0.707107 
4.516766 -5.291502 98.125259 0.000000 -1.000000 0.000000 
1.493416 -5.291502 104.415314 0.000000 -1.000000 0.000000 
-1.506514 -5.291502 110.665298 0.000000 -1.000000 0.000000 
-4.522501 -5.291502 116.852997 0.000000 -1.000000 0.000000 
4.074890 -5.775636 95.000000 0.000000 0.000000 1.000000 
0.838930 -6.248901 95.000000 0.000000 0.000000 1.000000 
1.793416 -6.740471 95.000000 0.000000 0.000000 1.000000 
-1.716222 -7.351713 95.000000 0.000000 0.000000 1.000000 
-0.418376 -7.528993 95.000000 0.000000 0.000000 1.000000 
1.500000 5.291502 95.000000 0.000000 0.707107 0.707107 
-4.500000 5.291502 95.000000 0.000000 0.707107 0.707107 
-4.516766 5.291502 98.125259 0.000000 1.000000 0.000000 
-1.493416 5.291502 104.415314 0.000000 1.000000 0.000000 
1.506514 5.291502 110.665298 0.000000 1.000000 0.000000 
4.522501 5.291502 116.852997 0.000000 1.000000 0.000000 
-4.264270 5.685368 95.000000 0.000000 0.000000 1.000000 
-3.842024 5.910983 95.000000 0.000000 0.000000 1.000000 
1.764539 6.692470 95.000000 0.000000 0.000000 1.000000 
1.502904 6.131125 95.000000 0.000000 0.000000 1.000000 
3.342494 6.241339 95.000000 0.000000 0.000000 1.000000 
3.085830 6.704101 95.000000 0.000000 0.000000 1.000000 
-0.653977 6.773121 95.000000 0.000000 0.000000 1.000000 
-1.336037 6.639945 95.000000 0.000000 0.000000 1.000000 
-2.017233 6.578409 95.000000 0.000000 0.000000 1.000000 
1.778687 7.274504 95.000000 0.000000 0.000000 1.000000 
0.791176 7.482833 95.000000 0.000000 0.000000 1.000000 
5.084221 6.169052 92.617058 0.629113 0.777295 -0.005416 
4.099529 6.858535 93.095978 0.521624 0.853152 0.006396 
3.212944 7.301939 83.542847 0.421767 0.906704 0.000864 
3.472809 7.180998 83.140610 0.425705 0.904862 0.000811 
3.853143 7.002630 82.744522 0.473940 0.880554 -0.002373 
-0.647532 7.954220 84.048897 -0.087139 0.996191 0.003253 
-4.726374 6.428045 87.336418 -0.580418 0.814310 0.003866 
-4.187755 6.808295 86.394882 -0.534229 0.845340 -0.000482 
-4.503795 6.584364 86.912636 -0.569784 0.821792 0.001982 
-4.095030 6.870703 82.465294 -0.512609 0.858620 -0.001770 
-5.834036 -5.454353 92.880104 -0.715835 -0.698264 -0.002838 
-5.725318 -5.560180 93.453728 -0.703387 -0.710807 -0.001114 
-3.288779 -7.267547 87.281372 -0.421805 -0.906686 0.000642 
-3.808295 -7.031162 82.550941 -0.468348 -0.883540 -0.002788 
-1.623579 -7.825451 86.118492 -0.218023 -0.975936 0.003821 
-0.830602 -7.936825 82.985184 -0.097006 -0.995279 0.003238 
-1.238550 -7.900604 82.559570 -0.143622 -0.989628 0.002895 
-1.018584 -7.919620 83.695435 -0.113083 -0.993585 -0.000494 
1.137460 -7.900595 90.057610 0.123662 -0.992321 0.002683 
1.638053 -7.811812 89.871704 0.227337 -0.973807 0.004140 
1.909757 -7.739002 91.045128 0.257004 -0.966410 0.000435 
1.949266 -7.728432 88.612068 0.255496 -0.966810 0.000898 
2.050343 -7.701342 89.684380 0.258819 -0.965926 0.000006 
2.874565 -7.453027 92.745110 0.368729 -0.929537 0.000869 
3.167494 -7.316504 85.903770 0.422618 -0.906308 0.000010 
3.887964 -6.987894 87.268188 0.475817 -0.879544 -0.000245 
4.607646 -6.510112 83.627762 0.574640 -0.818406 0.000016 
4.092616 -6.867772 82.822350 0.528351 -0.849021 -0.002876 
4.355609 -6.696169 70.699562 0.551772 -0.833989 0.003034 
6.000000 -5.291502 96.562500 0.432693 -0.901537 0.002795 
-7.956126 0.502038 110.488297 -0.997090 0.076197 -0.002398 
-7.973227 0.306603 110.007477 -0.997430 0.070974 0.009816 
-7.850212 1.508292 112.620262 -0.980276 0.197607 -0.003320 
-7.433258 2.937073 102.713799 -0.921578 0.388194 0.000109 
-7.306344 3.189094 103.192566 -0.904430 0.426618 0.002102 
-7.513587 2.746728 103.267899 -0.940163 0.340723 -0.001083 
-7.648880 2.246212 103.425003 -0.964389 0.264477 0.002398 
-6.353052 4.827510 111.433662 -0.810116 0.586267 -0.001413 
7.513104 2.747717 102.836510 0.937673 0.347519 -0.000050 
7.256273 3.319761 95.913269 0.906658 0.421866 0.000503 
6.838470 4.128171 99.931625 0.846322 0.532602 0.008597 
7.639959 2.322407 99.888000 0.961890 0.273434 0.001022 
7.635950 2.338645 99.291977 0.961690 0.274140 0.000245 
7.866511 1.451627 102.582367 0.983235 0.182302 0.003980 
7.950027 0.665470 102.610458 0.995721 0.092414 0.000390 
6.205733 -5.045943 96.217865 0.791689 -0.610911 0.004160 
6.846134 -4.132574 101.696175 0.854415 -0.519548 0.006677 
6.889459 -4.063994 104.537636 0.862629 -0.505835 -0.001445 
7.059597 -3.717902 100.934563 0.901037 -0.433716 0.004776 
7.164545 -3.493105 116.532043 0.906308 -0.422618 -0.000007 
7.188737 -3.441187 114.356697 0.906308 -0.422618 -0.000007 
7.348452 -3.098718 116.700623 0.913116 -0.407671 0.004922 
7.376379 -3.060517 98.052063 0.913946 -0.405824 -0.003235 
-7.426211 -2.955655 95.932053 -0.921951 -0.387305 0.001191 
-6.855532 -4.103519 98.618607 -0.846369 -0.532585 -0.003630 
-7.777439 -1.815059 94.994354 -0.971290 -0.237900 0.000419 
-7.723582 -2.002265 102.052383 -0.966921 -0.255075 0.000070 
-7.641624 -2.299569 106.438690 -0.962837 -0.270070 0.002608 
-7.812538 -1.694876 78.516182 -0.975402 -0.220433 0.000664 
-7.904028 -1.228130 78.672134 -0.989653 -0.143483 0.000269 
2.253788 -1.242280 120.000000 0.000000 0.000000 1.000000 
2.535663 -0.764647 120.000000 0.000000 0.000000 1.000000 
4.699163 -0.238372 52.369545 0.141214 -0.887920 0.437786 
5.320419 -3.249215 47.238071 -0.372426 -0.751022 0.545220 
-2.368190 0.941603 22.621124 -0.513506 0.843385 0.158158 
-1.409996 2.951301 13.395315 0.533363 0.797743 0.281302 
-1.961289 3.291975 13.553854 0.585102 0.729360 0.354527 
-4.506878 4.083814 30.332014 -0.633372 -0.562737 -0.531194 
-2.258379 -2.527401 43.859047 0.326214 -0.897727 -0.296094 
-2.180109 2.627170 27.466719 -0.932905 -0.196659 -0.301683 
-2.115963 -1.247150 38.094151 -0.456690 -0.878812 -0.138287 
-2.106451 1.179937 27.829294 -0.992049 0.009361 -0.125501 
-2.217422 0.532397 45.998837 -0.859890 0.506850 0.060770 
0.858564 -2.522145 3.884824 -0.398995 -0.900068 0.175161 
-0.451013 -2.516944 59.503433 -0.732760 -0.660894 0.162116 
3.230129 -0.263309 13.418848 0.428778 -0.859189 0.279185 
3.776641 0.064943 13.651892 0.362008 -0.867083 0.342225 
0.865880 -2.432458 4.347401 -0.315173 -0.935493 0.159748 
-3.044010 5.205269 47.407104 -0.767059 -0.355490 -0.534086 
1.761312 6.449951 39.914188 -0.764236 0.312045 -0.564421 
-2.392960 0.629267 50.650734 -0.939870 -0.310875 -0.141426 
-2.360427 0.758773 50.159153 -0.955497 -0.263757 -0.132126 
6.142274 -0.313423 26.878429 0.121316 0.833171 -0.539545 
1.635639 1.519778 46.176899 0.830188 0.556507 0.032990 
-1.439823 1.960601 57.969059 -0.095717 0.987203 0.127550 
2.770452 -0.356176 34.034100 0.574254 -0.789613 0.216203 
5.907251 -1.232691 30.536699 -0.090703 -0.840546 0.534093 
-6.154051 -1.793093 20.107731 -0.541907 -0.726727 -0.422144 
1.741444 1.757730 50.650734 0.200703 0.969389 -0.141430 
1.837338 1.664803 50.159161 0.249317 0.959366 -0.132131 
2.405511 -2.035718 38.683044 0.928100 0.266023 -0.260504 
-5.008008 0.156151 16.746433 -0.199126 -0.870133 -0.450798 
3.814967 -1.033113 63.311432 0.710047 0.479524 -0.515646 
2.272367 0.829938 61.271664 0.995736 -0.021112 -0.089805 
2.361990 1.357931 61.641502 0.990230 -0.118614 -0.073322 
5.103587 6.158639 61.033012 0.941029 0.193101 0.277807 
3.960611 5.610084 63.284687 0.862210 -0.492981 0.116461 
-2.801014 -2.787163 63.311428 0.059882 -0.854724 -0.515616 
-0.571869 -2.325455 61.373043 -0.442211 -0.885847 -0.140444 
-1.012645 3.820533 63.311306 -0.770323 0.375114 -0.515647 
2.680521 -7.172392 39.134274 0.357553 -0.933004 -0.040723 
-7.587104 1.388506 40.043152 -0.986072 0.159838 -0.045970 
-2.223134 -5.291502 104.391014 0.000000 -1.000000 0.000000 
-2.240452 -5.291502 102.785507 0.000000 -1.000000 0.000000 
-1.538250 -5.291502 102.912834 0.000000 -1.000000 0.000000 
2.236896 -5.291502 112.264526 0.000000 -1.000000 0.000000 
1.577938 -5.291502 112.148392 0.000000 -1.000000 0.000000 
2.161896 -5.291502 110.547211 0.000000 -1.000000 0.000000 
2.223134 5.291502 104.391014 0.000000 1.000000 0.000000 
2.240452 5.291502 102.785507 0.000000 1.000000 0.000000 
1.538250 5.291502 102.912834 0.000000 1.000000 0.000000 
-2.236896 5.291502 112.264526 0.000000 1.000000 0.000000 
-1.577938 5.291502 112.148392 0.000000 1.000000 0.000000 
-2.161896 5.291502 110.547211 0.000000 1.000000 0.000000 
5.738438 5.543778 76.174225 0.718181 0.695850 -0.002976 
5.489805 5.817994 68.714806 0.688434 0.725299 -0.000684 
5.083500 6.169878 68.377968 0.634552 0.772880 -0.000489 
5.169573 6.105341 68.942879 0.641066 0.767470 0.004854 
3.027700 7.399148 65.095222 0.393299 0.919411 0.000467 
3.435763 7.204707 73.952347 0.429505 0.903063 0.001681 
3.074267 7.374548 70.011871 0.394385 0.918945 0.000727 
3.978325 6.939188 83.298958 0.497834 0.867272 -0.000527 
2.368475 7.635248 73.359688 0.289667 0.957126 0.001802 
1.884878 7.767387 70.913750 0.241002 0.970524 0.001424 
1.387523 7.878750 68.877556 0.175759 0.984432 -0.001517 
1.604717 7.836719 67.403381 0.205473 0.978663 -0.000340 
0.610830 7.949050 89.785606 0.081727 0.996655 0.000474 
-1.780094 7.785229 78.031837 -0.239232 0.970954 0.004121 
-0.359051 7.985209 74.021690 -0.049039 0.998794 -0.002325 
-1.265293 7.895010 84.152908 -0.155562 0.987826 -0.000092 
-3.209866 7.325710 68.063278 -0.401845 0.915706 0.001748 
-2.861083 7.469784 76.069443 -0.353244 0.935530 0.001353 
-3.484182 7.170056 93.460564 -0.427655 0.903941 0.001354 
-4.303086 6.737232 78.956390 -0.551750 0.834009 0.001447 
-4.908891 6.305270 82.780586 -0.601488 0.798880 0.001424 
-4.717206 6.435534 86.365738 -0.583488 0.812122 0.000168 
-4.382575 6.679437 79.867493 -0.556818 0.830634 -0.000649 
-5.172833 6.101964 76.729149 -0.649491 0.760359 -0.003851 
-5.974680 5.316432 81.170357 -0.742102 0.670286 0.001037 
-5.990530 5.298518 79.973938 -0.743532 0.668700 -0.000282 
-5.991541 5.297530 80.562027 -0.742905 0.669397 -0.000844 
-5.827066 -5.467432 77.120049 -0.722891 -0.690962 0.001177 
-5.623315 -5.671856 78.137032 -0.701417 -0.712751 -0.000460 
-5.454523 -5.828535 83.908539 -0.692731 -0.721194 0.001678 
-5.302196 -5.980753 75.627831 -0.665128 -0.746722 -0.003415 
-4.640927 -6.480402 93.967987 -0.573576 -0.819152 0.000779 
-4.217062 -6.791960 78.441826 -0.539468 -0.842006 -0.001112 
-3.707613 -7.081884 80.549194 -0.452587 -0.891718 -0.002090 
-3.462890 -7.193606 80.010910 -0.429363 -0.903132 0.000518 
-2.803633 -7.491078 76.596466 -0.353899 -0.935278 0.003297 
-0.477373 -7.972511 76.933578 -0.067713 -0.997704 0.001035 
-1.156374 -7.911155 77.988792 -0.128022 -0.991771 0.000784 
-0.198430 -7.994865 79.528717 -0.022409 -0.999741 0.004002 
0.035244 -7.996927 83.949745 0.014914 -0.999857 -0.007927 
0.683140 -7.940244 84.162529 0.079411 -0.996841 0.001472 
0.579785 -7.949286 84.818825 0.079381 -0.996844 -0.000965 
-0.009168 -7.999934 69.598587 -0.003876 -0.999992 0.000781 
2.268027 -7.670897 68.766632 0.279441 -0.960162 0.001132 
3.214087 -7.320893 68.818855 0.405279 -0.914193 -0.000311 
3.343280 -7.265667 67.619431 0.416081 -0.909327 -0.000562 
4.531569 -6.568190 76.226326 0.569358 -0.822090 -0.000206 
4.396152 -6.669716 73.826279 0.558293 -0.829642 0.001804 
4.504955 -6.591557 73.364120 0.567774 -0.823182 -0.002304 
3.817935 -7.025204 82.412903 0.462956 -0.886375 -0.003463 
4.102245 -6.861489 83.350853 0.526756 -0.850015 0.001638 
4.094237 -6.866714 65.033272 0.521040 -0.853527 0.002896 
5.326550 -5.961464 73.414452 0.663302 -0.748352 -0.000326 
5.883289 -5.418851 72.414612 0.731908 -0.681404 -0.000323 
5.631496 -5.671048 70.999229 0.700353 -0.713796 0.001245 
-7.366224 3.086252 54.629879 -0.919005 0.394229 0.003684 
-7.884359 1.322991 99.209167 -0.988918 0.148464 0.000600 
-7.952075 0.735541 82.142982 -0.995692 0.092716 -0.000925 
-7.972804 0.527375 85.409050 -0.996093 0.088278 0.002488 
-7.976579 0.468426 88.318146 -0.997485 0.070854 0.001762 
-7.966390 0.565894 87.845848 -0.995975 0.089635 -0.000097 
-7.993605 0.187611 80.272911 -0.999747 0.022492 -0.000812 
-7.994210 -0.106073 86.772285 -0.999554 -0.029829 -0.001502 
-7.993414 0.193213 72.363571 -0.999757 0.022047 -0.000693 
-7.738294 2.012771 69.723618 -0.966977 0.254853 0.002536 
-7.867564 1.445061 90.086723 -0.984686 0.174329 0.001489 
-7.889659 1.263125 86.975357 -0.989496 0.144559 0.000509 
-7.096814 3.638444 95.156021 -0.897887 0.440218 0.002606 
-6.922484 4.009747 99.382156 -0.869684 0.493608 0.000794 
-7.073213 3.689066 85.181488 -0.889994 0.455972 -0.000206 
-7.489716 2.810585 85.521408 -0.939662 0.342104 0.000594 
-7.506153 2.766600 84.864326 -0.943271 0.332018 -0.002153 
-7.669808 2.194304 84.844261 -0.961178 0.275884 0.004978 
-6.010154 5.277492 83.429825 -0.745441 0.666552 -0.005131 
-6.142091 5.125333 76.957382 -0.769204 0.638997 -0.002810 
-6.359468 4.840927 76.598648 -0.801027 0.598628 -0.000589 
-6.445000 4.711390 89.529533 -0.813804 0.581140 0.000142 
-6.396567 4.773792 99.613815 -0.808985 0.587828 0.001385 
-6.891198 4.055305 116.555565 -0.859621 0.510927 -0.002481 
6.720628 4.296466 100.922287 0.826720 0.562588 -0.005431 
6.762442 4.236747 103.747681 0.835535 0.549416 0.004785 
6.550156 4.539925 101.606209 0.826028 0.563626 0.001775 
6.356652 4.842391 88.258240 0.806157 0.591695 0.002654 
5.764095 5.512048 83.926804 0.714539 0.699595 0.001102 
6.048956 5.233627 83.371613 0.743295 0.668963 -0.000747 
6.172473 5.088780 81.319504 0.766291 0.642493 -0.000014 
6.374340 4.820634 79.166023 0.808099 0.589045 -0.001712 
6.146768 5.119951 79.711159 0.757941 0.652317 0.002894 
7.303214 3.228030 85.607147 0.912127 0.409906 0.001304 
7.070537 3.727608 86.064369 0.885226 0.465161 0.001070 
6.602918 4.465318 88.823471 0.825922 0.563782 -0.001493 
7.599653 2.484269 78.866013 0.952035 0.305986 -0.001674 
7.709045 2.095818 85.314606 0.965506 0.260381 -0.000784 
7.714606 2.047320 98.255966 0.966547 0.256486 0.001466 
7.748110 1.920873 98.913483 0.967361 0.253401 -0.000780 
7.990943 0.279518 90.974419 0.999012 0.044368 0.002486 
7.947817 0.784450 85.328445 0.995137 0.098485 0.001435 
7.972957 0.379191 107.074120 0.997176 0.075046 -0.002861 
7.915523 1.132870 89.144981 0.991210 0.132264 0.002838 
7.874796 1.408311 85.280426 0.984156 0.177259 -0.003944 
7.918362 1.117938 85.915588 0.991623 0.129156 -0.001430 
7.965726 -0.612032 78.319305 0.996673 -0.081432 0.003424 
7.959145 -0.548820 102.674072 0.997195 -0.074829 -0.001485 
7.940286 -0.810548 92.899979 0.995594 -0.093735 0.002527 
7.997936 -0.102798 79.663437 0.999792 -0.020374 -0.000706 
7.958879 -0.616838 88.919380 0.997006 -0.077307 0.001339 
7.997231 -0.136601 83.581665 0.999634 -0.027054 -0.000280 
7.997893 -0.104579 84.214409 0.999746 -0.022545 0.000582 
7.782591 -1.806693 83.878021 0.969251 -0.246036 0.004321 
7.847859 -1.548276 83.435486 0.978641 -0.205577 -0.000770 
7.516811 -2.738030 84.298782 0.940719 -0.339158 0.004342 
5.867749 -5.435985 67.670639 0.732963 -0.680268 0.000526 
6.001656 -5.288775 73.623581 0.743367 -0.668884 -0.000319 
6.819701 -4.181197 67.090431 0.853510 -0.521076 0.000802 
6.462494 -4.690125 85.419662 0.812204 -0.583362 0.003588 
6.419305 -4.752990 83.783646 0.806581 -0.591119 0.002497 
6.700362 -4.360092 80.505302 0.832945 -0.553350 0.002368 
6.709706 -4.346024 81.193863 0.831817 -0.555044 -0.002769 
-5.830741 -5.456863 94.502617 -0.712922 -0.701242 -0.000967 
-6.179551 -5.075845 104.642052 -0.797356 -0.603508 0.001074 
-6.293570 -4.927809 87.631462 -0.801731 -0.597684 0.000837 
-6.283450 -4.940953 86.228897 -0.795032 -0.606558 0.003403 
-7.512986 -2.748608 68.900024 -0.937700 -0.347447 -0.000098 
-7.519651 -2.730356 71.484673 -0.938214 -0.346057 0.000122 
-7.154895 -3.532531 100.987007 -0.897560 -0.440884 0.002645 
-7.276299 -3.285346 87.583786 -0.910527 -0.413448 0.000925 
-7.389323 -3.049139 81.295486 -0.921483 -0.388417 0.000913 
-7.187179 -3.483842 83.925140 -0.902636 -0.430401 0.001880 
-6.702972 -4.321188 81.851669 -0.828765 -0.559596 0.000207 
-6.705337 -4.317782 79.618729 -0.838785 -0.544461 -0.001378 
-6.548187 -4.559109 85.372368 -0.827133 -0.561996 -0.003440 
-6.523715 -4.597309 84.887741 -0.826825 -0.562440 0.004579 
-6.602098 -4.477858 83.344559 -0.825530 -0.564358 -0.000369 
-7.845800 -1.540627 79.786621 -0.980553 -0.196245 0.001867 
-7.779282 -1.797678 100.369598 -0.970848 -0.239697 -0.000388 
-7.836392 -1.578239 103.494751 -0.977970 -0.208744 -0.000790 
-7.727851 -2.029726 79.842598 -0.967918 -0.251257 0.001949 
-7.990590 -0.172394 100.609032 -0.999755 -0.022023 -0.002351 
-7.916973 -1.106069 76.429611 -0.991126 -0.132926 0.000323 
-7.909382 -1.182120 79.398796 -0.990458 -0.137784 0.002824 
-7.922843 -1.026320 79.938171 -0.993397 -0.114605 0.005338 
1.739505 -4.371160 120.000000 0.000000 0.000000 1.000000 
2.455302 -2.924318 120.000000 0.000000 0.000000 1.000000 
-2.116173 2.658869 120.000000 0.000000 0.000000 1.000000 
2.387007 -2.339932 120.000000 0.000000 0.000000 1.000000 
-4.242011 -4.183005 120.000000 0.000000 0.000000 1.000000 
5.009785 4.898426 120.000000 0.000000 0.000000 1.000000 
-2.152940 1.102373 120.000000 0.000000 0.000000 1.000000 
-2.017006 0.504560 120.000000 0.000000 0.000000 1.000000 
-1.822202 -0.178323 120.000000 0.000000 0.000000 1.000000 
1.404575 2.073125 120.000000 0.000000 0.000000 1.000000 
4.933921 -3.961186 45.999870 -0.467954 -0.691757 0.549992 
4.175085 -4.421838 44.717701 -0.555378 -0.636275 0.535453 
-2.530651 -3.638666 32.204777 -0.852699 0.319304 0.413460 
-4.174250 2.098395 18.423512 0.223657 0.873126 0.433161 
1.113417 3.057500 5.820181 0.942751 0.181918 0.279512 
2.892790 -1.679363 49.002171 -0.009368 -0.954268 0.298806 
5.029197 -2.143826 48.763359 -0.229614 -0.838657 0.493895 
2.483943 -2.191147 47.182896 -0.185650 -0.942036 0.279467 
-0.592148 -3.536330 37.108295 -0.913130 -0.249815 0.322158 
4.125158 1.179826 9.358311 0.016478 0.920178 -0.391153 
-3.591251 -6.265525 47.526157 0.646395 -0.472671 -0.598962 
-6.451320 -0.866586 38.744862 0.006846 -0.822929 -0.568104 
-6.912277 -1.425825 39.483326 0.097219 -0.794034 -0.600049 
-1.925143 3.926979 26.115898 -0.898592 -0.170649 -0.404242 
1.423011 5.124614 19.585703 -0.788794 0.381071 -0.482275 
0.031352 -3.535799 58.836254 -0.851618 -0.415027 0.320156 
-6.484031 -2.216402 45.541569 -0.314581 0.753275 0.577594 
-6.306069 -1.425323 44.568020 -0.246928 0.794182 0.555250 
-5.287825 -5.234849 49.798946 -0.605319 0.509201 0.611803 
0.366269 -3.869330 59.273232 -0.842820 -0.403186 0.356506 
-0.270522 -4.685207 11.389867 0.857934 -0.265451 -0.439869 
-1.340120 6.058204 49.556713 0.798854 0.254819 0.544884 
3.271575 5.996205 42.641548 0.746227 -0.335026 0.575241 
6.122312 3.889314 37.757259 0.474583 -0.638792 0.605571 
5.768577 -0.382351 31.911024 0.044227 -0.859445 0.509312 
-3.638505 4.155567 54.468082 0.567828 0.657388 0.495390 
1.868042 2.147579 43.287754 0.977413 0.021244 0.210270 
2.720397 2.457683 40.602493 0.860222 -0.388870 0.329844 
3.665870 -0.095524 33.335098 0.354064 -0.874776 0.330765 
-0.280218 -3.448517 18.079840 -0.877205 -0.370990 0.304758 
-2.633071 -1.131410 8.950316 -0.882545 0.415751 0.219695 
7.246398 -1.362252 45.743351 0.230437 0.741807 -0.629779 
1.568452 -7.291978 34.562355 0.662858 -0.602556 -0.444460 
7.214402 0.678623 67.110954 0.458560 0.305730 -0.834417 
3.246984 0.971125 63.976315 0.808285 0.275623 -0.520295 
4.531166 -0.560855 64.483925 0.641499 0.456821 -0.616274 
-0.374983 -3.072692 63.384888 -0.283108 -0.867646 -0.408706 
0.036253 -3.336645 63.644451 -0.336736 -0.845708 -0.413989 
-2.480562 1.859120 63.392143 -0.609746 0.677366 -0.411564 
-2.901770 1.652802 63.663952 -0.568435 0.707089 -0.420602 
0.788821 -7.446356 35.164135 0.093454 -0.994553 -0.046156 
1.786572 -7.299319 35.584248 0.224067 -0.973672 -0.041922 
5.479877 -5.502314 41.578144 0.702372 -0.710989 -0.034165 
-6.114809 0.834137 18.022921 -0.982461 0.147133 -0.114553 
6.380193 4.010304 36.088490 0.848561 0.526433 -0.053025 
1.037832 7.775591 43.690067 0.123170 0.991839 -0.032946 
4.677153 -0.313477 8.885764 0.971053 -0.067338 -0.229174 
4.747538 3.710057 16.848072 0.778243 0.614798 -0.127915 
-0.391083 6.913218 25.880289 -0.060606 0.995474 -0.073208 
-6.848129 -3.911904 44.945213 -0.861968 -0.505826 -0.033939 
-4.813317 5.469865 31.224106 -0.653426 0.754734 -0.058395 
-5.125761 5.178921 31.536821 -0.714366 0.698170 -0.047338 
4.889868 1.835791 11.516483 0.926214 0.337433 -0.168124 
-0.555896 3.543206 5.143936 -0.154254 0.934136 -0.321863 
-4.488594 -5.291502 99.670303 0.000000 -1.000000 0.000000 
2.249043 -5.291502 99.734810 0.000000 -1.000000 0.000000 
-3.750932 -5.291502 112.235016 0.000000 -1.000000 0.000000 
-1.614115 -5.291502 115.397545 0.000000 -1.000000 0.000000 
-2.131864 -5.291502 116.956650 0.000000 -1.000000 0.000000 
3.832083 -5.291502 104.443954 0.000000 -1.000000 0.000000 
3.764425 -5.291502 102.856598 0.000000 -1.000000 0.000000 
4.472640 -5.291502 115.368057 0.000000 -1.000000 0.000000 
3.831760 -5.291502 116.945930 0.000000 -1.000000 0.000000 
0.750000 -5.291502 95.000000 0.000000 -0.707107 0.707107 
-5.250000 -5.291502 95.000000 0.000000 -0.707107 0.707107 
2.093696 -6.128594 95.000000 0.000000 0.000000 1.000000 
4.470140 5.291502 99.683517 0.000000 1.000000 0.000000 
-2.249043 5.291502 99.734810 0.000000 1.000000 0.000000 
3.750932 5.291502 112.235016 0.000000 1.000000 0.000000 
1.614115 5.291502 115.397545 0.000000 1.000000 0.000000 
2.131864 5.291502 116.956650 0.000000 1.000000 0.000000 
-3.832083 5.291502 104.443954 0.000000 1.000000 0.000000 
-3.764425 5.291502 102.856598 0.000000 1.000000 0.000000 
-4.472640 5.291502 115.368057 0.000000 1.000000 0.000000 
-3.831760 5.291502 116.945930 0.000000 1.000000 0.000000 
-0.750000 5.291502 95.000000 0.000000 0.707107 0.707107 
6.000000 5.291502 102.812500 0.441338 0.897338 -0.002211 
5.495110 5.782815 93.497406 0.697853 0.716240 0.001119 
4.768536 6.390150 88.107849 0.574828 0.818274 -0.000998 
4.701385 6.437216 84.038559 0.582565 0.812783 -0.001382 
4.687286 6.447107 82.513054 0.583948 0.811789 -0.001776 
4.110484 6.859293 75.647972 0.511083 0.859531 -0.001235 
4.353150 6.707938 67.972038 0.539193 0.842180 0.001974 
4.309077 6.735427 68.507645 0.536114 0.844146 0.000355 
2.786766 7.497961 88.157455 0.352925 0.935643 0.003986 
3.531082 7.148011 93.042526 0.432211 0.901773 0.000169 
3.630196 7.107246 83.757179 0.440380 0.897810 0.001300 
3.561204 7.150582 67.611244 0.436552 0.899679 -0.000491 
3.888718 6.984601 68.781982 0.477352 0.878710 0.001972 
2.617304 7.554673 89.117249 0.326751 0.945105 -0.003153 
2.888042 7.449085 90.967491 0.381002 0.924557 -0.005677 
2.326313 7.641028 79.858902 0.285828 0.958270 0.004524 
2.554986 7.574934 85.071190 0.302638 0.953106 -0.000583 
1.596942 7.828645 88.518532 0.211547 0.977368 -0.000614 
1.763159 7.780129 92.924606 0.240224 0.970707 0.004615 
2.162488 7.672911 93.166153 0.258820 0.965925 0.000872 
1.651561 7.821572 80.142784 0.216432 0.976294 0.002725 
1.499097 7.851284 92.481888 0.194208 0.980959 0.001835 
1.404695 7.875496 83.530090 0.172384 0.985028 0.001812 
1.702777 7.804195 84.188927 0.226725 0.973959 0.000180 
1.298488 7.892675 82.379601 0.149351 0.988784 -0.001003 
1.053654 7.921182 80.269562 0.111339 0.993782 0.000423 
1.093237 7.920931 74.822632 0.124522 0.992214 -0.002490 
1.146214 7.902255 89.690453 0.118612 0.992932 0.004088 
0.190062 7.986119 89.249924 0.050101 0.998744 0.000950 
0.285340 7.981565 81.333855 0.052579 0.998617 -0.000282 
-0.425356 7.974951 82.747383 -0.069327 0.997594 -0.000695 
-0.132967 7.996228 80.814423 -0.012974 0.999914 0.002087 
-0.358324 7.981405 82.153229 -0.051169 0.998688 -0.001751 
-1.479886 7.859793 83.478607 -0.196309 0.980537 0.003304 
-2.939543 7.436302 82.376427 -0.374937 0.927050 -0.000306 
-1.928595 7.739171 82.074127 -0.261225 0.965277 0.001333 
-2.562027 7.568876 82.724953 -0.299634 0.954044 0.004348 
-3.354631 7.237029 85.825775 -0.424359 0.905494 0.000305 
-3.628225 7.109022 86.324066 -0.440643 0.897680 0.002072 
-3.441089 7.199099 83.048866 -0.430423 0.902622 -0.003255 
-3.421754 7.208495 82.607033 -0.435579 0.900142 0.003958 
-2.970461 7.421266 82.991470 -0.376447 0.926411 0.007036 
-3.104791 7.360508 81.353561 -0.407960 0.912999 0.001181 
-3.186265 7.323559 80.044846 -0.399638 0.916672 0.001387 
-3.779881 7.032477 93.101791 -0.461253 0.887268 -0.001417 
-5.321123 5.955094 93.720985 -0.667571 0.744542 0.002496 
-5.050416 6.194711 93.171242 -0.620110 0.784504 0.004147 
-4.809276 6.366725 90.300934 -0.578462 0.815709 -0.000351 
-4.134119 6.840747 89.814774 -0.524375 0.851486 0.001487 
-6.000000 5.291502 102.812500 -0.438917 0.898528 -0.000588 
-5.183630 6.092638 87.415634 -0.646023 0.763315 0.002309 
-5.209689 6.070118 83.321671 -0.651110 0.758983 0.000782 
-5.223998 6.055173 86.444672 -0.653762 0.756686 -0.004776 
-5.376523 5.907485 86.934753 -0.685256 0.728302 0.000404 
-6.058493 5.223513 93.296082 -0.756500 0.653991 -0.002044 
-6.314200 4.890572 100.217682 -0.803699 0.595028 -0.003236 
-4.972142 -6.262595 82.037109 -0.611078 -0.791568 0.001910 
-4.710143 -6.452816 76.866455 -0.584125 -0.811663 0.000566 
-5.690085 -5.601417 82.259331 -0.703840 -0.710356 -0.001770 
-4.288562 -6.734141 86.596413 -0.543092 -0.839671 0.002015 
-4.310981 -6.722229 82.615097 -0.554519 -0.832171 0.000535 
-4.614078 -6.512222 80.276886 -0.574242 -0.818685 0.000978 
-4.854777 -6.346055 81.377007 -0.592767 -0.805374 -0.000514 
-3.225400 -7.294638 89.752609 -0.417640 -0.908613 -0.000066 
-2.973551 -7.411730 90.100121 -0.395090 -0.918640 0.002213 
-3.741921 -7.053800 89.732536 -0.443863 -0.896058 0.008111 
-1.759285 -7.788331 86.806099 -0.236508 -0.971627 -0.002328 
-1.159678 -7.906435 84.399475 -0.129380 -0.991594 -0.001543 
-0.534018 -7.961833 84.175667 -0.073857 -0.997267 0.001906 
1.214803 -7.901178 85.570717 0.142318 -0.989821 -0.000957 
1.057806 -7.916337 85.094772 0.106828 -0.994277 0.001116 
1.328800 -7.887787 86.064011 0.168907 -0.985623 0.004190 
1.125825 -7.910089 86.534218 0.124463 -0.992192 0.007996 
2.055281 -7.700030 87.896408 0.255873 -0.966709 -0.001784 
2.767619 -7.502967 85.984848 0.353265 -0.935521 -0.002107 
3.044744 -7.373718 88.164612 0.406329 -0.913725 0.001927 
3.183799 -7.308860 89.734634 0.421790 -0.906694 -0.000212 
2.998060 -7.395477 89.195320 0.418036 -0.908429 -0.001785 
2.721881 -7.522510 89.452316 0.337959 -0.941151 0.004322 
3.888405 -6.987659 85.099617 0.476602 -0.879116 0.002322 
4.131001 -6.842726 84.509018 0.535370 -0.844617 0.001103 
3.620991 -7.126891 75.441002 0.440367 -0.897818 -0.000439 
3.566422 -7.158895 68.188057 0.449111 -0.893473 0.002288 
4.002703 -6.926440 73.421822 0.509593 -0.860416 0.000070 
5.109830 -6.154668 88.177361 0.633979 -0.773304 -0.008452 
4.548075 -6.551373 84.321716 0.573410 -0.819268 0.000648 
4.689028 -6.462928 68.537239 0.581411 -0.813607 -0.002215 
4.354040 -6.697194 59.958828 0.543597 -0.839346 0.000976 
5.072587 -6.184851 77.245781 0.626762 -0.779211 -0.000227 
5.034846 -6.206040 91.237679 0.619910 -0.784670 -0.002277 
5.278610 -6.004889 82.228233 0.659469 -0.751720 -0.004231 
5.687991 -5.601033 88.874100 0.704422 -0.709781 0.001394 
5.637097 -5.647244 93.009277 0.702278 -0.711900 0.001759 
5.818749 -5.484921 75.110512 0.719853 -0.694126 0.000900 
-7.892079 1.234546 102.687881 -0.990752 0.135654 0.002773 
-7.929933 0.802194 97.295547 -0.994964 0.100234 -0.000791 
-7.986724 0.151944 116.710358 -0.999326 0.036342 -0.005129 
-7.996380 -0.066322 113.399757 -0.999965 -0.007668 -0.003278 
-7.962573 0.428017 116.115700 -0.997194 0.074763 0.003850 
-7.993753 0.183261 95.682434 -0.999259 0.038366 0.002981 
-7.974720 0.378560 101.001579 -0.998036 0.062440 -0.005096 
-7.990036 0.177035 109.398132 -0.999008 0.044541 -0.000261 
