-6.000000 -5.291502 102.812500 -0.440604 -0.897702 -0.000252 
6.000000 5.291502 102.812500 0.440604 0.897702 -0.000252 
5.218393 6.059940 86.077835 0.653795 0.756672 -0.000633 
5.476321 5.795226 86.568611 0.704850 0.709356 -0.000013 
4.957428 6.257852 87.650909 0.597846 0.801607 -0.002520 
4.721587 6.422998 86.362289 0.582926 0.812521 -0.002655 
4.536409 6.566888 59.004314 0.570582 0.821240 -0.000387 
4.750700 6.417171 59.541832 0.579392 0.815046 -0.002351 
4.313900 6.710275 50.831554 0.544541 0.838711 0.006291 
3.030748 7.380173 92.146309 0.405460 0.914106 -0.003421 
2.865287 7.457329 91.189980 0.372310 0.928108 0.000254 
3.062006 7.373802 74.730713 0.403601 0.914935 0.000271 
4.386672 6.667749 72.548378 0.553633 0.832758 0.002177 
3.647953 7.092366 80.287476 0.437524 0.899206 -0.001403 
3.367447 7.223168 72.220024 0.435505 0.900186 -0.000248 
3.718451 7.059493 73.276474 0.448013 0.894025 -0.001830 
3.619681 7.105549 88.001328 0.433250 0.901271 -0.002047 
3.619785 7.105501 85.446846 0.428985 0.903304 0.003821 
2.786690 7.497437 77.990189 0.361629 0.932320 -0.002132 
3.308991 7.264445 59.790016 0.429898 0.902875 -0.002090 
2.540515 7.575934 86.289856 0.317471 0.948265 -0.002438 
2.617332 7.554590 87.401062 0.329549 0.944137 0.001760 
2.664270 7.540453 89.298012 0.331250 0.943542 -0.001564 
2.455844 7.606915 72.684372 0.298165 0.954511 0.002623 
2.635595 7.551303 82.275681 0.333147 0.942875 -0.000645 
1.739559 7.801387 56.732075 0.210903 0.977505 0.001999 
1.246314 7.890964 78.217316 0.137208 0.990541 -0.001545 
0.783600 7.931448 70.000778 0.097175 0.995267 -0.000318 
0.699748 7.938783 74.538559 0.092578 0.995705 0.000439 
-1.477988 7.859632 87.519432 -0.191510 0.981490 0.001071 
-1.084754 7.910736 86.612106 -0.117121 0.993118 -0.000479 
-1.129626 7.908619 83.921478 -0.130607 0.991434 0.000015 
-0.693762 7.950438 78.439568 -0.094788 0.995495 0.002353 
-0.344373 7.981112 68.221779 -0.055449 0.998455 0.003677 
-0.286632 7.984314 65.787216 -0.038805 0.999243 -0.002683 
-0.314679 7.982699 78.932541 -0.050491 0.998724 -0.000680 
-0.057976 7.996872 80.052071 -0.000020 0.999980 0.006258 
0.060892 7.996143 91.430801 0.017967 0.999839 0.000024 
-1.073924 7.917506 77.952019 -0.126205 0.991992 0.004874 
-1.537549 7.848843 77.083885 -0.199544 0.979877 -0.004789 
-1.513379 7.851551 86.062462 -0.192585 0.981279 0.001396 
-1.615067 7.826228 84.216446 -0.213996 0.976818 -0.005595 
-1.952182 7.736685 83.192116 -0.252718 0.967539 0.001568 
-2.687669 7.532773 62.385651 -0.347180 0.937798 0.000994 
-2.256881 7.668107 61.259563 -0.287369 0.957817 -0.002450 
-3.278380 7.264702 83.716530 -0.418790 0.908083 0.000191 
-3.634176 7.098791 87.525200 -0.439576 0.898194 0.004550 
-4.275868 6.749016 59.801678 -0.539666 0.841869 -0.004039 
-5.257062 6.022212 88.302582 -0.663920 0.747797 0.003322 
-5.166680 6.107056 78.979904 -0.645375 0.763865 -0.000640 
-5.526227 5.767771 78.900620 -0.697447 0.716635 -0.000903 
-5.138203 6.131558 85.396797 -0.638427 0.769678 0.002624 
-5.973825 5.309936 61.935249 -0.742989 0.669289 -0.004350 
-6.320288 4.903451 61.686634 -0.788150 0.615482 0.001359 
-5.313843 -5.968193 85.991234 -0.669431 -0.742863 -0.004103 
-5.032736 -6.205135 85.408752 -0.621408 -0.783478 0.003830 
-4.974400 -6.245953 89.986053 -0.611518 -0.791225 -0.002913 
-4.729735 -6.417316 82.708847 -0.588304 -0.808639 0.001218 
-4.510018 -6.584665 59.037441 -0.569265 -0.822153 -0.000938 
-4.743011 -6.422956 59.548668 -0.579220 -0.815166 -0.003023 
-4.452446 -6.624875 50.994957 -0.555409 -0.831576 0.001538 
-4.398265 -6.659940 72.557518 -0.563542 -0.826087 0.000972 
-3.633528 -7.099092 81.366234 -0.441389 -0.897316 -0.000678 
-3.532987 -7.145975 79.896935 -0.432840 -0.901467 -0.002716 
-3.736694 -7.050986 73.262505 -0.449692 -0.893182 0.001765 
-3.508763 -7.157271 88.554695 -0.429523 -0.903054 0.001676 
-3.639132 -7.096479 85.632690 -0.441517 -0.897250 -0.002101 
-2.501063 -7.590840 79.966293 -0.301278 -0.953535 0.001577 
-2.394206 -7.625135 71.308022 -0.291385 -0.956604 0.001641 
-2.536001 -7.581923 77.673111 -0.312928 -0.949759 0.005748 
-2.318824 -7.639008 80.933197 -0.272765 -0.962074 -0.003664 
-2.019608 -7.725390 71.875168 -0.250578 -0.968087 0.004176 
-1.849549 -7.777192 56.259918 -0.234653 -0.972079 -0.000121 
-0.880010 -7.923012 75.559067 -0.098728 -0.995114 0.001244 
-0.812615 -7.928907 82.372063 -0.092121 -0.995748 -0.000439 
-0.544522 -7.959281 74.458855 -0.087648 -0.996143 0.004076 
1.511324 -7.847993 92.063072 0.196668 -0.980448 0.006571 
0.314264 -7.982777 67.987167 0.051423 -0.998675 0.002188 
0.415484 -7.973684 80.077316 0.061857 -0.998085 0.000280 
-0.170788 -7.985059 91.497192 -0.036378 -0.999285 0.010276 
1.583708 -7.833362 85.865166 0.206030 -0.978545 0.001176 
1.641827 -7.816222 87.904205 0.225189 -0.974314 -0.001640 
1.363009 -7.882209 83.748146 0.169058 -0.985606 0.000110 
1.329879 -7.886952 82.885117 0.163520 -0.986522 0.005944 
3.040739 -7.375516 78.081749 0.404545 -0.914518 -0.000383 
3.602971 -7.113342 87.669151 0.440560 -0.897723 0.000104 
3.830969 -7.014775 81.760468 0.463881 -0.885892 -0.003046 
5.257019 -6.022255 88.302536 0.663895 -0.747818 0.003320 
5.166646 -6.107087 78.977478 0.645734 -0.763562 -0.000924 
5.525938 -5.768054 78.900307 0.697409 -0.716673 -0.000928 
5.138111 -6.131630 85.397949 0.638381 -0.769716 0.002481 
5.974566 -5.309134 61.934628 0.743871 -0.668311 -0.003976 
6.320288 -4.903451 61.686634 0.788167 -0.615460 0.001353 
7.891690 1.300886 41.837982 0.989047 0.147471 0.006187 
7.964871 0.570274 42.677574 0.996642 0.081831 -0.002716 
7.971312 0.484257 42.006287 0.997365 0.072542 0.001295 
7.974622 0.445065 48.474129 0.997773 0.066662 -0.002098 
7.890325 1.313138 43.410061 0.988157 0.153444 0.000484 
7.385098 3.051764 45.423946 0.919389 0.393350 0.000574 
7.032670 3.806253 50.011963 0.881959 0.471321 -0.002260 
6.699362 4.348132 53.334621 0.835466 0.549537 -0.002217 
6.249968 4.985964 52.590096 0.779707 0.626141 -0.001952 
5.121786 6.145095 59.063477 0.628406 0.777840 -0.008434 
4.544564 6.565601 49.079098 0.566464 0.824084 0.001887 
6.241942 4.980083 116.600388 0.804800 0.593538 -0.003141 
7.538685 2.664433 116.597771 0.945488 0.325611 -0.005445 
7.368015 3.074797 102.109970 0.918088 0.396375 0.000993 
7.385030 3.042947 97.625023 0.918006 0.396559 0.002501 
7.446951 2.911002 96.965027 0.927171 0.374638 -0.000483 
6.901216 4.038547 109.821388 0.857769 0.514033 0.001439 
6.996294 3.864762 109.268478 0.877302 0.479913 -0.005027 
6.895184 4.047160 112.665985 0.858920 0.512095 -0.003899 
7.887010 1.316276 116.199394 0.987227 0.159320 0.000533 
7.857865 1.472690 116.858002 0.981924 0.189219 0.004600 
7.876021 1.402485 97.160789 0.984243 0.176762 -0.004611 
7.671681 2.202405 100.345444 0.964828 0.262880 -0.000610 
7.558828 2.596058 113.378365 0.948553 0.316581 -0.004963 
7.569753 2.563087 109.684288 0.950009 0.312220 0.001454 
7.999687 -0.010228 106.954079 0.999993 -0.003778 -0.000414 
7.999256 -0.023737 97.069389 0.999972 -0.006056 0.004491 
7.996233 -0.114079 96.594963 0.999633 -0.027010 -0.001851 
7.999231 -0.023615 110.337090 0.999973 -0.006614 0.003154 
7.968777 0.419385 110.423454 0.996795 0.079999 -0.000652 
7.999532 -0.014435 112.835220 0.999996 -0.002417 0.001632 
7.933624 0.787128 115.642509 0.995884 0.090627 -0.001519 
7.876558 1.399558 102.822853 0.984069 0.177788 -0.000608 
7.875509 -1.404714 96.252769 0.983273 -0.182140 -0.000085 
7.874965 -1.407538 98.211624 0.983597 -0.180290 0.005616 
7.876225 -1.400987 95.477020 0.983509 -0.180819 -0.003912 
7.861660 -1.464237 110.670013 0.982259 -0.187531 -0.000201 
7.952316 -0.707793 93.215149 0.996069 -0.088573 0.000585 
7.593079 -2.472311 106.360901 0.953577 -0.301068 -0.006997 
7.432749 -2.948004 94.232124 0.923963 -0.382435 0.006039 
7.698306 -2.127316 71.398163 0.965086 -0.261932 -0.000687 
7.743435 -1.930958 91.401993 0.968056 -0.250734 -0.000345 
7.831242 -1.602692 91.828926 0.976107 -0.217286 -0.001639 
7.860990 -1.467601 110.019058 0.981968 -0.189016 -0.003400 
7.735980 -1.933963 110.155609 0.965926 -0.258819 0.000342 
7.810970 -1.671201 97.229721 0.972921 -0.231133 0.001633 
7.355977 -3.106566 99.597961 0.912624 -0.408800 -0.000236 
7.405967 -3.001566 97.719749 0.919540 -0.392995 -0.000725 
7.323456 -3.179170 97.156555 0.911829 -0.410569 0.000830 
7.132649 -3.590964 94.935791 0.897904 -0.440191 -0.001016 
6.905130 -4.033642 115.384460 0.861783 -0.507271 -0.002429 
6.994053 -3.877012 100.257690 0.875588 -0.483046 -0.003458 
6.382224 -4.808619 87.208694 0.812131 -0.583474 0.000729 
6.253577 -4.982969 95.514587 0.802184 -0.597076 0.000585 
6.633363 -4.447675 72.456314 0.829283 -0.558823 -0.002441 
6.880047 -4.070406 109.089638 0.855280 -0.518081 0.009398 
6.707835 -4.316266 109.654961 0.836546 -0.547861 0.006207 
6.920986 -4.012394 100.780655 0.857433 -0.514594 0.001291 
-5.169887 -6.104475 48.540710 -0.652483 -0.757772 -0.006905 
-5.292907 -5.988561 49.015663 -0.678851 -0.734271 0.002854 
-5.015990 -6.221721 59.103012 -0.616221 -0.787573 -0.001179 
-4.569131 -6.548293 49.080719 -0.564663 -0.825320 0.001559 
-5.253930 -6.029874 51.851486 -0.669011 -0.743251 -0.001271 
-6.057356 -5.222277 54.071850 -0.745423 -0.666592 -0.000260 
-7.018110 -3.839010 44.868790 -0.878938 -0.476935 0.000361 
-7.069139 -3.725706 57.174057 -0.882741 -0.469841 0.004266 
-7.318295 -3.191737 46.267288 -0.912581 -0.408896 0.000646 
-7.812677 -1.678059 48.922432 -0.976585 -0.215123 0.002047 
-7.965464 -0.561677 42.710396 -0.996320 -0.085707 -0.000985 
-7.970815 -0.490912 42.054836 -0.997225 -0.074443 0.000048 
-7.879343 1.382623 44.210499 -0.986488 0.163807 0.002783 
-7.947682 0.816498 50.267052 -0.994522 0.104460 -0.003668 
-7.694848 2.172801 38.146172 -0.963064 0.269272 0.000097 
-7.698361 2.165573 35.042873 -0.963485 0.267756 0.001633 
-7.650395 2.328330 37.326481 -0.955995 0.293384 0.000235 
-7.194429 3.445773 44.053913 -0.900943 0.433933 -0.001997 
-7.313628 3.183470 39.956139 -0.913321 0.407224 -0.003596 
-6.216842 5.017823 45.266178 -0.779565 0.626314 -0.003022 
-6.005147 5.281020 44.678223 -0.749164 0.662380 0.002529 
-6.181973 5.073503 38.398720 -0.778263 0.627917 -0.005193 
-2.679260 7.537107 38.708328 -0.334675 0.942332 -0.001910 
-3.614243 7.127724 36.016720 -0.426921 0.904274 0.005150 
-3.581425 7.148017 40.002804 -0.436938 0.899491 0.000426 
-3.940730 6.960739 35.785709 -0.502332 0.864675 -0.000792 
-3.920477 6.971889 35.086010 -0.490460 0.871464 -0.000364 
-1.781742 7.789504 30.590166 -0.234442 0.972130 -0.000490 
-2.169060 7.676817 33.098640 -0.264015 0.964508 0.004594 
-2.302438 7.640273 32.097538 -0.280083 0.959962 -0.005135 
0.836090 7.938014 25.800512 0.094920 0.995485 -0.000652 
1.005429 7.918514 29.103436 0.108235 0.994125 0.001289 
0.873287 7.924361 30.180614 0.102886 0.994688 -0.003192 
0.551530 7.968770 33.990055 0.080127 0.996785 0.000189 
-0.290592 7.986161 28.074947 -0.052211 0.998635 -0.001739 
2.044598 7.713239 30.043861 0.253579 0.967314 -0.001038 
3.729479 7.057516 30.198870 0.458187 0.888853 -0.002213 
3.837103 7.012372 25.791368 0.469920 0.882708 -0.001216 
3.504745 7.165600 26.368006 0.435396 0.900239 -0.000065 
3.171530 7.333223 24.075466 0.413853 0.910339 -0.003062 
3.381754 7.226835 25.229313 0.429874 0.902887 -0.002029 
3.198430 7.320461 24.614471 0.409954 0.912099 0.003620 
2.122420 7.699642 24.449389 0.259318 0.965792 -0.000292 
2.569777 7.570068 23.210102 0.325060 0.945693 -0.000246 
4.309897 6.722360 27.552328 0.556853 0.830605 -0.003291 
4.856892 6.352756 16.157793 0.602279 0.798284 0.001616 
4.850246 6.354976 20.520670 0.592630 0.805475 0.000213 
5.764252 5.532936 19.403992 0.717365 0.696686 0.003943 
6.016305 5.263729 19.822859 0.750152 0.661240 0.005738 
5.872108 5.412054 28.935062 0.739152 0.673533 0.002737 
6.928241 3.994904 27.254812 0.865648 0.500650 0.001837 
6.754797 4.273704 27.640900 0.837767 0.546025 0.001803 
6.253834 4.975389 21.073761 0.791702 0.610902 -0.002768 
6.379448 4.798957 21.718653 0.810231 0.586110 0.000953 
7.585986 2.515375 18.060452 0.953902 0.300107 0.002607 
7.594581 2.487743 21.135025 0.954332 0.298708 0.004849 
7.478982 2.832252 21.736868 0.933151 0.359485 0.000011 
7.586046 2.515375 22.348223 0.952296 0.305175 0.000472 
7.041899 3.789437 22.731186 0.885696 0.464257 -0.002736 
7.060670 3.742376 19.789007 0.886019 0.463643 -0.002439 
7.796723 1.750117 11.337713 0.977163 0.212484 -0.001664 
7.921739 0.985486 16.072803 0.993814 0.111005 -0.003300 
7.984406 -0.373211 17.896753 0.998914 -0.046579 0.000707 
7.879591 -1.364935 14.641938 0.983369 -0.181609 0.001978 
7.936697 -0.922461 17.890234 0.992838 -0.119462 -0.001102 
7.930554 -0.967752 18.877684 0.991532 -0.129693 0.006594 
7.890920 -1.271724 18.429060 0.985454 -0.169940 0.000363 
7.978627 -0.508397 19.136316 0.997671 -0.068208 0.000497 
7.807545 -1.685220 14.158678 0.972699 -0.232060 -0.002253 
7.664133 -2.258163 19.653057 0.963711 -0.266930 -0.003156 
6.317470 -4.905468 13.603132 0.794591 -0.607142 0.001982 
6.218200 -5.030204 10.855668 0.778433 -0.627725 -0.001552 
6.057777 -5.220758 13.307981 0.756243 -0.654291 -0.000555 
5.885020 -5.410558 10.992167 0.730765 -0.682627 -0.001720 
5.511848 -5.785254 11.771754 0.686952 -0.726702 -0.001472 
5.267851 -6.011600 8.370131 0.657569 -0.753381 -0.004582 
5.413013 -5.881176 7.929417 0.676755 -0.736200 0.003331 
4.857015 -6.342186 8.400438 0.595680 -0.803221 0.001115 
4.277501 -6.743370 9.107432 0.544378 -0.838800 -0.008195 
3.797873 -7.032744 9.132746 0.482128 -0.876096 -0.003026 
3.300571 -7.286566 9.250685 0.418678 -0.908135 -0.000588 
1.304518 -7.888623 6.749380 0.153133 -0.988205 0.001424 
-6.516598 -4.595617 91.020386 -0.828820 -0.559515 -0.000046 
-6.241942 -4.980083 116.600388 -0.804800 -0.593538 -0.003140 
-7.538685 -2.664433 116.597771 -0.945488 -0.325611 -0.005445 
-7.368015 -3.074797 102.109970 -0.918088 -0.396375 0.000993 
-7.385030 -3.042947 97.625023 -0.918006 -0.396559 0.002501 
-7.446951 -2.911002 96.965027 -0.927171 -0.374638 -0.000483 
-6.901216 -4.038547 109.821388 -0.857769 -0.514033 0.001439 
-6.996294 -3.864762 109.268478 -0.877302 -0.479913 -0.005027 
-6.895184 -4.047160 112.665985 -0.858920 -0.512095 -0.003899 
-7.887010 -1.316278 116.199394 -0.987227 -0.159320 0.000533 
-7.857864 -1.472692 116.858002 -0.981924 -0.189221 0.004600 
-7.876021 -1.402485 97.160789 -0.984243 -0.176762 -0.004611 
-7.671681 -2.202405 100.345444 -0.964828 -0.262880 -0.000610 
-7.558828 -2.596058 113.378365 -0.948553 -0.316581 -0.004963 
-7.569753 -2.563087 109.684288 -0.950009 -0.312220 0.001454 
-7.999687 0.010228 106.954079 -0.999993 0.003778 -0.000414 
-7.999256 0.023737 97.069389 -0.999972 0.006056 0.004491 
-7.996233 0.114079 96.594963 -0.999633 0.027010 -0.001851 
-7.999231 0.023615 110.337090 -0.999973 0.006614 0.003154 
-7.968777 -0.419385 110.423454 -0.996795 -0.079999 -0.000652 
-7.999532 0.014435 112.835220 -0.999996 0.002417 0.001632 
-7.933624 -0.787128 115.642509 -0.995884 -0.090626 -0.001519 
-7.876558 -1.399558 102.822853 -0.984069 -0.177788 -0.000608 
-7.875509 1.404714 96.252769 -0.983273 0.182140 -0.000085 
-7.874965 1.407538 98.211624 -0.983597 0.180290 0.005616 
-7.876225 1.400987 95.477020 -0.983509 0.180819 -0.003912 
-7.861660 1.464237 110.670013 -0.982259 0.187531 -0.000201 
-7.952316 0.707793 93.215149 -0.996069 0.088573 0.000585 
-7.593079 2.472311 106.360901 -0.953577 0.301068 -0.006997 
-7.432749 2.948004 94.232124 -0.923963 0.382435 0.006039 
-7.698306 2.127316 71.398163 -0.965086 0.261932 -0.000687 
-7.743435 1.930958 91.401993 -0.968056 0.250734 -0.000345 
-7.831242 1.602692 91.828926 -0.976107 0.217286 -0.001639 
-7.860990 1.467601 110.019058 -0.981968 0.189016 -0.003400 
-7.735980 1.933963 110.155609 -0.965926 0.258819 0.000342 
-7.810970 1.671201 97.229721 -0.972921 0.231133 0.001633 
-7.355977 3.106566 99.597961 -0.912624 0.408800 -0.000236 
-7.405967 3.001566 97.719749 -0.919540 0.392995 -0.000725 
-7.323456 3.179170 97.156555 -0.911829 0.410569 0.000830 
-7.132649 3.590964 94.935791 -0.897904 0.440191 -0.001016 
-6.905130 4.033642 115.384460 -0.861783 0.507271 -0.002429 
-6.994053 3.877012 100.257690 -0.875588 0.483046 -0.003458 
-6.382224 4.808619 87.208694 -0.812131 0.583475 0.000729 
-6.253577 4.982969 95.514587 -0.802184 0.597076 0.000585 
-6.633363 4.447675 72.456314 -0.829283 0.558823 -0.002441 
-6.880047 4.070406 109.089638 -0.855280 0.518081 0.009398 
-6.707835 4.316266 109.654961 -0.836546 0.547861 0.006207 
-6.920986 4.012394 100.780655 -0.857433 0.514594 0.001291 
7.880077 -1.377885 44.211319 0.986689 -0.162584 0.003246 
7.982399 -0.540631 50.201012 0.997472 -0.071045 0.001700 
7.994985 0.119474 46.288387 0.999682 0.024759 0.004867 
7.694848 -2.172802 38.146172 0.963064 -0.269273 0.000097 
7.698361 -2.165573 35.042873 0.963485 -0.267756 0.001633 
7.650395 -2.328330 37.326481 0.955995 -0.293384 0.000235 
7.194429 -3.445773 44.053913 0.900943 -0.433933 -0.001997 
7.313628 -3.183470 39.956139 0.913321 -0.407224 -0.003596 
6.216842 -5.017823 45.266178 0.779565 -0.626314 -0.003022 
6.005147 -5.281020 44.678223 0.749164 -0.662380 0.002529 
6.181973 -5.073503 38.398720 0.778263 -0.627917 -0.005193 
2.679260 -7.537107 38.708328 0.334675 -0.942332 -0.001910 
3.614243 -7.127724 36.016720 0.426921 -0.904274 0.005150 
3.581425 -7.148017 40.002804 0.436938 -0.899491 0.000426 
3.940730 -6.960739 35.785709 0.502332 -0.864675 -0.000792 
3.920477 -6.971889 35.086010 0.490460 -0.871464 -0.000364 
1.781742 -7.789504 30.590166 0.234442 -0.972130 -0.000490 
2.169060 -7.676817 33.098640 0.264015 -0.964508 0.004594 
2.302438 -7.640273 32.097538 0.280083 -0.959962 -0.005135 
-0.836090 -7.938014 25.800512 -0.094920 -0.995485 -0.000652 
-1.005429 -7.918514 29.103436 -0.108235 -0.994125 0.001289 
-0.873287 -7.924361 30.180614 -0.102886 -0.994688 -0.003192 
-0.551530 -7.968770 33.990055 -0.080127 -0.996785 0.000189 
0.290592 -7.986161 28.074947 0.052211 -0.998635 -0.001739 
-2.044598 -7.713239 30.043861 -0.253579 -0.967314 -0.001038 
-3.729479 -7.057516 30.198870 -0.458187 -0.888853 -0.002213 
-3.837103 -7.012372 25.791368 -0.469920 -0.882708 -0.001216 
-3.504745 -7.165600 26.368006 -0.435396 -0.900239 -0.000065 
-3.171530 -7.333223 24.075466 -0.413853 -0.910339 -0.003062 
-3.381754 -7.226835 25.229313 -0.429874 -0.902887 -0.002029 
-3.198430 -7.320461 24.614471 -0.409954 -0.912099 0.003620 
-2.122420 -7.699642 24.449389 -0.259318 -0.965792 -0.000292 
-2.569777 -7.570068 23.210102 -0.325060 -0.945693 -0.000246 
-4.309897 -6.722360 27.552328 -0.556853 -0.830605 -0.003291 
-4.856892 -6.352756 16.157793 -0.602279 -0.798284 0.001616 
-4.850246 -6.354976 20.520670 -0.592630 -0.805475 0.000213 
-5.764252 -5.532936 19.403992 -0.717365 -0.696686 0.003943 
-6.016305 -5.263729 19.822859 -0.750152 -0.661240 0.005738 
-5.872108 -5.412054 28.935062 -0.739152 -0.673533 0.002737 
-6.928241 -3.994904 27.254812 -0.865648 -0.500650 0.001837 
-6.754797 -4.273704 27.640900 -0.837767 -0.546025 0.001803 
-6.253834 -4.975389 21.073761 -0.791702 -0.610902 -0.002768 
-6.379448 -4.798957 21.718653 -0.810231 -0.586110 0.000953 
-7.582095 -2.527948 18.058502 -0.951660 -0.307155 -0.000264 
-7.594580 -2.487746 21.135021 -0.954333 -0.298706 0.004847 
-7.478982 -2.832252 21.736868 -0.933151 -0.359485 0.000011 
-7.586046 -2.515375 22.348223 -0.952296 -0.305174 0.000472 
-7.041899 -3.789437 22.731186 -0.885696 -0.464257 -0.002736 
-7.060655 -3.742409 19.789034 -0.886032 -0.463619 -0.002419 
-7.796415 -1.751491 11.337046 -0.977030 -0.213102 -0.000229 
-7.944799 -0.756382 16.230606 -0.994888 -0.100899 -0.004039 
-7.985742 0.341204 17.871548 -0.999085 0.042757 -0.000748 
-7.905346 1.161287 18.472391 -0.988930 0.148365 0.002201 
-7.974008 0.587801 18.451214 -0.996736 0.080709 -0.001586 
-7.889730 1.285878 15.505580 -0.985927 0.167170 -0.001737 
-7.804898 1.677576 18.650013 -0.974835 0.222917 -0.001947 
-7.679165 2.165192 11.174291 -0.964322 0.264732 -0.000837 
-7.478805 2.836517 13.375853 -0.940976 0.338468 -0.001819 
-5.519477 5.779991 10.943820 -0.688265 0.725459 0.000622 
-5.700139 5.606971 10.341263 -0.710706 0.703489 -0.000196 
-3.770089 7.047083 9.113401 -0.471591 0.881817 -0.000016 
-3.319259 7.277049 9.236363 -0.420516 0.907283 -0.002092 
-2.021946 7.734956 7.895548 -0.251397 0.967883 -0.001597 
2.250000 -5.291502 120.000000 0.000000 -0.707107 0.707107 
-2.250000 5.291502 120.000000 0.000000 0.707107 0.707107 
1.167106 -4.940727 120.000000 0.000000 0.000000 1.000000 
1.752884 -4.163494 120.000000 0.000000 0.000000 1.000000 
3.331155 -3.228311 120.000000 0.000000 0.000000 1.000000 
-1.166115 4.940638 120.000000 0.000000 0.000000 1.000000 
-1.734175 4.173814 120.000000 0.000000 0.000000 1.000000 
-3.306081 3.197875 120.000000 0.000000 0.000000 1.000000 
3.772497 -2.284298 120.000000 0.000000 0.000000 1.000000 
3.769807 -1.325039 120.000000 0.000000 0.000000 1.000000 
3.594520 -0.395036 120.000000 0.000000 0.000000 1.000000 
-3.586586 2.257751 120.000000 0.000000 0.000000 1.000000 
-3.988919 1.408527 120.000000 0.000000 0.000000 1.000000 
-3.601066 1.038598 120.000000 0.000000 0.000000 1.000000 
-3.744500 0.398566 120.000000 0.000000 0.000000 1.000000 
3.690506 0.710098 120.000000 0.000000 0.000000 1.000000 
6.946414 0.082168 53.446270 0.064095 -0.806472 0.587788 
-2.898146 -1.055402 30.038658 -0.888009 0.404516 0.218646 
-3.084164 -0.529973 28.203836 -0.791613 0.568521 0.223902 
-0.652921 3.068791 13.559477 0.539743 0.809651 0.230527 
3.770841 4.016919 62.948467 0.884991 -0.452764 0.108611 
4.057928 4.587377 63.041603 0.870572 -0.476319 0.123387 
2.898146 1.055402 30.038658 0.888009 -0.404516 0.218646 
3.084164 0.529973 28.203836 0.791613 -0.568521 0.223902 
0.652921 -3.068791 13.559477 -0.539743 -0.809651 0.230527 
1.761267 -3.102344 2.498865 0.283803 -0.496784 -0.820160 
1.102029 -3.192669 2.366780 0.185823 -0.539438 -0.821265 
-2.916028 2.159889 2.541315 -0.461878 0.342279 -0.818238 
-1.774084 2.047029 1.897487 -0.373801 0.429195 -0.822231 
-1.979615 3.498114 2.815641 -0.283583 0.497064 -0.820066 
1.080792 2.335463 1.802490 0.238672 0.516816 -0.822154 
0.109540 3.224746 2.262170 0.013414 0.570812 -0.820971 
-1.175259 -2.845999 2.156031 -0.213063 -0.530359 -0.820563 
-0.779051 -5.291502 99.699722 0.000000 -1.000000 0.000000 
-1.458356 -5.291502 99.678398 0.000000 -1.000000 0.000000 
-0.746920 -5.291502 105.966515 0.000000 -1.000000 0.000000 
-1.443075 -5.291502 105.968048 0.000000 -1.000000 0.000000 
-3.928293 -5.291502 106.169579 0.000000 -1.000000 0.000000 
-4.640597 -5.291502 106.110474 0.000000 -1.000000 0.000000 
-3.506707 -5.291502 104.212723 0.000000 -1.000000 0.000000 
1.426990 -5.291502 109.109055 0.000000 -1.000000 0.000000 
0.821237 -5.291502 110.663239 0.000000 -1.000000 0.000000 
4.656923 -5.291502 108.923317 0.000000 -1.000000 0.000000 
3.802643 -5.291502 110.595093 0.000000 -1.000000 0.000000 
3.914104 -5.291502 108.816574 0.000000 -1.000000 0.000000 
1.258057 -5.291502 115.422180 0.000000 -1.000000 0.000000 
0.863275 -5.291502 116.952919 0.000000 -1.000000 0.000000 
0.606963 -5.291502 115.496399 0.000000 -1.000000 0.000000 
-0.914853 -5.983759 95.000000 0.000000 0.000000 1.000000 
0.779051 5.291502 99.699722 0.000000 1.000000 0.000000 
1.458356 5.291502 99.678398 0.000000 1.000000 0.000000 
0.746920 5.291502 105.966515 0.000000 1.000000 0.000000 
1.443075 5.291502 105.968048 0.000000 1.000000 0.000000 
3.928293 5.291502 106.169579 0.000000 1.000000 0.000000 
4.640597 5.291502 106.110474 0.000000 1.000000 0.000000 
3.506707 5.291502 104.212723 0.000000 1.000000 0.000000 
-1.426990 5.291502 109.109055 0.000000 1.000000 0.000000 
-0.821237 5.291502 110.663239 0.000000 1.000000 0.000000 
-4.656923 5.291502 108.923317 0.000000 1.000000 0.000000 
-3.802643 5.291502 110.595093 0.000000 1.000000 0.000000 
-3.914104 5.291502 108.816574 0.000000 1.000000 0.000000 
-1.258057 5.291502 115.422180 0.000000 1.000000 0.000000 
-0.863275 5.291502 116.952919 0.000000 1.000000 0.000000 
-0.606963 5.291502 115.496399 0.000000 1.000000 0.000000 
-5.638534 5.666332 6.215079 -0.709956 0.704237 0.003473 
-6.033179 5.244874 6.201708 -0.749202 0.662334 0.003180 
5.612322 -5.696265 7.416965 0.704149 -0.710050 -0.001674 
5.978204 -5.305496 7.423155 0.746188 -0.665733 -0.001830 
-6.000000 -5.291502 109.062500 -0.433748 -0.901034 -0.000994 
6.000000 5.291502 109.062500 0.433748 0.901034 -0.000994 
5.805457 5.467436 78.805389 0.723243 0.690594 -0.000200 
5.733315 5.560100 72.004578 0.715218 0.698900 -0.000969 
5.263071 6.019745 71.762978 0.656082 0.754690 -0.000559 
5.115732 6.147093 74.129860 0.634881 0.772592 0.005297 
5.157124 6.114979 75.228539 0.630154 0.776466 -0.002471 
4.838809 6.352203 71.319763 0.597961 0.801524 -0.001608 
4.464412 6.615384 77.086578 0.567431 0.823419 -0.002013 
4.566087 6.536061 55.139046 0.569957 0.821675 0.000202 
4.671511 6.475886 60.048763 0.576042 0.817420 -0.000345 
3.139924 7.352840 55.824387 0.410965 0.911651 -0.000177 
2.841554 7.475608 57.046383 0.363244 0.931693 -0.001639 
3.159521 7.345291 53.456272 0.405380 0.914146 0.002163 
2.320559 7.654713 50.397060 0.286813 0.957986 0.001170 
4.694036 6.460714 70.311409 0.579281 0.815112 0.005153 
4.425567 6.640312 81.517975 0.574969 0.818174 0.001407 
3.933512 6.959207 89.148170 0.483815 0.875170 -0.000695 
4.124068 6.844633 79.476410 0.517513 0.855675 -0.000741 
4.381726 6.671079 61.389145 0.549525 0.835455 -0.006103 
4.381301 6.671366 64.305939 0.550080 0.835112 -0.000203 
4.078963 6.875015 51.681812 0.522659 0.852522 -0.005856 
3.995778 6.930173 61.973331 0.495173 0.868795 -0.000345 
3.831253 7.012589 49.811062 0.485842 0.873998 -0.009206 
3.827263 7.013985 50.441189 0.480575 0.876939 0.005124 
3.103587 7.352351 75.401718 0.414173 0.910198 0.000323 
3.296042 7.268302 62.540680 0.428450 0.903563 -0.001979 
3.490338 7.171564 62.016205 0.431838 0.901950 0.001276 
2.858144 7.469007 62.329205 0.371805 0.928311 -0.000512 
2.522725 7.589195 65.558784 0.307832 0.951441 0.000374 
2.277867 7.659320 67.307777 0.281310 0.959616 0.001607 
2.274694 7.665314 56.672726 0.282180 0.959352 0.004274 
2.505055 7.595126 54.816021 0.314187 0.949361 -0.000448 
2.616087 7.555253 86.851639 0.329985 0.943981 -0.003126 
1.593035 7.828085 88.807625 0.201423 0.979496 0.004093 
2.067388 7.709151 76.888107 0.256655 0.966502 0.001632 
1.968979 7.745452 62.396309 0.244128 0.969743 0.000751 
1.394884 7.877207 71.049507 0.159639 0.987168 -0.003733 
1.783490 7.791506 67.718925 0.231634 0.972801 -0.002105 
1.692515 7.811736 66.095589 0.209991 0.977703 0.000288 
1.155251 7.900969 56.637638 0.134737 0.990880 0.001928 
1.156393 7.898835 59.061752 0.135283 0.990805 0.002065 
0.997475 7.912734 85.569344 0.097444 0.995240 -0.001143 
1.308934 7.885484 91.898514 0.153937 0.988072 0.004191 
1.130539 7.901095 66.109039 0.123136 0.992386 0.002584 
0.538803 7.963370 68.019684 0.089662 0.995969 -0.002687 
1.040188 7.908999 68.373314 0.109471 0.993984 0.003368 
0.774945 7.932201 92.097084 0.087155 0.996195 0.000000 
0.951719 7.930944 55.318703 0.111111 0.993808 -0.000815 
0.279352 7.982227 78.779915 0.058665 0.998278 0.000279 
0.481642 7.967496 70.443184 0.083901 0.996474 -0.000265 
0.453208 7.973157 65.036957 0.073236 0.997312 0.002245 
0.823849 7.934430 65.557938 0.102314 0.994752 -0.000586 
0.639757 7.953362 68.724930 0.099385 0.995049 -0.000248 
-0.485464 7.966721 81.327385 -0.059008 0.998255 0.002404 
-0.945760 7.927997 79.025665 -0.108881 0.994025 -0.007650 
-0.691782 7.949392 80.252167 -0.082440 0.996596 0.000202 
-1.128169 7.913213 77.278603 -0.127037 0.991887 0.004590 
-0.655261 7.947631 87.623856 -0.085917 0.996302 0.001003 
0.041254 7.999159 76.079056 0.013636 0.999907 0.001004 
-0.527142 7.966027 76.935326 -0.070912 0.997481 -0.001614 
-0.288485 7.984253 57.404667 -0.041765 0.999127 -0.000971 
-0.048520 7.997494 59.982536 -0.007597 0.999970 -0.001521 
-0.435581 7.976121 59.006706 -0.055839 0.998437 -0.002424 
-0.195771 7.989336 65.187279 -0.023839 0.999711 0.003228 
0.144779 7.997120 68.426102 0.027822 0.999613 -0.000454 
0.137929 7.997236 58.571552 0.021195 0.999773 -0.002335 
-1.227873 7.901556 61.354805 -0.145611 0.989342 0.000680 
-1.289800 7.892690 60.722710 -0.152178 0.988347 0.003573 
-1.494500 7.857438 63.558064 -0.195739 0.980656 -0.000159 
-1.155517 7.903156 88.678413 -0.123100 0.992385 -0.004368 
-2.034440 7.710427 88.677658 -0.258818 0.965926 0.000743 
-2.201315 7.666246 87.984230 -0.271605 0.962408 0.000836 
-2.071775 7.707730 79.173660 -0.256882 0.966443 0.000407 
-2.151202 7.687077 78.354782 -0.274752 0.961515 0.000367 
-2.453656 7.604466 80.394333 -0.301992 0.953307 0.002565 
-2.320830 7.638186 82.828087 -0.285051 0.958510 -0.001968 
-2.567187 7.570624 82.151718 -0.324371 0.945930 -0.000516 
-2.343080 7.640739 71.752899 -0.281719 0.959496 0.001063 
-2.504181 7.590417 70.883224 -0.318603 0.947888 -0.000814 
-2.837199 7.470431 61.039341 -0.361935 0.932191 -0.004874 
-2.639438 7.547925 63.077209 -0.339121 0.940743 -0.000028 
-2.437874 7.603638 86.973770 -0.286315 0.958136 -0.000387 
-2.776300 7.498829 61.694584 -0.355893 0.934524 -0.002443 
-3.410435 7.203124 82.371681 -0.418285 0.908315 0.001119 
-3.557006 7.157338 57.461353 -0.433029 0.901374 0.003249 
-3.328890 7.258584 59.290108 -0.411854 0.911250 0.000087 
-3.875652 6.996347 78.445045 -0.467636 0.883921 -0.000426 
-3.738875 7.062987 73.228409 -0.443069 0.896485 -0.002128 
-3.523560 7.163321 68.926468 -0.417614 0.908624 0.000455 
-3.176022 7.312434 71.579147 -0.406304 0.913738 -0.000789 
-3.649413 7.114719 58.748302 -0.441015 0.897469 0.007461 
-4.906994 6.309232 78.070496 -0.601035 0.799223 0.000372 
-4.964410 6.265035 82.265823 -0.611718 0.791074 -0.001800 
-5.020859 6.223255 80.972443 -0.614030 0.789272 0.004020 
-4.211124 6.786542 88.516533 -0.545316 0.838230 -0.000599 
-4.698132 6.463496 69.646858 -0.581767 0.813356 -0.000215 
-4.406399 6.664230 69.130272 -0.557429 0.830225 -0.000253 
-4.123246 6.848151 72.265610 -0.516843 0.856080 -0.000841 
-4.279456 6.743702 83.256844 -0.548562 0.836110 0.000333 
-4.340521 6.707022 59.231709 -0.546167 0.837659 0.005418 
-4.049740 6.895897 60.942249 -0.507582 0.861601 -0.002030 
-3.694772 7.090630 63.384201 -0.454683 0.890651 0.002338 
-6.000000 5.291502 109.062500 -0.443968 0.896042 0.001261 
-5.433983 5.869087 60.461277 -0.682423 0.730956 0.001231 
-5.501188 5.805368 61.156628 -0.692784 0.721143 -0.001704 
-5.812591 5.483872 60.852074 -0.726584 0.687072 -0.002884 
-5.410580 5.870337 90.702957 -0.680559 0.732693 0.000474 
-5.508575 5.780851 83.660355 -0.693253 0.720690 0.002382 
-5.914327 5.380790 83.906334 -0.728571 0.684967 0.002213 
-5.340059 5.937547 92.538132 -0.671913 0.740618 0.004324 
-5.713244 5.573596 92.348862 -0.704932 0.709273 -0.001700 
-5.657775 5.650074 66.654587 -0.710713 0.703479 0.002297 
-5.740001 5.563511 64.821526 -0.718345 0.695686 0.001340 
-5.733315 -5.560100 72.004578 -0.715218 -0.698900 -0.000968 
-5.263081 -6.019735 71.762985 -0.656090 -0.754682 -0.000570 
-5.116003 -6.146904 74.130028 -0.634952 -0.772533 0.005295 
-4.829907 -6.347107 93.275452 -0.584237 -0.811581 -0.001583 
-4.838802 -6.352208 71.319801 -0.597951 -0.801531 -0.001602 
-4.534219 -6.568365 77.054527 -0.576418 -0.817154 -0.000763 
-4.494971 -6.592317 55.384926 -0.569255 -0.822161 -0.000607 
-4.680148 -6.470005 60.059204 -0.575327 -0.817922 -0.001541 
-3.167004 -7.338342 56.814350 -0.411784 -0.911280 -0.001909 
-2.908961 -7.448787 55.782440 -0.372738 -0.927930 0.003411 
-2.572746 -7.572400 57.063953 -0.321996 -0.946741 0.000762 
-2.752145 -7.511185 56.367558 -0.353245 -0.935530 -0.001381 
-4.693875 -6.460823 70.311928 -0.579317 -0.815086 0.005163 
-4.207321 -6.788556 87.798225 -0.547630 -0.836719 0.001440 
-4.149602 -6.827434 89.402222 -0.527987 -0.849253 0.000050 
-4.446839 -6.627221 61.358711 -0.557601 -0.830106 0.002103 
-3.901673 -6.974054 65.651566 -0.478703 -0.877971 0.003417 
-4.379937 -6.672285 64.311691 -0.549523 -0.835479 -0.000244 
-4.154084 -6.824415 51.709881 -0.528894 -0.848685 0.002066 
-3.142874 -7.327888 85.851608 -0.411888 -0.911223 -0.004621 
-3.816284 -7.019521 50.398228 -0.479640 -0.877462 -0.002616 
-3.002605 -7.404245 73.980484 -0.394891 -0.918709 0.005882 
-2.965626 -7.426238 69.678680 -0.392528 -0.919732 0.003885 
-3.107257 -7.369727 55.260349 -0.402310 -0.915503 -0.000316 
-2.853668 -7.470787 66.647675 -0.370931 -0.928660 0.000337 
-2.296457 -7.656325 63.466351 -0.281381 -0.959593 -0.002352 
-2.235150 -7.671157 66.737823 -0.276192 -0.961102 0.000208 
-2.316740 -7.653554 55.957520 -0.288930 -0.957350 -0.001052 
-2.841594 -7.470900 88.580467 -0.363439 -0.931602 0.005395 
-2.420206 -7.605372 90.372452 -0.287396 -0.957809 0.002316 
-2.155004 -7.678429 87.462067 -0.259626 -0.965709 0.000518 
-1.856742 -7.758809 86.787445 -0.246928 -0.969034 -0.000589 
-2.050851 -7.726874 57.495079 -0.256881 -0.966440 0.002461 
-1.677487 -7.815042 67.060036 -0.207987 -0.978118 -0.005149 
-1.735932 -7.802186 67.706108 -0.217291 -0.976100 0.003660 
-1.679161 -7.806789 86.208076 -0.229440 -0.973313 0.004404 
-1.227307 -7.892626 84.115356 -0.137551 -0.990491 0.002730 
-1.237633 -7.891723 86.154037 -0.131033 -0.991378 0.000115 
-0.943922 -7.917418 92.256065 -0.095953 -0.995384 0.001817 
-1.241609 -7.891377 67.890381 -0.139162 -0.990267 -0.002320 
-1.151641 -7.899249 66.050232 -0.134953 -0.990839 0.005023 
-0.731151 -7.943998 67.966492 -0.095259 -0.995448 -0.003005 
-0.870657 -7.923831 77.894386 -0.095394 -0.995438 -0.001560 
-1.176451 -7.897080 57.922665 -0.138603 -0.990347 -0.001368 
-0.945976 -7.931543 55.225475 -0.111884 -0.993717 -0.002776 
-0.633409 -7.944587 76.608749 -0.093641 -0.995606 -0.001085 
-0.084762 -7.998308 76.135414 -0.026578 -0.999646 -0.001111 
-0.679400 -7.940563 78.594818 -0.088522 -0.996074 0.000301 
-0.325171 -7.985423 64.924454 -0.053267 -0.998580 0.000846 
-0.780172 -7.941716 65.539864 -0.101827 -0.994802 0.000415 
1.181607 -7.908180 55.534695 0.140545 -0.990073 -0.001860 
1.438358 -7.868646 70.243431 0.180823 -0.983516 0.000308 
0.709887 -7.947549 80.637962 0.084716 -0.996405 0.000805 
1.267761 -7.895846 81.730812 0.150334 -0.988634 0.001318 
0.683083 -7.945263 87.525696 0.087156 -0.996194 0.000669 
0.332435 -7.981825 57.528770 0.039396 -0.999223 0.000973 
0.180859 -7.990185 60.033264 0.026156 -0.999658 -0.000798 
0.246807 -7.986516 65.192642 0.035927 -0.999354 -0.000958 
-0.172271 -7.996582 68.317520 -0.035793 -0.999358 0.001802 
-0.264218 -7.994570 58.811279 -0.039257 -0.999202 0.007382 
1.321158 -7.888200 61.519676 0.161372 -0.986894 0.000243 
1.102957 -7.919441 63.922115 0.127904 -0.991785 0.002013 
1.814026 -7.783344 70.652298 0.236912 -0.971531 -0.000080 
2.016073 -7.737004 60.508991 0.256924 -0.966431 -0.000940 
1.919666 -7.761875 61.169697 0.245478 -0.969401 0.001657 
1.512875 -7.853770 60.829788 0.188221 -0.982126 0.001051 
2.344112 -7.639620 72.848091 0.289426 -0.957200 0.000117 
2.107806 -7.691491 87.739014 0.265209 -0.964189 -0.002110 
2.099042 -7.690437 92.164474 0.259017 -0.965873 0.000776 
2.790898 -7.492018 87.469910 0.355418 -0.934689 0.005861 
2.027147 -7.716164 83.757614 0.255943 -0.966691 0.001107 
2.400546 -7.619991 78.711754 0.296825 -0.954929 0.002402 
2.829084 -7.474214 73.123817 0.375340 -0.926884 -0.002380 
2.474029 -7.599890 70.494072 0.313120 -0.949709 -0.002865 
2.454557 -7.606007 69.870766 0.310171 -0.950681 0.000450 
2.668064 -7.538932 63.246075 0.341373 -0.939928 0.000579 
3.287914 -7.260255 93.248474 0.422618 -0.906308 0.000000 
2.698179 -7.529472 92.223541 0.336431 -0.941708 -0.000881 
2.696683 -7.529941 62.530388 0.345740 -0.938327 -0.002578 
3.076305 -7.358931 82.939850 0.400571 -0.916244 0.006364 
3.162210 -7.335113 57.403812 0.393309 -0.919406 0.000146 
3.724494 -7.069452 73.239548 0.440585 -0.897710 -0.001052 
3.539397 -7.156428 68.628601 0.424595 -0.905383 -0.000894 
3.114271 -7.341229 68.895248 0.406818 -0.913504 -0.003018 
3.793407 -7.041622 58.898373 0.470408 -0.882447 0.002174 
3.652220 -7.114463 57.474998 0.447383 -0.894342 0.000712 
4.111734 -6.855628 57.719376 0.519888 -0.854234 -0.000672 
4.907305 -6.309015 78.069962 0.601050 -0.799212 0.000330 
4.978528 -6.255152 82.263138 0.613118 -0.789990 -0.001303 
5.017679 -6.225740 80.970406 0.613128 -0.789977 0.003260 
4.217728 -6.781926 88.508514 0.551319 -0.834291 -0.002365 
4.433717 -6.646487 64.550690 0.550844 -0.834600 0.003756 
4.699298 -6.462678 69.648674 0.582137 -0.813090 0.000382 
4.444507 -6.639478 69.176620 0.559308 -0.828960 -0.000241 
4.119772 -6.850407 72.263130 0.515054 -0.857156 -0.001630 
4.332386 -6.706270 83.645073 0.548912 -0.835880 -0.000721 
4.182025 -6.809971 59.341339 0.530942 -0.847404 -0.002729 
4.053516 -6.893444 60.727722 0.505880 -0.862604 0.000329 
3.713044 -7.082430 63.352375 0.459429 -0.888212 0.001958 
6.000000 -5.291502 109.062500 0.443968 -0.896042 0.001261 
5.433940 -5.869127 60.461121 0.682337 -0.731037 0.001175 
5.501963 -5.804636 61.156891 0.692618 -0.721302 -0.001820 
5.812591 -5.483872 60.852074 0.726600 -0.687054 -0.002901 
5.412934 -5.868038 90.704002 0.680929 -0.732350 0.000257 
5.473730 -5.814840 83.670982 0.686544 -0.727083 0.002752 
5.913189 -5.382020 83.906937 0.728417 -0.685131 0.002147 
5.352427 -5.925497 92.518234 0.677011 -0.735972 0.000841 
5.714136 -5.572732 92.340904 0.704996 -0.709209 -0.001649 
5.657754 -5.650095 66.654556 0.710693 -0.703499 0.002307 
5.739546 -5.564003 64.822853 0.718230 -0.695804 0.001774 
7.493484 2.798722 46.053223 0.932975 0.359941 -0.000438 
7.723056 2.071734 50.449284 0.965464 0.260537 -0.000167 
7.861806 1.462947 53.308304 0.983390 0.181499 -0.001406 
7.893439 1.293032 53.915092 0.987669 0.156529 -0.002786 
7.820298 1.665945 45.998035 0.976912 0.213643 -0.000005 
7.580626 2.530862 43.666283 0.952445 0.304684 -0.004048 
7.446101 2.921936 43.760246 0.926801 0.375553 0.000136 
7.506760 2.764201 50.433781 0.936567 0.350483 0.002145 
7.357130 3.100126 49.246494 0.918372 0.395711 0.002245 
7.433321 2.955169 43.174664 0.926090 0.377303 -0.000162 
7.268261 3.324199 56.644436 0.907209 0.420654 -0.004694 
7.422218 2.969555 56.099483 0.926036 0.377436 -0.000354 
7.133315 3.601935 51.172832 0.896411 0.443214 0.002876 
6.851841 4.119370 49.586025 0.853268 0.521467 0.002290 
6.892590 4.060880 43.481884 0.860714 0.509085 0.001885 
6.267093 4.964373 48.606632 0.790719 0.612180 -0.000255 
5.974292 5.315844 48.076984 0.739641 0.672999 0.001910 
6.133303 5.135938 49.401924 0.761273 0.648430 0.001275 
6.395835 4.801698 49.386757 0.809348 0.587321 -0.003246 
5.943851 5.350133 46.824196 0.737245 0.675626 -0.000080 
5.251643 6.032252 52.327370 0.664250 0.747511 -0.000731 
4.964491 6.265370 52.827686 0.609125 0.793074 0.000378 
4.916121 6.305990 47.255177 0.614344 0.789038 0.000135 
4.866362 6.340337 47.857216 0.600911 0.799316 0.000385 
5.571661 5.725327 55.299805 0.704676 0.709517 -0.004095 
5.897758 5.388606 53.961918 0.728655 0.684879 -0.001610 
6.176440 5.080486 53.635578 0.767589 0.640939 0.002026 
6.164765 5.095496 59.085587 0.767005 0.641634 -0.002989 
6.808145 4.171464 108.756607 0.842939 0.537979 0.005674 
6.684779 4.347650 107.557549 0.819638 0.572882 -0.000195 
6.716950 4.301703 110.311043 0.828464 0.560042 0.000517 
7.017719 3.837427 70.073700 0.877262 0.480008 0.001884 
6.843528 4.120937 87.918633 0.849472 0.527633 -0.001176 
6.497076 4.615716 113.778839 0.819564 0.572987 0.000257 
6.547949 4.556475 86.487900 0.827006 0.562177 0.004303 
6.430556 4.734942 89.480133 0.819758 0.572708 0.001620 
6.726846 4.309964 70.770752 0.840838 0.541286 -0.000982 
5.298722 5.975973 89.848442 0.663082 0.748506 0.007806 
5.798066 5.484343 90.117142 0.715379 0.698736 -0.000348 
6.172282 5.087471 89.175217 0.771502 0.636215 -0.003987 
6.000000 5.291502 96.562500 0.429190 0.903213 0.001356 
6.305981 4.912766 68.909508 0.788795 0.614649 0.002880 
6.367205 4.830134 84.351349 0.808265 0.588812 -0.002795 
6.257995 4.974671 83.693985 0.788029 0.615637 -0.001349 
6.154511 5.110838 81.937347 0.762561 0.646916 0.000968 
7.589968 2.521960 77.564293 0.951807 0.306697 -0.000319 
7.507481 2.761970 76.970184 0.937670 0.347527 -0.000455 
7.410600 3.003588 82.622131 0.921254 0.388960 0.001240 
7.355638 3.113650 90.073479 0.914716 0.404093 0.001663 
7.382599 3.058693 87.358818 0.916669 0.399646 -0.000803 
7.153098 3.560598 77.317856 0.895847 0.444360 -0.001882 
7.163457 3.541398 74.359299 0.897310 0.441400 -0.000998 
7.363471 3.076391 110.219002 0.915002 0.403441 -0.002576 
7.223640 3.378222 108.267349 0.904252 0.426999 0.000297 
7.188584 3.448253 113.386925 0.906308 0.422618 0.000424 
7.264534 3.310563 88.335266 0.909286 0.416170 0.001431 
6.969927 3.924596 73.892807 0.870091 0.492881 0.002995 
7.020381 3.832490 74.850426 0.876523 0.481342 -0.004117 
7.071815 3.736263 75.968758 0.886884 0.461986 0.002263 
6.882372 4.065463 88.602692 0.851215 0.524811 0.002613 
7.858639 1.487402 87.192657 0.982037 0.188686 0.000936 
7.765390 1.875665 89.461990 0.971016 0.239007 0.001848 
7.842226 1.558222 82.558983 0.979424 0.201803 -0.001783 
7.845384 1.539810 93.718384 0.979746 0.200245 -0.000757 
7.810252 1.692528 81.372871 0.977424 0.211239 -0.004533 
7.834658 1.590145 81.993790 0.979372 0.202063 -0.001331 
7.756059 1.924727 69.579010 0.972105 0.234545 0.000490 
7.829396 1.592043 110.651337 0.977461 0.211090 0.003217 
7.725553 1.980705 110.125175 0.967319 0.253562 -0.001052 
7.629492 2.400631 75.238609 0.955613 0.294625 0.000281 
7.786135 1.795709 76.450989 0.974164 0.225842 0.000416 
7.654432 2.321562 70.522003 0.958951 0.283573 -0.000284 
7.659121 2.302989 74.150238 0.959129 0.282971 -0.000191 
7.983113 0.413854 85.374634 0.998474 0.055224 -0.000428 
7.991630 0.243152 94.730766 0.999311 0.037115 0.000342 
7.963643 0.736672 70.765419 0.995232 0.097523 0.001732 
7.992897 0.294875 75.350342 0.999429 0.033775 -0.000775 
7.977649 0.309885 111.662277 0.998612 0.052652 0.001604 
7.942223 0.796727 99.108971 0.995624 0.093440 0.001498 
7.961608 0.636223 89.749702 0.996467 0.083988 0.000743 
7.954289 0.803089 76.999298 0.994469 0.105022 0.000950 
7.917410 1.102035 74.262039 0.990484 0.137624 -0.001400 
7.966068 0.716656 69.601639 0.995575 0.093970 0.000717 
7.908203 1.169988 76.498138 0.988852 0.148897 0.001084 
7.929553 1.012290 86.593277 0.992728 0.120375 0.001251 
7.930693 1.003927 80.524918 0.991613 0.129204 0.003242 
7.921605 -1.108093 76.103493 0.990516 -0.137393 0.000805 
7.939272 -0.960155 75.222412 0.993028 -0.117882 0.000159 
7.957732 -0.760671 74.609322 0.996221 -0.086849 0.000707 
7.945448 -0.870316 79.757736 0.994277 -0.106826 0.000998 
7.989883 -0.305120 75.111664 0.999176 -0.039575 -0.009056 
7.985784 -0.428023 68.571922 0.998720 -0.050571 0.000949 
7.920014 -0.954869 113.313751 0.994460 -0.105044 0.003861 
7.923907 -0.928085 110.398781 0.994851 -0.101326 0.002045 
7.918687 -1.084079 94.840126 0.991454 -0.130459 0.000433 
7.973937 -0.414575 100.800415 0.997352 -0.072725 0.000053 
7.958475 -0.600415 99.301987 0.996686 -0.081332 0.001515 
7.988376 -0.349579 83.944199 0.998727 -0.050431 0.001241 
7.994039 0.258485 76.124702 0.999482 0.032181 -0.000596 
7.387918 -3.060042 74.583900 0.921525 -0.388318 0.001213 
7.522464 -2.721682 73.666176 0.942645 -0.333797 0.000293 
7.679316 -2.194951 73.904724 0.962942 -0.269706 0.001072 
7.503443 -2.771414 109.849701 0.937161 -0.348897 -0.000086 
7.529835 -2.700371 112.177017 0.942451 -0.334340 -0.001922 
7.593455 -2.487225 94.807968 0.954085 -0.299517 0.003529 
7.602475 -2.455824 93.105125 0.956398 -0.292062 0.001601 
7.640810 -2.298747 102.898537 0.962988 -0.269544 -0.000237 
7.741611 -1.954263 79.004860 0.968508 -0.248975 -0.001669 
7.554515 -2.628469 81.810410 0.947450 -0.319891 -0.002845 
7.452585 -2.898516 86.688103 0.928290 -0.371856 0.000748 
7.570503 -2.581979 87.062332 0.949757 -0.312979 0.002500 
7.725149 -2.005385 86.730804 0.965981 -0.258614 0.000458 
7.609564 -2.405432 110.400688 0.961900 -0.273403 0.000395 
7.720209 -2.015973 92.661194 0.966049 -0.258357 0.000788 
7.619423 -2.367009 111.629852 0.958548 -0.284909 -0.003538 
7.690148 -2.104233 110.743912 0.965926 -0.258818 0.000343 
7.687127 -2.111822 113.527367 0.965125 -0.261783 0.002049 
7.680466 -2.147549 105.314835 0.964780 -0.263059 0.000635 
7.820764 -1.663736 75.248306 0.975620 -0.219464 0.001122 
7.875412 -1.405346 74.708786 0.983560 -0.180583 0.000685 
7.822421 -1.646142 83.872978 0.973697 -0.227845 0.000840 
7.416254 -2.989234 86.152214 0.924086 -0.382181 0.001886 
7.068265 -3.701541 118.377998 0.895251 -0.445485 -0.008332 
7.223550 -3.427815 67.758987 0.902898 -0.429852 0.001297 
7.331734 -3.188501 74.067650 0.915995 -0.401187 0.001753 
7.316205 -3.219935 75.660744 0.916047 -0.401070 -0.001226 
6.619903 -4.460953 76.120804 0.829808 -0.558043 0.002488 
6.347831 -4.859508 84.715683 0.810231 -0.586108 0.002037 
5.991326 -5.300192 92.702759 0.742252 -0.670080 0.007349 
6.447350 -4.732359 66.381966 0.808791 -0.588096 -0.001172 
6.186388 -5.071790 75.117676 0.771019 -0.636767 0.007587 
6.333185 -4.880649 82.165512 0.808240 -0.588844 0.003251 
6.277977 -4.956671 68.456802 0.784841 -0.619695 0.001672 
6.635989 -4.444993 71.783409 0.829443 -0.558577 -0.003971 
6.674162 -4.388358 70.080467 0.838721 -0.544561 -0.000463 
6.354781 -4.826340 100.751129 0.809330 -0.587314 0.006842 
6.333677 -4.855891 102.498718 0.807929 -0.589271 0.003243 
6.558599 -4.551330 79.119675 0.824126 -0.566399 -0.002960 
6.211644 -5.023862 116.592140 0.802086 -0.597197 -0.003678 
6.479857 -4.640785 116.791519 0.819152 -0.573577 0.000085 
6.693825 -4.338384 95.557678 0.829112 -0.559083 -0.000807 
6.648025 -4.403889 94.922318 0.823693 -0.567034 0.001715 
6.915143 -4.022429 87.552917 0.857013 -0.515280 -0.003842 
7.078593 -3.719114 73.296204 0.883981 -0.467520 0.001398 
7.113333 -3.654254 72.595459 0.890949 -0.454102 0.001158 
-5.369039 -5.916185 50.582329 -0.676807 -0.736157 -0.002243 
-4.661421 -6.485686 47.028355 -0.580295 -0.814404 0.001791 
-4.906459 -6.311965 47.963520 -0.612739 -0.790285 0.000675 
-5.556246 -5.740563 55.159557 -0.702469 -0.711713 0.001652 
-6.622408 -4.465038 51.509308 -0.829659 -0.558267 0.001971 
-6.591928 -4.511961 43.146931 -0.827426 -0.561570 0.002393 
-6.485876 -4.669457 45.482254 -0.818749 -0.574128 -0.005250 
-6.227252 -5.015825 46.438580 -0.782204 -0.623022 0.000170 
-6.593499 -4.513777 55.312939 -0.824360 -0.566059 -0.002717 
-6.496511 -4.657698 49.828022 -0.817659 -0.575698 -0.002564 
-5.840654 -5.465361 44.764404 -0.728158 -0.685407 0.001916 
-6.011620 -5.273798 44.341270 -0.753495 -0.657437 0.004670 
-6.055875 -5.223945 55.769108 -0.750087 -0.661218 -0.012693 
-6.114375 -5.158050 52.759865 -0.752527 -0.658560 -0.001400 
-6.137947 -5.129970 53.375687 -0.755168 -0.655531 0.000516 
-5.772666 -5.534248 45.250774 -0.715964 -0.698137 0.000893 
-7.099341 -3.671510 50.155724 -0.894983 -0.446097 -0.001712 
-7.514012 -2.745342 46.485111 -0.936903 -0.349588 0.001222 
-7.319794 -3.182248 48.399075 -0.914870 -0.403736 0.003225 
-6.993997 -3.882150 42.258007 -0.876559 -0.481294 0.000070 
-7.423865 -2.964733 56.013645 -0.925865 -0.377854 0.000126 
-7.532345 -2.691862 50.681747 -0.938491 -0.345303 -0.000285 
-7.666018 -2.261014 51.527771 -0.960336 -0.278828 -0.003236 
-7.543577 -2.658263 48.058449 -0.940063 -0.340998 0.001543 
-7.542568 -2.661285 43.491829 -0.941499 -0.337004 0.002715 
-7.670748 -2.252373 43.107876 -0.960296 -0.278983 0.000960 
-7.713583 -2.115909 42.540554 -0.964000 -0.265900 -0.000861 
-7.894420 -1.286753 54.234001 -0.987212 -0.159279 -0.006596 
-7.911156 -1.179651 50.949734 -0.990724 -0.135778 0.005581 
-7.889332 1.283855 50.599545 -0.986245 0.165215 0.004882 
-7.918807 1.013986 44.716465 -0.992983 0.118256 -0.000797 
-7.974113 0.471400 36.933231 -0.997644 0.068561 0.002472 
-7.952923 0.696548 39.003990 -0.996208 0.087003 -0.000738 
-7.992713 0.230249 43.837936 -0.999199 0.039782 -0.004399 
-7.952025 0.667728 43.405762 -0.996491 0.083695 0.000168 
-7.962133 0.566998 42.162579 -0.996946 0.078100 0.000229 
-7.985805 0.448974 49.485939 -0.998004 0.063090 0.002602 
-7.989127 0.342702 50.008644 -0.999066 0.043162 -0.002124 
-7.999253 0.022658 39.975250 -0.999968 0.007700 -0.002119 
-7.976036 -0.397403 44.813232 -0.997675 -0.068096 0.002734 
-7.971680 -0.450072 46.030731 -0.997878 -0.065103 -0.000834 
