35.586452 15.023403 17.200261
34.215155 33.650964 3.077170
14.466455 34.041984 23.633903
7.559797 26.960146 18.271268
4.878932 36.753300 23.209975
30.784625 10.994078 34.250165
19.123978 17.391955 41.562998
17.682409 27.079599 18.441864
15.172246 17.206234 38.793842
35.586452 9.544598 31.867182
35.288975 16.533875 23.729583
33.861576 43.212385 29.212970
4.363151 8.690358 17.308978
28.488392 4.060958 23.140086
34.901415 41.345418 27.295720
7.746455 6.645145 21.558441
0.546455 10.835750 19.068518
7.746455 9.124273 20.272569
20.880175 26.915651 25.719153
7.746455 19.175627 9.108847
17.112320 7.993572 18.415219
31.245463 6.969639 11.626009
0.546455 36.689559 14.448492
33.418354 17.052960 36.861219
35.586452 33.603473 15.073028
0.567324 32.727535 31.896469
7.716913 38.904325 17.049318
14.899889 6.045140 33.674797
7.746455 34.638698 14.390420
33.980034 15.443888 34.599661
7.871881 15.750357 31.028458
31.121419 21.883825 27.931519
28.920501 21.605725 27.907188
34.279422 33.794830 13.328116
29.577080 37.966833 29.856313
17.378009 30.511121 39.562182
17.278694 1.520385 23.100928
21.666456 29.490205 11.312931
2.723659 9.061563 35.397781
20.181569 19.614257 27.330072
11.590760 23.742885 11.138738
19.726301 0.002140 22.263959
7.703232 4.676706 20.411389
7.708575 20.100321 4.549662
30.145569 18.851338 17.045492
5.591456 28.011708 36.819065
7.746455 16.198177 10.974160
31.720200 5.483863 24.099558
18.764656 20.347075 16.284947
7.746455 9.264904 13.977997
28.386456 11.173384 34.045131
0.558934 18.916687 38.614341
14.466455 34.513459 17.613849
21.666456 34.786454 15.860510
28.807982 30.944419 39.921316
32.568224 26.679642 7.755706
14.574078 36.662486 22.843795
21.666456 20.675722 8.064682
35.586452 13.016852 29.811356
18.538197 20.457078 41.417151
20.885761 9.730879 8.892079
10.815310 16.494285 23.581831
21.653817 5.128835 19.952115
27.181129 28.029244 20.442879
9.309563 16.471853 20.428764
19.587569 8.709099 17.268125
35.586452 30.457191 22.587105
1.131481 41.089276 13.845100
28.386456 10.407841 23.780252
14.466455 12.675205 31.673587
16.715336 14.998491 34.312439
35.586452 16.860813 18.630132
18.118272 19.755952 27.396145
0.550983 10.488340 34.135243
14.474249 38.036203 15.989838
4.968378 23.941874 16.229115
32.107184 23.922471 27.702960
14.515363 31.238361 37.318751
32.453488 23.416811 7.406470
14.476736 38.906711 18.141960
35.586452 27.792204 18.971856
10.070698 23.678232 16.158472
4.929835 8.985471 14.858368
0.546455 19.849435 36.105050
5.697022 8.253880 13.094109
5.199257 26.190891 17.452681
20.392054 32.534632 11.636148
14.466455 8.749717 20.071260
7.170383 9.024820 16.021792
16.740802 34.281766 30.248280
33.247553 27.033643 25.550644
35.586452 34.414940 17.033052
21.977691 14.526627 29.791461
0.546455 6.106969 24.122614
30.947693 7.355375 24.918642
25.181325 16.373438 23.130823
21.611523 31.499205 37.256117
16.842315 28.205014 21.464597
0.546455 20.379761 32.022904
15.305744 38.451984 29.959998
16.831152 3.042173 20.268143
14.547358 4.218491 20.345698
14.323216 14.469071 29.928631
16.644968 23.852676 27.721662
4.082264 21.564211 16.023320
19.742223 17.214595 5.280692
4.544170 8.257076 35.762294
20.855359 17.194717 38.996813
35.141402 36.788075 23.342584
3.660226 10.586331 34.493501
1.049299 17.189399 39.788966
29.996816 28.179925 21.177829
16.739716 43.194984 14.464724
16.179008 21.787434 27.923086
0.546455 20.584109 9.727610
19.388747 6.594772 24.450195
25.669883 21.683858 27.914024
0.806770 16.449421 23.414396
13.781990 27.428358 24.986932
34.262682 0.000754 22.069313
0.546455 38.395859 17.982686
27.123520 28.118148 23.152203
34.459938 5.754390 7.509468
7.050830 16.474901 20.417387
21.176329 7.639477 8.009197
5.406201 33.649806 40.903508
30.349890 20.030538 27.524186
21.666456 30.471683 9.139349
30.194454 8.366943 13.281747
0.547356 9.244475 32.481901
5.054691 21.755052 38.174027
35.586452 16.149808 21.122245
0.546455 30.912378 25.380069
21.666456 7.486697 22.094462
7.746455 13.851796 31.750236
21.666456 36.030132 27.980148
18.101763 21.481389 38.725194
35.586452 24.194712 32.575773
7.729387 28.215773 21.587568
0.546455 32.898843 24.485733
20.769807 21.545840 5.365595
14.456939 12.372896 27.677533
4.951679 40.805470 30.148500
5.450156 17.001633 19.072535
0.607604 32.869947 7.577872
0.546455 28.718350 6.816686
33.155642 41.398770 16.586768
33.872143 21.747246 38.188151
14.466455 21.748791 37.533282
5.130900 23.887951 7.617198
17.242028 18.166135 26.333907
0.546455 16.732793 25.578579
24.039156 22.608744 32.874397
3.339961 7.436383 24.980801
16.533011 8.995082 27.625499
35.227443 40.192615 30.078277
7.662933 9.713678 8.882249
31.868828 8.969249 14.785194
29.493281 18.932835 43.598533
6.642322 6.349856 19.582744
0.546455 9.572881 11.512188
0.572290 4.974734 22.308254
28.386456 23.834501 8.129381
21.666456 20.425360 10.488178
2.831051 19.782919 27.408720
3.600830 19.940508 1.603848
11.518336 25.714666 32.329722
15.174244 40.856615 30.147837
21.666456 14.922650 11.181961
33.409441 17.020587 24.894989
14.466455 18.760864 37.742478
33.313608 17.219164 5.361466
4.345994 21.108491 27.845951
30.526025 38.341106 18.489664
18.126153 5.022357 24.033238
16.528217 7.412721 24.962645
0.546455 24.551541 14.605021
28.386456 6.223455 23.923513
30.905423 30.537146 39.586246
3.698615 27.470068 19.017605
4.161153 9.049776 28.139717
7.746455 21.698992 6.591203
17.014644 9.320529 35.269307
11.263360 20.441459 32.740950
7.746455 6.621165 23.593864
26.069296 24.451441 32.666155
35.586452 26.609418 33.361100
17.567716 17.187092 39.268824
29.635738 43.200971 14.618950
20.698450 21.513971 27.899161
33.966959 28.092152 20.677655
0.546455 11.512838 12.195621
30.992227 25.019830 36.030353
7.308054 2.272930 21.099008
0.920548 33.262503 5.588449
29.746375 33.606620 2.832650
31.525105 32.503538 2.865229
19.813053 21.107152 39.899532
6.017215 6.826687 32.483454
18.214360 32.244489 10.466424
32.870759 32.232954 34.397304
6.200420 27.714111 19.540959
18.823554 14.840587 34.237605
0.629666 5.439345 19.834085
4.097211 26.583262 36.148538
10.325837 30.843270 15.222774
28.386456 21.233349 8.221761
5.383732 6.588025 24.446575
35.586452 10.294740 20.498127
30.694590 27.317517 36.414180
5.928305 38.313016 29.936103
21.666456 28.603707 35.390263
5.011773 33.539816 38.866636
11.589257 23.992073 27.684310
20.840662 17.229081 3.499639
26.199510 24.457813 27.528366
27.780737 17.491849 18.335991
19.576741 30.272936 39.335298
16.775682 32.472723 32.456105
4.173996 16.874863 7.573870
21.616423 32.285832 7.254305
35.586452 26.070657 10.295456
17.360299 19.993670 1.690875
0.546455 22.952480 28.034669
0.546455 11.892647 29.359782
20.384749 35.276384 14.106323
3.186343 33.312517 6.211143
21.666456 11.986221 29.470198
21.666456 17.451322 36.754772
16.087805 20.798269 16.164049
30.814477 21.358264 4.836732
1.206263 40.910276 26.964928
26.767858 16.312467 21.234092
7.746455 9.751959 27.927291
6.593191 20.472076 27.675423
4.577373 43.065817 29.814133
23.497312 22.174022 15.969968
21.666456 35.866396 25.817871
28.758915 19.518887 41.479593
7.746455 10.342008 11.752566
10.174545 28.245441 22.000197
35.586452 15.904731 14.983420
7.872044 33.398205 22.485581
7.697861 25.508800 7.928999
14.466455 32.263683 11.088829
21.299895 2.591687 20.928340
21.696570 33.082004 18.627965
15.317522 23.314263 16.060947
9.947917 12.892374 27.583516
3.555392 24.538193 36.108277
28.432549 4.546340 20.996234
16.606341 20.961795 3.633455
32.340548 32.290147 9.229924
0.783568 40.379516 17.325164
7.746455 27.935054 33.632760
35.527469 4.430031 23.953295
32.130189 19.443630 16.676369
5.011323 26.878429 7.694572
33.845779 28.217449 6.933621
0.736075 3.408176 21.051727
18.862381 2.574484 20.413290
12.911932 16.592954 23.950066
3.204910 25.798538 7.909102
7.746455 36.868226 23.783906
35.225494 9.049928 15.785728
7.746455 25.732324 34.365599
21.666456 8.306632 25.457110
16.901366 32.427870 41.014237
33.344820 41.193185 30.132548
30.597660 32.331315 11.001981
9.418709 17.257091 25.255617
20.889055 20.284206 2.179276
2.551351 33.569762 41.115857
8.994864 14.580004 14.175670
14.466455 36.867537 17.622861
21.503151 7.681569 10.288819
0.546455 25.025165 29.270972
31.154861 36.163731 14.280756
31.789400 14.959067 34.293755
7.421768 40.106625 29.815865
28.666091 39.915692 29.778281
21.666456 32.579038 16.638124
7.555946 16.661620 24.125181
1.721102 16.878041 7.567766
7.746130 28.704419 37.394826
0.546455 10.365275 13.934658
18.812916 33.156757 6.754371
0.546455 21.830033 38.006276
31.991254 18.244424 26.412196
7.142686 21.173587 39.692940
32.823116 41.382061 27.325713
10.724216 13.735526 15.119128
0.546455 23.020465 30.270497
32.360523 39.744416 26.219912
0.639263 8.968729 9.587235
4.622738 33.036003 36.806690
32.504244 20.131908 27.571456
21.666456 24.458970 7.919267
0.645698 39.139452 15.194116
28.386456 31.067208 13.747357
33.327944 16.925988 7.451520
17.057207 24.837907 16.575750
28.380665 12.112847 27.318375
32.431603 9.326976 35.265623
19.693789 10.068869 34.827722
14.661656 30.363973 4.876833
28.386456 37.454242 18.908809
25.339115 28.814909 30.701235
21.615004 4.481110 23.564768
5.792823 10.927626 9.641349
7.457661 17.188004 4.450203
7.105323 6.972616 11.629598
30.339636 32.468908 8.543650
4.519466 26.605288 26.059799
1.390853 3.997037 23.883328
2.693477 38.312620 29.936035
24.811282 30.356761 29.281248
2.110457 7.922856 31.228411
20.747715 21.072918 16.090457
34.369442 17.198712 38.926670
0.546455 9.197057 16.032929
33.150418 23.966868 16.235812
7.386192 30.616072 4.267650
29.180563 33.524296 5.155506
32.877479 36.584474 22.267083
29.661548 20.622967 16.211021
28.386456 34.835154 17.953582
14.590149 31.816157 6.273402
21.672536 16.890695 11.851013
23.978646 19.624718 16.591927
34.544739 1.762013 20.717136
0.546455 34.123925 26.711916
28.433073 39.088903 27.529339
30.410439 32.389501 35.164339
0.546455 10.924011 27.418727
19.657305 23.925752 16.224795
21.936579 19.311909 16.737792
15.673578 15.062919 9.583905
18.323469 22.426029 27.947920
15.478756 17.198930 18.754322
35.200108 21.141549 39.799450
18.880922 38.544942 29.975944
15.592352 23.169162 36.682550
24.426108 11.921043 25.529077
35.361068 14.191331 9.946228
35.586452 21.263006 30.887241
28.386456 6.950295 21.804930
7.746455 8.352259 18.376533
2.666498 0.001461 22.168580
12.842319 13.478902 28.481314
8.179090 18.046778 11.860730
35.168376 6.219185 33.779328
5.209820 23.226865 27.877855
35.586452 19.745975 14.045580
17.693738 17.234165 5.839040
28.386456 36.062553 16.335822
31.073041 41.663920 13.829258
28.386456 29.009042 10.101237
18.675585 21.333932 4.764609
7.746455 16.873736 34.694498
7.746455 24.010843 35.935915
3.514051 17.630737 18.137638
19.008382 10.321391 9.264657
14.466455 18.668983 34.238794
0.546455 18.133536 9.959048
19.645756 36.610843 22.591764
0.546455 18.062564 31.183858
35.586452 35.938796 18.923260
19.003630 24.425535 27.543418
12.474979 25.793736 11.627030
27.283019 20.752000 16.176447
6.496005 8.894997 29.476609
21.720951 33.336726 24.013082
6.091785 36.591021 21.579184
14.470835 17.149553 25.102036
29.143766 1.498822 20.835660
34.666984 20.816082 27.767600
1.705573 1.581202 20.798557
12.825727 27.594705 12.437154
17.299699 8.243772 13.079807
21.617112 39.338164 16.965333
18.552396 37.340120 24.414646
21.666456 32.949899 14.435994
28.386456 27.123835 10.804659
1.343261 38.338994 25.435507
6.962772 23.599441 16.137360
5.193041 16.461232 23.458477
29.061392 7.937077 25.451525
21.666456 26.187085 35.876453
7.571743 30.166724 39.006952
19.378265 16.315042 22.722210
17.172521 18.527065 17.272551
14.466455 14.495728 32.624658
19.618772 30.511984 4.363896
34.677508 32.619483 35.765859
2.872524 24.869954 16.590694
10.003233 14.474686 29.643692
14.805888 41.007382 16.388909
0.546455 26.433498 30.993182
35.586452 34.767262 24.842611
7.453073 40.915223 16.697603
28.700035 17.096736 36.994253
32.017784 1.396537 20.881723
8.564831 33.048361 20.289323
11.591026 23.428382 32.829958
33.316553 33.815007 30.584062
15.606433 17.456604 41.894003
31.798609 33.607097 39.437214
0.546455 8.544206 18.822472
30.438256 9.001106 16.244739
0.546455 10.095889 24.908837
0.546455 16.283510 12.709367
14.794326 25.300562 7.922849
21.418215 40.155761 15.126894
28.386456 26.486673 8.471921
30.927145 9.865568 8.969015
28.386456 11.978812 30.179314
31.901583 38.560896 13.948191
28.386456 21.562237 6.021163
33.282349 8.704520 17.278105
7.558963 14.778822 34.208334
14.526587 18.316438 4.489025
25.161702 20.593126 32.766604
34.759854 18.838517 26.872407
17.236663 41.935520 16.118530
33.008791 16.589290 19.990483
0.546455 28.084862 29.841250
6.091343 17.323824 25.350921
22.898460 13.149379 28.010661
28.464850 19.641523 4.108974
35.540073 38.143360 29.845164
7.328240 17.164406 37.341420
24.644400 15.554542 30.597787
0.546455 22.141334 6.723550
35.586452 31.013658 26.515120
33.554060 16.283389 22.360422
32.964009 28.014324 23.539677
23.810553 16.516042 20.263846
6.445216 15.374165 9.375393
2.513474 37.225232 24.234309
33.940968 25.049017 7.899261
0.546455 18.851225 7.861784
0.732521 7.828518 34.093614
2.027775 26.048179 36.034917
23.576027 20.625381 27.716502
33.517447 5.609416 19.808234
25.817827 11.376374 22.952947
28.425716 9.797432 9.440008
18.817273 17.308413 2.835793
0.546455 20.438877 5.659206
32.420744 34.460189 13.768668
2.762267 41.119671 16.802768
35.586452 9.443467 26.679667
14.466455 22.177016 35.309685
1.909503 32.985772 2.600445
13.540708 25.943903 32.240013
23.985547 33.128109 22.885335
6.099520 27.366548 25.075206
7.746455 35.980598 16.655420
12.131227 24.921290 16.614633
2.154171 21.684126 27.914048
18.108769 9.044208 15.839514
35.584400 19.497977 38.489901
0.546455 29.858448 31.546486
28.431416 19.661446 39.473006
35.586452 28.520027 16.923022
21.666456 38.058160 25.622514
2.953442 29.038050 6.051970
19.537503 41.341298 13.805319
0.546455 30.914601 33.361862
5.936554 37.751936 24.916718
21.588013 29.820722 38.384241
34.384338 11.339988 9.820084
2.335603 10.112900 9.127984
2.393201 33.092352 12.596282
21.379126 11.651838 9.940238
14.466455 30.236214 35.329274
16.299438 32.629914 11.830887
11.547535 26.171204 26.493882
8.886555 18.575363 26.688144
5.021368 12.373454 33.822465
4.892656 7.228424 19.105647
34.771943 21.893577 15.994504
19.737487 8.859609 14.309131
14.466455 32.860971 27.151104
30.509091 5.142905 35.609625
21.403873 15.912138 8.936499
16.194446 5.547136 24.109175
21.666456 10.039971 11.772685
5.040247 17.187941 4.464423
35.586452 32.305258 11.167342
18.366548 12.429690 33.813991
27.884489 23.334667 27.860462
15.883690 9.018992 15.009574
1.007178 31.169826 3.951524
28.431135 32.357954 7.382000
33.683140 23.153157 36.693029
30.571572 29.089773 37.944149
31.560976 43.163603 29.152231
10.604514 19.005061 11.531478
7.335138 2.401960 23.161541
16.811364 32.364109 8.851941
35.586452 30.412424 12.119430
31.731126 20.638215 2.868363
28.386456 19.079763 36.804210
35.586452 14.465592 12.071560
35.586452 28.107768 10.413335
5.691838 35.433781 29.770927
0.546455 36.377752 16.543162
14.998459 33.411073 30.960538
25.132942 24.478285 11.265796
30.398291 35.921065 29.681151
0.546455 11.354355 32.064045
28.494334 17.379644 4.292576
4.109474 32.677060 8.026963
7.746455 12.170437 13.966982
2.456377 17.514368 25.623045
0.546455 27.792145 17.890715
20.843510 38.250677 14.003772
35.586452 31.280470 15.809519
15.771727 16.427200 20.595411
35.586452 33.445376 27.749496
15.800928 21.605709 5.482632
4.781235 20.753581 40.796265
21.666456 6.394706 24.201321
14.514315 28.542256 6.650559
31.125454 36.778454 23.311400
5.429904 4.507403 19.954637
34.366937 18.332317 0.178928
0.546455 33.887615 30.023355
29.018829 16.454924 20.491941
32.954246 3.143639 20.238578
18.145740 18.684350 43.924640
32.023364 17.194954 39.905894
19.202164 43.254039 14.662041
28.965733 31.571655 3.716752
3.828384 31.998782 40.743360
0.546455 16.755227 32.804947
35.049822 17.775530 41.819896
28.062697 28.720984 13.081515
20.794791 9.053605 28.306329
0.546455 29.900347 19.160964
14.480001 38.426807 27.197931
35.575675 17.303212 5.477067
3.858850 33.652786 3.162455
7.826229 12.246011 27.053266
14.466455 26.599078 10.312223
23.074061 29.559971 30.073533
20.369026 28.154778 36.938639
3.370625 6.781071 32.545655
31.066422 40.008747 30.139553
17.011782 30.343220 4.519945
28.386456 12.313624 13.614172
31.758669 7.985518 18.423791
14.485160 7.896406 31.657538
28.805926 40.457574 13.833275
24.377082 17.436558 31.775564
14.466455 35.859470 15.321857
23.806868 16.873202 24.578919
4.450824 30.091077 39.145296
20.066650 42.541998 29.969727
0.546455 29.530138 9.566042
1.009596 11.423368 9.852209
25.432572 28.214455 21.572509
22.052606 18.673116 26.756591
21.666456 33.501420 28.629851
2.311953 40.624298 30.150864
30.183159 29.974989 4.902868
11.507538 32.597138 25.471314
28.386456 32.689320 14.947137
14.466455 19.359422 7.381762
35.586452 29.276735 24.256482
27.180382 22.413623 32.884977
21.158686 35.309645 29.810067
1.848416 17.500854 42.068334
21.666456 35.391341 18.519456
35.399692 40.121580 16.006266
31.783560 19.583934 1.080035
0.725454 6.875790 11.104637
33.889838 19.942190 1.606329
7.488314 7.748845 9.362120
7.125785 5.733183 9.613839
7.746455 35.543472 29.538111
19.352864 16.982011 19.114615
7.700157 11.612153 34.001929
32.895841 7.151939 32.081624
2.129976 38.021643 14.057666
33.436254 39.604588 17.784424
35.586452 16.373595 10.446890
28.662263 28.421986 37.171505
9.739780 29.443754 13.754627
21.233766 32.165323 4.621900
14.662542 9.728798 8.890862
10.057517 12.301466 17.460578
15.229332 31.299409 40.240642
21.666456 35.444872 23.478886
28.593723 7.419317 33.821138
19.629443 25.918982 36.026045
30.350336 3.938236 23.872681
24.158674 23.938456 27.698677
19.393928 7.020347 32.239892
1.032679 2.080268 22.627751
15.457932 16.818993 7.681197
18.627488 28.209630 22.409521
35.586452 15.203467 29.373527
33.668330 10.916402 34.292364
4.130547 6.324777 36.349663
10.757415 17.095967 12.329898
20.789429 7.240848 36.119236
7.746455 10.763946 32.079672
21.666456 17.709645 10.014267
3.041235 35.555069 29.733986
3.994426 33.685627 30.682539
35.586452 30.768975 36.147421
11.647713 11.772030 18.855125
31.012395 20.142214 41.986292
21.982773 23.690150 27.765210
14.466455 6.464606 23.254841
35.586452 17.350779 16.623606
14.466455 7.732898 24.877660
7.746455 33.403903 16.055553
3.066197 20.901552 3.470183
14.466455 17.362854 9.543680
9.603693 21.615107 16.018867
19.728136 33.464492 30.906448
14.796496 33.388831 38.052769
0.552539 38.156643 27.492255
7.543513 17.189425 39.794787
7.544308 32.933834 7.404758
30.344866 33.114894 37.028926
30.614059 17.209837 5.196915
12.330683 14.739309 14.021556
28.947956 1.917100 23.272315
33.617653 26.451445 17.713234
28.548354 26.640428 36.161961
35.586452 32.639083 18.042987
7.563614 4.540491 23.976128
4.730813 32.427583 32.605752
0.546455 13.464587 11.359546
28.674585 24.171220 36.204158
17.438266 16.874591 24.581899
21.409069 32.525430 35.527769
1.419906 34.446871 13.761945
21.666456 9.775594 17.038387
6.889266 9.200835 35.329085
0.546455 15.456745 31.270551
28.290226 12.422527 16.587032
33.450331 30.987935 3.940748
30.939026 17.092949 25.021197
16.853677 37.082851 29.666677
14.466455 10.160313 31.137544
22.111946 17.443160 18.405526
14.466455 9.020633 29.378054
28.386456 9.747363 14.335588
6.136507 33.428588 30.942803
31.342551 16.576226 8.143510
26.403201 27.075074 18.435403
14.466455 10.782832 19.764064
25.620112 22.171653 15.970175
14.466455 29.349960 11.239739
14.466455 31.015802 32.244035
2.546292 21.440768 38.845596
17.771490 12.344664 10.098404
28.779396 22.605773 15.994682
31.265556 42.277580 15.785382
14.466455 29.166722 33.348873
32.611837 21.589428 16.021114
21.666456 22.211868 9.408241
33.157320 27.465588 36.480645
30.402106 7.025028 32.234247
30.691307 22.462934 6.682602
21.666456 32.839124 30.568458
4.326000 38.682932 13.927212
22.805587 27.033711 18.376330
35.115322 32.428168 4.591562
13.736844 16.403452 20.684040
22.097171 12.155791 26.204873
14.466455 24.839352 35.872775
0.546455 12.808008 13.909878
7.707981 31.307757 37.003468
14.466455 19.674076 9.960377
35.586452 24.809787 29.702485
0.546455 22.523498 14.189067
7.746455 8.372205 24.739527
10.534922 19.624868 16.591856
0.546455 9.943273 22.902734
0.546455 32.534428 13.450514
3.027239 16.310740 22.673038
18.157632 18.024792 0.235758
6.592319 32.786095 36.153832
3.083165 36.583232 22.251790
7.428572 20.695603 16.191559
29.679732 5.016085 7.890936
4.884548 8.169907 30.946116
35.586452 37.714365 17.542551
4.928947 13.663219 10.075946
35.586452 32.951146 22.641734
28.494882 6.095336 19.670027
0.546455 36.067394 22.345398
0.546455 16.100488 34.847573
18.514938 37.032134 14.266357
35.586452 33.401906 30.670507
16.427115 26.996054 36.281025
28.533853 33.568364 13.125603
2.334221 43.190289 29.475343
31.408740 5.968726 33.786331
33.482835 30.533068 39.582475
1.334277 7.893744 25.405404
28.386456 10.036126 25.958997
35.374238 3.233793 22.065845
28.386456 16.570314 34.538435
28.551881 38.259855 25.371584
21.745957 22.717749 33.170379
6.343063 33.486649 13.042863
7.746455 8.525411 31.011525
25.515012 12.637696 16.766638
29.343708 14.788973 34.213144
28.970052 16.521410 23.683062
35.586452 30.484105 17.785800
33.592421 37.808728 18.946608
28.386456 31.855018 34.288199
14.902987 7.811079 8.127454
35.586452 12.297957 14.817972
0.546455 36.040966 28.995316
34.477529 32.293813 9.211192
28.386456 30.268751 35.907005
34.525295 8.674376 13.845679
32.220726 8.507397 30.412033
2.510424 27.253288 25.236958
29.843000 9.375697 35.237779
24.460029 31.813366 27.237112
26.150405 26.625145 26.039941
30.865653 26.721358 25.943729
0.546455 18.602806 12.742810
35.459745 28.090482 36.882606
15.147751 18.589182 17.229056
28.386456 28.299766 34.380194
24.520981 31.368124 15.949768
15.403931 7.182872 36.135600
14.466455 27.139269 34.340921
9.635629 21.897450 32.874879
16.764582 0.217788 21.515963
7.746455 35.420342 20.676986
20.670963 28.217171 22.323320
17.080449 40.903293 13.779652
21.666456 29.889702 33.315232
2.513834 32.355398 32.845056
31.233160 7.216765 36.126038
35.586452 7.228032 23.233895
14.134057 25.304715 16.806538
35.542251 16.353981 8.440745
35.573176 30.094467 6.883497
2.061078 8.950511 14.700673
28.386456 13.729768 31.705851
21.666456 8.777188 13.388348
35.586452 14.700521 32.212916
33.998181 38.348751 25.443387
7.708388 38.729857 28.008680
5.642838 8.622511 26.470000
35.517491 10.197753 34.743273
35.586452 11.351517 27.467172
6.556609 17.176580 6.507964
0.546455 19.360269 34.113176
7.746455 8.805535 22.743803
31.543699 33.579389 4.764491
28.905968 20.171195 1.989298
0.546455 25.812519 11.540825
3.042751 2.410472 23.459216
28.428372 38.965821 16.356086
15.427707 40.822611 26.898285
7.733042 30.075926 6.870178
3.521301 11.848246 9.994826
18.144972 22.267602 15.965095
35.586452 16.678896 32.686277
0.546455 24.496484 32.060698
7.060102 25.388925 27.061373
0.546455 30.883091 29.569054
28.386456 9.407620 21.373916
14.466455 10.255936 21.699425
15.520106 28.064783 23.351363
0.738534 14.866065 9.677198
32.772637 35.922016 29.681014
7.820130 13.755949 29.325246
33.792106 29.084945 37.937687
35.449395 32.545417 6.608923
35.586452 22.325102 6.910686
18.567965 29.223384 5.803859
35.586452 18.790250 10.742709
30.985148 24.038451 16.254993
21.326528 40.129915 29.999030
35.586452 14.297906 23.555677
0.546455 30.382045 27.408354
21.666456 12.849710 11.780277
23.624328 11.348555 22.690551
14.466455 15.892425 10.965287
35.563617 8.990285 10.982004
14.632122 18.534776 40.275551
7.746455 37.301200 15.010021
34.729440 7.856750 18.560848
12.194706 20.971606 11.109748
20.278823 41.706371 27.605130
15.528127 27.574769 19.242139
0.623928 38.704180 29.434282
18.359802 7.257406 36.114567
0.546455 33.968817 22.772262
7.746455 33.517372 29.101547
15.090081 32.703779 4.210886
19.724304 17.732366 25.900138
3.192118 7.050022 11.722687
13.734897 13.619453 15.266777
28.835903 24.586986 16.458744
28.205850 13.492510 28.767401
14.466455 31.498124 30.226379
32.854305 32.785509 12.148896
1.448524 20.286514 2.183155
1.219293 23.083433 16.036472
13.590983 32.758246 24.962294
16.703026 35.502851 14.177728
14.466455 21.948440 7.272988
8.621309 31.575418 16.294293
28.858853 17.188594 39.608872
24.114594 19.148733 11.492425
14.466455 33.556072 15.583476
1.776506 43.139604 14.574129
6.886677 38.825702 13.902694
31.979076 32.056560 40.779830
7.746455 10.834762 18.987878
0.546455 30.730741 14.500604
34.864761 3.961781 20.049926
26.108515 17.340941 25.375367
24.069721 18.365360 26.533132
4.441925 32.748612 12.073484
15.401989 7.210659 11.915831
34.051063 36.047511 14.263979
23.189305 15.945682 13.039822
0.546455 19.345159 27.592494
10.298744 33.090340 23.241592
35.586452 13.754676 21.257543
28.386456 15.863752 9.007555
19.824791 26.520292 17.782082
27.675952 25.733909 32.323354
35.586452 13.911776 18.880253
30.352333 16.238813 35.332103
28.386456 20.859653 35.252513
16.712061 21.018469 40.139822
9.142587 32.470631 25.821511
26.026459 19.122180 16.855847
4.810433 17.426351 2.182643
28.442007 35.053253 29.890906
35.586452 30.577551 9.397492
30.834339 16.257629 22.065984
14.466455 6.431156 19.745530
19.755663 14.781883 9.717093
25.038757 26.516612 32.011826
23.925588 32.515171 18.228660
23.545627 26.003200 11.710488
27.165567 27.515539 31.533636
2.121142 20.768081 16.172138
14.466455 10.227300 27.706377
31.915571 28.073328 20.607404
28.264720 24.007117 10.947767
27.154407 25.611150 17.021107
32.331106 15.301173 9.425827
24.883240 24.525211 16.429938
14.785267 20.368429 27.647651
35.586452 11.040522 29.496783
30.750525 28.363474 6.806363
35.586452 18.699211 33.302325
31.743826 22.629740 37.091424
13.335353 17.236318 18.700926
7.369479 37.469331 19.326392
33.514216 21.403394 4.970498
14.466455 13.293477 10.136219
33.537382 33.659219 40.464858
14.540951 32.216032 33.854509
7.746455 26.360860 10.022723
0.697088 18.903252 3.686576
30.811907 41.627391 27.537084
14.923956 19.878175 2.021810
14.498379 8.768167 10.939118
3.257633 39.479033 26.079143
34.280912 1.744063 23.201663
5.932814 31.409286 40.326127
3.235903 41.433683 27.370189
28.386456 17.978220 8.930889
31.997537 11.411538 9.847651
28.809287 7.876708 8.133969
35.586452 28.443195 8.211406
9.248667 25.878790 26.718366
0.546455 27.913345 27.572097
18.081954 28.231438 37.005447
0.871404 25.430716 27.032111
16.571244 24.918468 36.039858
22.635132 16.088793 30.981840
14.466455 13.095268 12.313633
16.596904 22.783355 6.976214
32.696100 13.181768 33.793643
35.586452 7.097930 20.288546
14.802228 3.724745 23.830443
2.568402 29.133511 38.002722
22.849718 20.963089 32.815992
15.188435 35.702836 29.712654
35.586452 34.286242 21.017510
21.666456 17.633738 7.843603
18.148409 8.345688 25.980811
0.546455 28.348841 11.689769
12.085369 21.486572 27.896764
18.758218 9.020775 27.867056
3.756170 19.704526 42.669685
30.334312 15.109374 9.558352
29.680009 18.690260 0.001237
35.586452 17.168887 29.774631
18.839075 32.287507 34.683462
30.145663 17.369989 2.479599
28.386456 10.436404 28.828978
5.206528 19.150334 27.090743
2.769778 7.555530 18.854650
0.546455 29.650840 16.542675
13.606552 18.820731 26.859953
1.251638 19.945153 42.316193
18.411866 22.688462 37.037615
35.586452 21.645807 34.373942
11.834671 33.174853 21.805230
21.128826 16.880336 24.594219
16.860807 36.841296 23.466673
19.234852 3.308266 23.728567
0.546455 25.775504 8.381779
2.928649 18.173205 43.835147
8.387983 16.281187 22.335250
26.995854 29.871252 29.796034
28.386456 15.329987 11.618389
35.586452 9.951682 18.308763
5.439621 22.217820 6.418415
34.778378 8.231631 35.772968
5.106328 31.668317 3.414234
35.586452 23.919180 9.769185
16.601980 28.309446 6.853448
2.339563 18.840954 17.052763
28.386456 32.836825 16.989497
5.353386 23.328796 36.578032
10.320430 11.390798 20.837874
21.666456 10.311166 14.827043
21.666456 37.614190 15.723140
0.546455 22.497247 32.422544
35.586452 19.909328 5.822512
21.666456 33.585417 26.598191
19.169799 7.491126 18.904069
14.520264 8.750503 33.667420
28.403119 8.839060 11.396261
31.346887 6.120796 19.661296
14.155583 32.227213 17.358974
35.586452 14.082556 27.332421
7.746455 14.893033 12.603283
3.408402 42.039301 13.878425
34.050396 22.712567 27.922851
3.107896 14.655167 34.149732
21.666456 10.446194 20.377531
30.302674 24.391543 7.780284
14.466455 9.805929 13.707177
0.546455 21.947137 34.789071
0.546455 34.412149 17.257402
21.297247 6.393686 33.656836
27.644323 14.629654 14.127347
35.493696 36.652568 21.123073
8.289477 11.363864 21.044702
0.546455 25.738221 16.482333
19.146586 7.051508 7.754216
21.666456 16.552665 32.946504
11.659933 16.421660 20.616087
35.586452 9.281513 22.875284
35.586452 27.839255 25.725800
35.584892 5.515671 21.524236
26.800197 32.620013 18.518887
0.546455 17.422918 36.601226
17.869657 8.744947 8.372927
14.545283 38.496933 14.005911
25.728970 19.420646 27.239789
12.005131 15.261915 30.349227
33.845620 32.445026 32.547924
25.049498 28.001602 23.587159
13.870121 33.171330 21.663346
17.003068 26.425875 7.815293
0.573888 17.283872 5.229651
28.386456 21.558085 10.230562
27.808505 11.323206 21.706530
28.788562 17.432541 25.506184
4.416833 5.502167 9.227914
14.466455 30.899856 12.918223
20.847865 23.004592 36.790300
5.330928 40.367704 26.593821
0.638639 30.945498 6.037627
28.767819 41.007325 15.801252
7.746455 12.617309 11.736077
19.279677 33.647499 41.010581
30.346650 26.509192 7.795729
7.729839 18.910706 38.706699
7.746455 29.241656 35.176908
0.546455 12.069466 17.200638
29.941710 0.001800 22.216265
10.435803 29.282811 30.308955
0.546455 32.421131 27.853390
2.575558 32.390622 35.168072
9.678596 21.676720 11.063966
1.781209 19.141983 0.507093
19.268731 5.611597 19.807903
26.411778 31.472538 27.803571
2.638717 5.405062 7.427502
21.659397 10.447227 34.267417
14.466455 16.103646 35.003299
21.666456 9.185111 23.190023
20.873856 42.229542 15.119656
23.734333 26.504080 26.161007
5.991318 20.352231 2.306082
12.091394 29.130479 13.488529
29.168745 36.964010 23.752790
29.875012 33.657410 40.300835
33.548896 39.809938 13.796900
7.746455 16.677344 8.273697
0.546455 14.182456 29.499126
3.985828 2.786547 20.347475
28.520690 14.034693 9.991354
21.666456 24.337275 10.313374
21.912454 30.928850 28.775087
21.644413 20.542503 39.126122
35.586452 12.281124 32.186429
0.547923 28.893869 37.369993
10.910188 32.905717 19.607073
26.277644 33.081100 23.328743
0.546455 34.540235 20.339042
21.203508 33.495963 38.616750
35.586452 17.184529 25.717390
11.061279 17.156507 18.814908
3.256773 32.217802 10.015583
16.571585 17.199303 3.954567
30.823575 40.646305 17.146934
28.386456 10.126740 16.577700
28.603898 8.046254 31.088231
21.616588 38.974559 28.100426
24.760956 14.624976 14.131899
12.716131 18.781657 11.597482
13.680498 26.844010 18.105799
19.749134 7.768703 12.525696
35.063716 31.825544 39.865157
24.600727 27.793610 19.711445
35.586452 35.999170 15.553578
0.546455 14.290768 33.861924
16.630459 8.718177 29.971606
20.481823 12.424212 33.814230
35.586452 26.037816 16.783073
35.586452 36.104816 28.761386
5.812112 8.704718 8.353085
14.208970 31.076386 15.359142
28.386456 21.208563 37.557507
5.302088 32.229579 9.637837
0.546455 7.115832 22.319330
17.338053 41.114468 30.138390
7.746455 32.024603 13.242807
14.466455 10.877331 33.038824
4.268315 0.836375 21.161041
9.881914 20.728056 27.744013
14.466455 35.081838 27.741780
29.860880 17.154424 18.817883
9.473835 17.031165 31.561032
0.546455 23.420948 9.472851
34.515867 19.344671 16.722514
34.810124 41.761350 13.986949
21.668082 27.025136 11.492714
35.586452 25.922272 26.706759
2.997721 35.614551 14.201478
20.872996 5.676782 9.589828
0.546455 23.133641 11.824715
5.565708 36.607403 14.284250
30.795059 33.581126 30.788351
15.565859 42.615377 28.501308
12.414637 21.054397 16.095420
28.173491 17.387505 12.026985
35.532014 7.443461 31.747032
28.386456 19.190123 6.883043
23.221141 16.281236 22.335807
21.666456 31.108056 13.167921
1.203754 24.010096 7.671398
3.286763 22.754915 36.976722
32.591841 17.236913 3.398478
28.386456 35.696919 22.333828
7.746455 31.037022 34.124574
18.800550 24.183017 7.725800
20.947936 18.221174 1.459532
14.466455 21.962456 9.438353
2.335026 33.311285 37.710301
7.746455 38.318639 25.921875
35.586452 24.115566 16.140739
8.119935 27.688544 24.440746
0.546455 28.436225 25.355427
22.283285 18.960644 32.383324
21.234028 15.733860 34.818647
29.103559 27.248046 18.682432
12.128989 27.556389 19.202723
14.227740 11.912646 18.071777
0.546455 24.272253 34.390178
35.015119 17.391781 2.364792
30.556310 36.642956 21.161831
8.044850 26.160786 32.241211
20.707544 39.858878 26.286651
26.251841 18.081474 32.051977
21.666456 37.613739 18.933000
11.556701 19.433241 27.245662
28.386456 10.681106 12.315887
33.281901 7.143272 11.834798
15.933966 5.493300 7.433820
0.546455 14.491278 24.958386
0.750801 28.184218 22.699972
25.359621 11.403526 20.717813
21.141662 20.309211 41.704353
28.386456 30.275623 31.914162
14.515925 20.627315 4.224106
22.980422 28.454182 12.975279
18.955866 38.799862 25.726556
15.201990 33.646490 13.204709
19.036745 35.424025 29.774003
14.466455 11.266433 11.494385
35.586452 20.852306 9.514434
4.644978 41.666239 16.356320
16.399642 20.166156 41.946044
18.306403 36.840886 20.461159
25.428746 17.072839 18.934399
16.138077 16.729963 36.074656
6.417308 42.276101 30.016305
1.719427 7.970540 12.752635
35.586452 36.262811 26.679764
28.029913 20.575992 32.804031
33.389714 20.307536 41.707606
10.173464 26.738982 18.000772
35.586452 12.148518 17.928067
35.586452 31.000092 31.732527
26.664361 14.811031 29.966242
0.546455 20.273819 29.549199
1.905075 8.896604 27.207821
7.280359 32.515130 39.260898
21.044244 1.652399 22.701262
21.602139 18.923707 4.329851
15.142195 41.556714 14.320627
35.586452 28.837897 33.894540
21.164945 17.304649 41.061463
30.332744 8.785586 29.802949
8.935340 18.532141 17.268997
31.734591 1.741755 23.200624
10.452395 26.102917 11.750219
24.538814 14.077693 29.213060
2.953973 14.613225 9.797023
13.091418 19.173427 16.819963
0.738838 32.215502 10.089373
22.731937 27.755293 24.297602
5.037262 28.175174 21.123527
1.359419 16.290238 21.488169
2.330406 4.312787 19.986446
20.562492 18.347018 43.478611
35.586452 25.606264 35.153877
30.190781 32.339651 32.897260
30.692662 27.926924 23.865859
7.746455 19.425645 6.464574
7.746455 28.932245 31.793209
35.586452 19.690402 29.222880
18.548837 33.011567 12.482427
6.575814 6.120386 7.532758
21.186199 28.744218 6.422796
20.496153 33.655839 3.304627
0.546455 30.287043 35.838325
10.705720 31.230624 28.190178
31.078593 26.890738 18.172143
4.112006 7.418657 7.858218
21.666456 36.307641 21.015785
35.586452 16.449380 35.302057
35.168272 20.993458 3.719229
0.546455 13.880563 22.584289
35.586452 18.251263 7.259886
34.975296 6.399920 10.844926
6.395583 28.443719 6.736431
19.019647 41.085983 16.828377
13.866355 22.655373 27.927855
23.710140 24.623071 32.631661
35.586452 22.195607 13.746612
0.546455 36.557563 20.350559
20.234723 22.928350 7.086656
28.420668 19.383247 27.222350
35.586452 12.017718 22.542642
35.586452 8.868959 29.796583
30.872450 33.389898 12.944897
6.529114 6.918655 36.210144
35.139822 30.053915 4.820408
2.598299 16.952322 36.555383
21.693003 13.848710 14.334754
14.466455 20.016263 36.108330
28.714085 17.082886 6.974713
28.386456 9.430451 18.466030
28.386456 37.046405 27.418733
12.888183 30.501575 29.124163
7.746455 27.693983 8.296634
35.586452 32.209510 20.643110
7.277230 23.066411 27.891893
5.254748 15.672713 34.759745
28.386456 30.286948 8.510658
32.934056 38.689158 30.000732
21.712841 12.457196 16.344375
0.546455 28.228224 35.286456
19.279645 27.371335 7.490403
15.169384 8.401963 17.862408
20.978728 16.466235 20.449728
28.297161 33.399166 23.037834
32.848935 9.314209 8.653959
18.883450 39.299853 13.842463
10.237074 18.741969 32.315141
35.586452 26.454590 31.347322
28.386456 35.027428 24.946768
22.605194 31.014408 15.440468
18.313684 16.336483 20.959591
35.586452 10.700142 13.317716
19.031057 27.460708 24.929342
35.586452 11.240361 24.939127
0.546455 14.880608 17.486155
14.466455 25.042103 33.810951
26.697299 18.923469 11.553657
0.546455 9.306301 28.785958
34.654372 6.090345 36.114374
17.636351 26.555572 26.109515
2.980989 24.859608 27.341006
7.746455 11.361704 16.973134
3.803969 17.188434 39.570100
32.846053 21.125740 39.849094
35.586452 30.124303 19.898838
0.546455 32.409247 20.300376
21.666456 8.436257 19.497246
16.824422 38.629155 13.936465
24.579460 21.813681 11.056541
20.270518 32.233104 9.524772
14.466455 28.191682 36.157599
35.586452 20.520924 12.030492
15.976911 28.779240 37.547885
11.343761 17.636144 25.796959
35.586452 27.621640 15.078383
11.460196 11.397339 23.150697
7.746455 22.150153 8.786192
16.589481 39.739427 17.709896
13.508475 32.841630 19.315925
35.586452 29.988246 14.148399
22.659181 28.205542 21.470627
7.422592 41.084582 27.161436
9.332975 11.402742 23.201662
14.467083 31.912109 8.300259
7.464372 32.306198 5.475845
21.092094 25.290884 16.796854
14.466455 11.835922 14.568334
35.409176 9.817859 8.941753
16.988095 6.760895 32.573167
0.546455 32.824006 15.512274
5.309803 16.895270 36.392205
7.746455 35.110581 24.933993
21.666456 9.318466 30.117903
35.586452 32.704632 24.655667
22.498984 33.158396 21.327217
3.573018 39.131486 18.022986
0.546455 35.510028 24.368218
0.546455 15.605733 27.933636
0.701071 23.396901 36.533441
29.716442 22.663983 37.060045
35.586452 19.818312 35.650961
15.462348 26.768347 25.896739
2.547296 21.706498 5.664997
2.999079 37.444099 19.354626
0.546455 17.452143 29.103373
14.466455 36.390740 25.186604
16.577368 33.651358 3.095718
29.865702 24.022330 27.676203
15.447259 37.483082 19.311005
10.325386 11.945926 25.597959
0.546455 29.675558 21.239223
14.574719 24.545920 27.487281
18.838540 8.516439 30.397027
0.546455 13.353113 31.667359
28.386456 24.306586 33.904614
7.746455 31.946627 10.688167
16.819541 16.313553 22.705199
14.346870 11.193543 23.515437
14.466455 36.339147 20.715647
32.717047 13.352367 10.112934
15.625556 33.641066 39.887803
8.617815 26.887778 12.067267
0.546455 13.128854 18.938634
28.649096 6.953283 10.308928
5.811953 25.332856 36.000999
8.356250 17.224395 18.717954
3.158232 16.605744 19.929076
19.668470 38.848415 18.173801
7.746455 18.034940 32.680687
25.297142 29.033570 13.406214
6.890270 18.319691 17.439412
32.844988 5.297260 8.734286
35.586452 23.577700 35.474424
20.774193 32.382823 32.754136
2.007679 8.146073 8.118017
21.666456 12.116284 31.829743
30.696814 3.063451 20.261539
14.460548 16.810116 32.035393
12.607047 12.542793 16.937105
3.069597 30.855280 4.049141
16.712539 10.658695 9.477471
16.103002 18.444944 0.042694
2.051255 12.705755 33.801938
21.633943 8.642727 32.848951
18.993161 16.640749 35.903277
25.789117 16.717193 12.540005
1.645803 7.186229 36.134647
1.241641 30.466615 39.521030
21.579916 30.678943 5.942199
17.682372 40.983480 27.020577
35.586452 29.126151 27.872798
28.441134 32.599053 36.548773
9.413581 27.733773 19.583125
25.358128 12.946986 27.674282
0.546455 31.554824 22.585879
6.624403 33.168454 2.973486
4.720788 4.458072 23.966360
0.546455 17.239725 18.647731
14.466455 24.606969 10.002555
32.275817 29.692180 5.220309
21.666456 21.039209 36.703248
5.687256 41.150279 13.791144
0.546455 15.008372 20.091229
19.925234 18.291267 17.467837
28.386456 32.357546 31.947713
15.153052 12.944805 33.791501
34.741204 7.556451 25.072933
33.067966 43.229010 14.693208
0.546455 14.474017 15.031228
21.666456 27.019361 7.862822
9.638922 27.664753 31.450867
1.112548 5.850665 34.194539
35.586452 25.927682 13.353495
8.234731 20.098043 32.682282
7.746455 21.315500 36.957918
32.794276 33.233567 37.435946
4.529114 21.334101 4.765109
7.746455 31.858158 32.097253
22.918403 27.951687 31.284409
7.479262 7.410334 34.232630
14.141139 28.116576 20.768808
35.586452 31.668866 34.185605
6.580252 18.055644 43.578811
7.718501 9.238627 33.402379
29.330547 41.836136 30.076052
10.468107 27.405375 25.019756
17.279137 5.197355 19.870869
34.033470 9.045698 28.447140
5.568737 39.768539 17.692894
0.546455 27.624681 15.398689
35.586452 17.311437 12.731711
17.284089 16.117679 8.738504
33.251283 8.536744 26.283037
28.386456 35.563992 20.214059
35.586452 26.720338 28.788048
20.311937 5.149441 7.729693
33.067918 17.417054 41.695256
0.546455 21.097329 12.613694
5.196216 19.375866 16.707968
35.516108 39.391615 27.403287
13.906819 20.476721 32.746520
16.439956 11.297639 34.123109
18.567946 33.555595 38.963509
18.733383 27.953672 20.160842
0.546455 18.780114 14.793811
0.546455 17.001240 16.262279
7.930363 29.885422 30.020355
35.586452 18.927196 31.208697
35.120190 33.412189 38.155928
6.927428 42.267983 15.009849
24.670918 33.100579 20.781866
0.683555 20.217343 40.335373
23.071663 25.541114 16.972067
8.757321 25.661439 17.056319
2.908677 5.490267 24.100531
26.651981 30.453844 14.750938
14.387024 28.569720 31.228701
7.746455 30.131868 8.928574
6.406983 20.041360 42.155836
29.738812 38.113366 14.036057
21.666456 14.192103 32.554323
27.957678 25.430991 27.031918
17.851255 6.864700 11.495256
28.386456 18.658300 34.227007
35.499816 8.421726 33.661796
12.217095 31.927080 16.884311
26.196225 26.527582 11.919421
35.586452 28.359019 12.895553
30.570368 21.385401 39.009709
12.295878 28.226997 21.715865
28.386456 34.664533 27.248624
18.743622 32.962278 2.613351
27.776783 11.654151 19.322898
26.738278 32.605600 25.447890
7.746455 10.032880 25.886183
17.667524 42.631415 28.518972
35.586452 12.047874 11.267468
29.879109 7.436783 18.945768
0.546455 13.148457 26.816305
14.814470 6.743724 9.973474
14.445392 14.851327 13.335245
7.746455 35.163619 27.412868
7.746455 29.498630 10.854931
27.026298 16.380520 31.175056
4.559019 27.920713 23.889038
0.546455 28.777513 33.283171
23.903791 13.426346 15.512415
35.103292 7.576017 8.115696
31.088389 17.169834 37.375975
0.546455 12.510313 24.594794
14.466455 27.518776 8.397577
16.109734 38.914503 25.789172
21.666456 27.063733 32.715445
29.956102 39.503751 26.091576
8.028268 20.402335 11.111751
12.798644 18.476840 32.209505
35.586452 16.213718 27.646702
32.558101 17.619250 18.154043
30.244249 12.479232 10.115048
12.061871 27.802860 31.374258
0.546455 31.996908 17.467706
20.572888 27.625316 19.350538
16.357907 32.375606 35.118067
21.079508 31.560211 40.243646
28.454482 30.531597 37.909319
35.586452 17.799813 37.298996
28.428945 30.304101 6.262073
6.859674 17.408640 2.275955
14.466455 29.895854 9.062249
9.682147 23.162294 27.883505
5.781482 32.233126 34.402821
28.386456 32.166649 9.670496
21.085443 37.466098 29.743654
14.448118 22.831977 33.323686
1.157544 27.929082 20.069070
0.546455 8.843729 20.988419
35.586452 21.539622 36.785816
30.378234 5.788906 9.819477
26.464992 11.931329 25.557552
5.218189 2.127129 23.351882
21.666456 17.798408 34.735232
5.193332 37.126412 19.847683
35.006344 37.879305 14.091145
5.696159 17.203017 38.850294
16.803064 5.601365 34.493361
5.916890 5.019376 35.973174
28.870395 41.154059 27.150249
12.884533 16.888592 12.444929
7.746455 21.261164 34.675112
35.586452 28.457904 30.398058
32.565424 5.532463 36.487011
14.672050 20.468013 40.854568
0.546455 36.342327 26.460414
32.094699 7.560522 7.907762
4.008365 18.093616 0.106348
35.458499 29.996120 38.739215
7.764316 29.044125 12.825444
6.622391 0.339118 21.950302
19.294093 5.698375 34.292288
30.912711 17.507254 42.093529
0.546455 26.295724 33.415805
21.935841 11.691944 18.793957
2.983304 5.429216 34.870307
33.501895 33.354661 6.025010
14.925972 2.189659 20.832433
14.466455 10.213016 16.927496
35.586452 30.346470 29.516854
28.984254 27.446350 24.960133
14.466455 10.214330 25.603847
28.773480 33.216858 38.422977
7.746455 11.003795 29.751143
33.203959 25.261273 36.007711
6.641046 18.313535 0.449641
5.422518 42.105772 27.974164
12.740694 31.702380 27.421571
0.618366 32.153605 36.995863
28.033159 33.183757 21.048660
5.437646 33.396273 5.841241
35.586452 23.772097 12.286877
1.049571 32.516596 39.397419
28.386456 31.910763 29.567475
34.027547 17.992398 43.607759
16.680138 33.209215 37.352424
9.315432 23.822321 11.149342
7.746455 18.865030 35.034509
29.100363 6.871635 36.110299
5.375188 5.770503 34.142783
15.635526 18.568753 43.672845
26.639693 22.172267 11.037099
4.978157 43.175526 14.410056
18.194813 5.157771 36.207255
8.142495 31.362313 28.056200
8.354614 13.109516 15.982466
12.175099 27.956083 23.757037
35.586452 26.437200 8.015990
7.747390 23.099057 33.437122
28.700360 28.280400 6.878760
35.586452 24.094762 27.782838
1.117827 17.832704 1.987188
28.386456 11.007427 32.015138
21.666456 20.051478 34.158356
1.300237 5.686573 9.038311
28.386456 31.205874 11.460058
18.003641 5.764364 9.771360
8.991030 32.549329 18.323217
28.386456 12.592560 11.447790
2.882351 17.224414 5.454089
16.306201 33.212798 6.562162
6.550498 17.386593 41.534750
19.328873 19.583711 1.079708
28.271446 32.144607 27.163180
30.776255 33.184596 6.658888
31.737733 38.037478 25.191965
19.223496 16.767949 7.779251
16.099478 17.462078 2.011292
21.666456 24.991808 33.280161
3.162067 28.232005 22.153777
17.703971 37.983923 18.778169
12.777356 11.372043 21.014776
18.253672 5.023584 7.881869
23.668900 32.633989 25.369300
24.521501 11.795029 18.778749
5.030850 29.760002 5.140190
28.377939 17.624015 32.410020
7.243028 26.864635 36.226589
0.546455 26.962493 13.321319
9.242495 24.289632 32.696749
4.611428 17.715189 42.832726
21.592421 23.071020 16.035386
7.746455 24.184431 9.447916
7.746455 34.494743 18.479372
30.507991 8.894427 27.199894
0.546455 12.551822 20.908387
17.520036 33.561099 4.929582
0.546455 30.479159 11.352620
3.374521 22.936232 7.091817
13.036843 12.136144 26.101202
31.826293 18.754367 43.862079
15.234854 1.209343 22.829875
