29.926155 26.971432 36.270826
14.545947 19.121107 39.751828
7.746455 32.928480 31.524024
31.112377 21.326810 27.882786
21.630489 32.297193 33.060118
19.492262 25.927519 17.242630
34.617617 39.114374 25.895263
0.546455 19.365857 14.708715
14.844301 7.050253 32.203914
14.216544 23.568984 27.797677
21.666456 9.672214 14.566725
1.090476 2.629816 20.396117
25.739522 21.337025 16.043196
30.290958 7.414480 18.962881
2.988054 33.364543 37.945508
16.647660 32.976924 7.284756
5.964692 8.394775 26.053782
21.619895 38.433155 14.616688
13.912039 25.848677 32.282242
6.112927 26.517614 17.779404
35.586452 14.606988 22.703763
31.543696 30.625620 4.258822
31.932938 8.648651 13.781316
7.746455 16.204253 35.256663
14.466455 11.832256 30.073760
16.715301 7.159603 11.854437
15.467332 10.928724 34.284855
19.364121 16.685770 19.749905
10.807003 32.520983 18.244749
33.547010 3.522203 23.780899
35.057849 41.710174 16.318470
18.874351 7.342956 19.017764
7.759445 15.338533 31.044942
33.150802 17.062159 18.949651
14.466455 35.935777 14.365704
31.117302 6.810529 11.421390
3.776238 7.402116 24.954507
11.268642 23.401316 11.095452
7.637048 29.610146 38.609676
30.789617 28.170520 22.856545
21.666456 31.705244 9.951886
7.644248 18.564090 39.805624
11.278998 28.830978 30.689292
21.673163 33.203839 18.658435
0.546455 35.143945 25.250995
6.939140 31.734851 40.560552
0.610186 22.222055 37.503080
22.170607 24.584067 27.469493
7.746455 16.933537 32.344548
0.546455 37.062179 26.327580
14.501449 21.264699 39.390421
21.288353 30.638599 39.680057
20.868962 17.227722 38.359807
16.970427 0.000981 21.825646
32.784962 10.036110 34.849227
7.567167 40.039808 15.932753
0.572957 4.969094 21.340782
17.552015 21.645375 38.372474
34.966111 23.827119 27.728510
14.466455 34.647586 23.228872
28.386456 9.446767 28.289091
28.882395 31.601715 4.043948
7.786129 31.121516 14.961212
11.725881 25.374608 32.427376
14.466455 17.450407 8.509790
30.098848 7.447591 24.989402
0.546455 8.994589 14.841680
0.546455 22.342752 13.204499
25.347879 12.962991 16.225993
7.746455 22.165922 34.572042
21.222667 21.427433 27.891590
3.680375 27.071163 25.497059
28.548594 20.205490 3.407514
0.546455 12.467581 19.016743
28.386456 32.006654 28.298762
14.550910 32.618187 35.762843
35.586452 32.564075 19.579738
14.807519 17.326819 40.952760
17.751806 10.159397 9.158485
29.827292 19.807233 27.420058
5.787657 17.403535 18.462116
1.057837 2.017764 23.273956
31.606285 21.708673 38.257944
2.720465 33.649033 2.987718
31.844993 20.955703 40.309934
7.545370 8.238012 30.854792
32.154700 28.181824 21.199531
21.183597 13.036196 10.139366
19.581537 34.629804 13.854294
4.024789 17.194469 37.532782
14.534583 31.414267 6.503829
0.546455 18.938923 37.986667
2.622162 6.101115 33.549962
25.789915 13.610658 28.648912
30.855359 16.906940 19.275603
14.466455 13.100397 12.222106
35.586452 26.504679 14.568483
30.930922 16.161275 8.696509
29.110338 16.805146 24.432973
35.586452 19.563385 8.263910
21.566384 17.299007 4.380343
7.746455 36.341169 24.677180
28.386456 34.720068 15.869405
6.154927 21.115029 16.079174
14.093034 23.936330 11.133271
2.624565 7.897967 31.256685
0.546455 7.083849 19.848410
35.586452 31.908067 14.929860
14.466455 12.549811 32.407982
28.386456 29.174919 10.195314
30.435100 38.375247 18.462087
35.586452 6.359324 21.009456
16.008182 38.128060 18.661746
35.586452 37.629033 17.708240
35.586452 11.627950 11.830630
17.383965 8.064431 31.067582
14.474735 38.567715 17.398254
28.386456 37.211444 16.233275
23.431987 25.953736 32.236096
7.746455 10.944284 14.515233
2.357596 37.357361 19.485167
19.657828 38.174987 18.623842
0.546455 28.417027 14.701708
2.210279 33.655889 40.620870
12.430942 16.849750 12.466476
30.599373 9.091094 35.383214
34.961023 17.013724 7.184894
26.190252 21.691065 32.863689
4.155598 20.591420 27.707402
0.546455 8.878763 30.001697
16.959638 2.215528 20.541510
21.666456 13.498035 12.215106
6.318460 0.002090 21.669892
7.952792 33.305290 22.618081
35.586452 26.917143 28.824488
15.422664 19.404119 27.232083
0.546455 28.851171 36.802452
27.889043 16.529539 20.213478
30.362246 23.258740 7.302975
14.466455 25.560390 9.973721
0.556902 32.061455 8.010735
33.175813 33.605688 4.503608
34.596225 16.376915 23.143800
14.466455 11.835425 14.032605
4.276799 35.220248 14.088623
33.457467 25.860538 36.022031
19.075675 0.099652 21.587600
7.746455 11.841033 16.969669
2.513666 8.576434 26.369558
20.000482 17.901958 17.857146
21.666456 35.283274 22.316842
2.321356 24.789079 7.874886
21.819947 20.219680 11.032325
19.380875 32.331372 32.924706
34.940092 7.588773 18.829142
30.542126 26.153601 26.511486
27.853730 20.575531 27.703144
17.405876 28.461961 37.206343
21.178308 27.961005 23.738666
24.609957 33.043216 23.681728
11.366226 18.474241 17.309539
2.747555 36.598455 21.487645
3.945800 28.158479 22.994176
0.810845 23.535707 16.120283
12.561224 14.998229 30.125249
6.027810 34.113736 13.560423
0.546455 18.184568 7.083671
6.139104 23.473460 16.103604
5.218472 5.075741 7.818805
29.179469 32.230948 9.593914
19.014221 29.840030 5.045678
19.350464 26.478898 7.802843
18.268474 28.001428 23.587808
12.763551 16.815769 19.471122
21.651613 28.624337 37.360754
31.690862 17.423566 2.197338
21.921535 21.350805 16.041990
3.787797 23.765181 16.181770
35.562198 31.335876 36.615183
13.747845 21.425116 27.891387
28.386456 21.639608 37.062948
35.586452 20.539208 36.517003
21.691202 16.316627 21.186541
0.546455 35.751701 22.938676
21.666456 15.264878 32.648663
3.248797 22.710437 6.909396
21.621884 20.647557 4.360843
21.565984 4.076564 20.053651
5.126070 36.565210 22.029881
21.660106 6.182271 19.640214
27.784794 14.589040 29.760001
35.300102 30.017790 39.068727
7.560768 7.297794 10.511752
28.386456 37.616755 18.746304
7.746455 16.001694 10.311437
27.688911 28.161835 22.955815
15.361926 22.856495 7.039610
3.057222 17.188444 39.572288
6.292126 26.077084 26.579519
5.715060 32.401293 32.692907
21.601739 27.262791 7.535364
0.546455 30.550049 31.721624
7.681701 24.225385 27.621794
32.032972 14.772963 9.721320
29.453720 1.989758 20.627032
5.621630 21.767505 5.775381
28.386456 18.999071 36.107861
35.586452 27.907779 30.686823
1.564267 26.935770 25.690421
7.746455 14.661356 11.836943
21.671033 11.182829 25.006701
0.546455 21.255529 27.932127
15.777755 21.753562 27.920123
35.586452 31.146215 21.075162
31.085308 20.557020 16.228692
10.414556 33.112153 20.891040
34.610812 17.493683 1.886788
35.586452 25.194303 35.366612
0.546455 10.158190 27.643235
35.359287 33.667921 13.226409
21.689159 15.810438 12.605036
28.386456 12.634054 13.191918
0.546455 14.833732 26.580692
1.784470 10.285780 34.685558
24.732335 27.064879 18.420842
32.829316 24.019423 16.249894
7.620705 19.808959 16.506014
19.375932 28.963467 37.778307
34.204764 16.921140 36.460623
28.386456 21.647863 34.646658
14.467513 32.387860 8.615187
8.839213 21.509795 27.898796
31.870881 43.247985 14.669580
21.272965 25.068989 7.901134
14.466455 30.819681 12.749636
14.466455 34.805070 20.741634
32.714521 38.979519 13.877571
2.463312 25.436369 16.898723
7.465930 7.370726 24.930421
35.544306 7.759916 31.972538
5.299142 39.922270 30.135388
29.876641 32.837897 7.652419
3.278690 32.739193 7.882302
5.879080 38.505575 25.559610
17.548503 17.842325 17.916779
4.935235 20.008558 1.715908
14.466455 34.857485 25.501451
0.546455 25.933866 28.190262
28.386456 35.182773 19.532332
19.482165 2.679770 20.380614
7.746455 9.705220 25.822926
24.098670 30.818603 28.735480
35.586452 36.324437 21.259808
0.546455 17.261292 25.582531
3.323359 33.416747 5.750819
28.386456 19.218141 33.687215
19.247282 8.888833 29.504416
6.287194 17.190435 39.072308
8.635900 27.180207 12.209349
0.546455 14.551549 18.420529
25.858818 20.790330 27.760700
33.256291 32.225638 9.764256
28.386456 9.235440 14.890043
28.155474 13.623588 15.061926
15.561350 5.190838 35.636149
8.289459 14.710455 14.041747
35.168167 40.492872 13.978582
7.390728 40.165597 13.819068
35.586452 31.889810 11.024866
5.746202 16.863332 7.596022
11.848910 22.730829 27.921253
14.495529 38.919176 26.787978
0.546455 5.755559 23.456290
21.666456 21.737780 6.380308
0.546455 24.515892 13.756088
4.528423 0.971429 21.090035
25.392459 12.040097 25.858643
12.620040 16.891384 24.617912
8.113703 32.031479 16.998420
19.685458 9.469791 8.742872
2.132955 43.257454 14.640235
17.976955 8.305465 8.184882
13.365628 19.363059 16.713940
16.084041 12.815224 33.797159
7.600443 22.725387 37.003779
17.367275 32.260777 9.380021
11.390362 14.874165 13.907008
7.746455 36.211719 17.485548
4.964651 30.309467 39.373465
10.410905 16.469456 12.692917
2.438660 27.042688 18.389150
5.091714 37.547249 29.759954
7.746455 18.491733 6.480635
0.546455 13.412070 13.764176
33.640532 39.589315 30.116138
30.136240 10.878666 34.315359
33.413260 22.092444 15.977105
21.666456 33.799371 13.788246
13.168886 19.263209 27.166375
28.386456 13.594779 31.827343
33.267980 27.082225 25.481262
0.546455 33.576091 22.093453
28.386456 36.419138 21.412058
31.002337 26.447933 7.810114
17.734988 37.054339 19.963477
4.382857 17.396351 2.340700
5.342762 32.624045 11.818892
21.666456 24.932739 10.333848
31.457449 38.541489 29.975373
28.386456 11.773928 10.775466
12.589058 17.527763 31.819878
33.014441 37.033360 14.266212
28.690973 2.854109 22.754835
18.645060 41.012596 27.042710
3.846148 11.410465 34.079638
31.445215 33.294952 6.280393
7.746455 32.711325 29.288110
29.655458 39.418218 30.097386
21.587052 21.836943 38.025856
14.466455 34.178035 30.281431
34.019903 18.749603 43.867515
35.586452 32.997028 28.392746
14.617149 8.931282 34.956198
0.546455 7.962976 22.268220
28.386456 8.710978 24.974316
0.546455 23.607791 7.665182
28.386456 31.577658 30.333577
14.466455 36.623019 16.621763
5.887495 11.437093 9.857497
17.644340 33.532279 5.106492
35.586452 14.201082 30.661517
26.180963 17.363683 18.519030
28.482896 9.028910 34.446690
1.245560 22.116848 6.290169
32.286341 23.882504 36.312094
4.311891 38.244505 18.567691
0.546455 19.450272 35.923218
8.359511 26.666136 25.998951
7.616321 3.822898 23.793705
15.925068 7.880205 25.390994
25.777144 26.842123 25.822963
21.666456 26.697938 33.330741
25.033645 30.962153 15.373997
0.546455 28.444770 22.701803
17.195632 26.710245 36.178355
30.389312 7.118532 36.153753
28.511842 3.882489 20.975853
20.215232 21.139489 39.806190
0.546455 21.883284 30.553060
10.784321 32.332626 26.164241
3.597606 17.057366 7.052268
26.528454 29.047408 13.417968
19.646262 3.935655 23.872215
7.738331 12.581750 10.119524
5.543577 16.630940 24.059387
25.376086 28.171980 21.087016
2.836343 28.373359 37.129128
35.586452 29.073219 11.557724
5.425350 10.072034 34.825648
21.878596 20.332205 32.853655
7.733681 37.776960 18.982156
24.980993 25.583710 17.001893
15.426122 21.739015 16.008026
15.060048 38.550137 13.950039
3.068467 1.753716 23.206004
12.128221 25.499684 11.533498
0.546455 14.049866 10.892606
3.060300 17.234475 18.703558
0.546455 32.057459 33.632894
4.007964 21.196725 16.057283
28.386456 33.563208 17.707991
0.546455 10.107061 33.085533
7.738040 8.127169 12.366617
28.492364 36.881598 23.560639
23.525581 13.363015 28.327392
21.666456 22.192529 33.969795
5.068576 16.127230 35.197573
14.865501 16.359552 20.847874
16.775417 33.366264 31.005909
35.586452 9.079349 15.043275
25.445749 17.179785 25.145212
19.731890 7.249485 7.810072
7.746455 27.051343 9.121421
35.586452 19.582964 30.663527
28.594672 32.354849 32.846875
9.311037 28.212021 22.382195
33.648958 36.673973 22.890114
0.799186 17.357317 40.553006
12.490355 28.171124 21.077239
31.363391 16.975520 36.625882
14.466455 9.115100 24.586881
14.466455 19.968558 36.961054
33.043017 41.520209 16.482139
21.666456 8.747570 18.237962
7.681556 16.336594 22.968559
35.586452 19.931823 10.356917
32.514686 23.168920 7.244167
0.546455 15.631057 9.222180
4.854792 24.010387 7.671527
21.210208 20.330205 2.263302
7.746455 28.509179 36.777205
2.396352 14.090884 9.975166
35.586452 22.417374 34.385929
0.578898 18.882056 4.868050
21.478867 26.297823 36.081514
21.666456 8.752178 20.259723
16.896446 38.496920 29.967707
16.466824 26.576468 17.838257
3.375652 41.336648 30.121905
5.369909 7.005614 32.257608
35.586452 17.532062 30.652986
28.532979 17.256375 39.909867
28.386456 28.681543 32.916603
21.888992 30.945057 28.780873
19.691919 20.895200 16.138077
33.404856 33.379531 38.011698
35.586452 26.393133 10.042215
16.101023 1.599509 23.136563
17.318225 15.793070 9.051195
6.541433 42.024184 16.032181
34.971229 22.807966 6.998765
22.643125 25.905077 17.226917
8.762118 32.136489 26.597385
33.598793 41.738536 13.837564
31.061989 12.430984 10.112942
35.586452 25.608698 16.734326
7.746455 8.096417 22.865894
35.384912 28.308197 37.072340
31.058371 3.101205 23.677055
28.422219 20.036109 39.320697
33.537243 12.475808 33.811978
15.260322 23.950130 16.231327
17.036461 28.227121 21.717274
18.519827 24.898177 36.041761
0.546455 17.150507 36.579146
35.586452 9.092410 29.167410
21.666456 18.431442 9.565434
28.386456 10.827988 30.377644
17.564581 18.672281 0.004275
5.238890 33.646971 41.035275
21.666456 7.272301 21.675610
21.666456 11.913257 13.646740
17.289367 36.541566 29.641395
23.541795 27.871125 19.877676
21.709639 28.457306 12.528182
21.225563 26.707398 25.957688
3.689290 26.988400 7.649020
35.586452 8.753168 13.050541
4.219327 28.835461 6.308674
2.078347 28.032610 20.455441
10.110193 33.067926 23.453006
20.669969 8.833010 26.976268
35.586452 13.693277 14.034393
32.744149 7.577936 31.604037
19.465487 36.687732 20.981284
35.586452 21.190688 29.378428
16.002610 32.384393 11.177944
0.546455 30.263316 21.000226
7.692230 4.417845 20.667470
28.513433 9.022795 9.136635
0.546455 11.309238 13.744087
28.517341 7.169943 32.641655
21.417184 30.379540 4.556862
23.989430 23.240463 27.876666
0.546455 15.262512 34.165790
6.050969 16.385246 20.751986
0.546455 17.377610 33.474177
32.815220 36.942707 29.649993
21.666456 28.154088 34.802554
28.386456 16.673451 8.218672
30.185971 30.272655 39.335004
0.546455 31.648696 23.266843
28.488806 7.780998 10.887034
2.801651 36.699864 29.644356
16.998492 16.963141 7.338611
7.746455 28.553033 34.374812
35.126127 16.336645 20.957742
2.987097 11.249216 9.785109
30.112344 43.204490 29.435445
24.114508 17.532115 12.104884
1.417325 26.587791 7.777274
7.746455 10.299417 23.827606
26.506704 16.448322 23.410295
35.586452 18.372378 36.710926
5.754629 32.392991 35.175961
0.546455 12.060146 33.730676
14.466455 9.078095 16.644090
3.798392 37.172007 14.242292
26.472558 19.507966 32.532098
14.662731 33.294531 12.848334
21.721439 16.428531 23.336432
17.371709 6.034868 10.258632
11.308648 23.874413 16.211039
0.546455 9.775443 23.907641
35.586452 28.454477 21.047126
1.065594 7.646580 25.142332
31.594584 29.230242 5.794646
14.466455 14.771184 33.644232
26.591376 32.791603 24.838228
21.108793 7.130261 32.107723
33.515427 7.820863 12.582602
35.586452 13.941241 20.757920
32.286066 39.072262 18.052843
6.349228 14.452827 9.870892
7.578111 32.374093 37.692458
0.546455 23.231950 28.887446
25.229436 23.474368 16.103847
7.746455 31.712198 10.953620
32.693292 7.989278 18.419789
0.546455 17.027183 18.487112
7.601041 32.217555 33.665044
29.397039 33.637003 4.141733
18.858551 27.062133 25.509955
26.550039 23.002644 11.073837
11.298648 18.761959 11.604000
15.694059 36.652232 21.124428
7.632314 9.240743 9.003247
18.392510 19.381570 16.705308
19.950660 39.391542 13.832413
21.626467 4.667535 22.501947
17.486774 6.411274 7.596016
0.546455 9.449444 11.485880
3.991994 31.910634 40.687126
30.624462 41.058516 13.784330
33.809080 32.597131 11.763885
28.386456 10.098019 19.291105
21.213169 19.190955 27.119186
35.586452 21.690365 31.586565
1.336112 9.832496 8.950152
16.436918 34.217488 13.636001
2.833498 38.972440 30.048528
0.546455 32.823298 25.747177
2.488857 5.427508 7.423673
1.165247 21.559962 16.023691
31.163189 1.159998 22.935984
21.521415 5.834914 24.167542
29.796384 14.590555 9.807767
4.098866 16.286063 22.390988
14.466455 22.324703 37.198450
21.666456 30.278805 35.380431
22.030401 18.071678 11.824450
0.546455 31.444792 13.527604
20.222260 32.440369 11.363513
5.559482 1.906989 23.268490
0.691450 19.567852 40.301296
34.310527 5.321346 7.525840
7.746455 24.047274 33.599181
1.028993 7.243588 35.437257
28.386456 10.525087 12.594515
35.586452 37.526730 24.907528
2.239868 28.277241 6.881513
18.270939 20.299058 41.722637
35.413256 17.369297 3.823558
21.407598 7.491923 34.277788
17.439687 23.145250 36.698206
16.639983 4.311067 19.986740
28.386456 29.720603 7.860185
7.705792 38.091822 29.566160
14.466455 27.479080 10.928053
28.617110 20.773705 16.170631
15.070318 7.960817 12.741589
18.669081 21.351063 4.815387
30.442990 35.545966 29.735555
22.105004 19.395747 16.698697
31.072694 41.838729 27.719170
17.466545 15.033162 34.328870
1.092065 38.918961 18.135269
29.890555 27.518236 24.805973
0.546455 12.837621 27.073157
9.544155 27.909486 19.995939
6.286657 33.659052 3.454240
6.416685 24.236251 36.187167
33.202569 33.773855 13.312836
14.466455 10.735318 11.386973
21.618459 31.067829 37.394981
0.546455 35.880559 20.152319
29.680041 20.712393 40.889890
34.203185 15.429005 34.589377
0.546455 22.959295 32.582222
14.466455 17.617869 11.278334
8.570852 17.277279 12.229323
0.546455 20.715192 11.981159
0.635197 8.846558 16.901279
20.035050 6.110446 33.533302
27.112251 30.533354 29.089692
8.147251 32.815768 19.037833
0.546455 28.063811 29.989495
31.177027 33.313808 37.721437
35.586452 14.482719 18.088120
28.510887 23.657756 36.411823
35.586452 29.901628 34.940197
24.090144 16.438473 23.373538
21.666456 23.047183 9.487537
21.666456 33.825697 23.690022
2.872410 0.000138 21.982841
16.613338 5.735515 24.142760
23.394893 28.222870 22.258184
21.618219 19.702262 39.552070
20.996045 17.358304 25.400164
21.624841 39.144065 16.922465
0.546455 11.278860 31.436849
21.541304 8.884786 9.325201
1.037738 34.205989 13.627624
7.746455 36.038545 22.425576
14.505834 4.664929 20.318783
5.647136 21.409854 38.937229
30.425473 40.133818 17.479854
35.586452 24.430766 31.106430
0.546455 15.507221 13.009597
8.836277 13.218713 15.805040
30.099804 17.220040 3.637782
7.746455 33.947144 25.446010
14.466455 26.791291 8.267356
28.366805 10.878380 21.488404
11.178788 16.325540 22.842204
4.449034 5.029954 36.052709
18.577929 11.821018 9.989145
14.466455 26.788644 36.071573
35.138889 10.248007 34.710333
16.779869 39.976125 17.571826
7.620852 9.997966 34.874192
1.251102 19.048911 27.019726
0.546455 19.363379 10.490416
30.662511 22.912861 16.021549
10.115439 11.411675 20.640953
7.696633 24.617936 7.839435
17.777823 8.898551 27.214909
17.679336 2.773607 23.575384
11.479248 28.170681 22.854706
24.068501 21.028215 32.824686
16.974477 39.999396 26.368628
32.655312 0.000669 22.057335
0.575231 38.643079 27.621510
3.023524 9.052067 28.333727
35.586452 7.889270 23.518339
14.466455 24.554015 34.135263
0.546455 16.842343 31.546666
28.651122 32.914467 5.943570
4.257946 5.086159 19.886074
14.466455 9.234214 22.412291
18.038050 7.852595 25.361607
35.586452 30.805539 12.962262
0.546455 15.949829 20.528797
7.096718 8.834004 14.245067
33.537732 28.045037 23.425058
35.586452 19.266764 5.775570
21.277162 2.490567 22.936820
14.466455 36.751607 26.562830
14.466455 28.837228 36.693870
21.666456 30.356025 11.665366
7.746455 10.225600 32.318200
34.004140 32.593736 2.815705
18.448254 16.924817 36.471797
14.466455 22.626121 34.924598
7.746455 30.688055 32.300916
9.962281 25.950440 17.258680
7.172935 20.248510 27.615519
6.181327 5.459572 24.095865
29.036367 41.505337 29.524817
0.546455 30.627465 15.459379
28.386456 30.555979 34.195346
35.563363 34.527468 30.124244
32.610156 25.087186 7.902840
0.546455 36.860759 15.745438
23.925375 28.960549 13.344190
21.395067 23.372012 16.076421
6.420535 31.082983 3.863080
20.841407 41.337270 13.805020
34.909017 21.427335 5.041462
28.263986 11.201345 23.549123
21.666456 9.920062 22.466553
28.205468 29.310487 30.513035
32.958702 21.224394 4.402653
14.466455 11.690698 16.430686
8.247381 28.314781 31.047618
1.395446 3.995600 23.883068
15.107887 1.593746 21.131154
11.089394 12.421959 26.732392
0.546455 26.483367 12.710194
15.155974 41.158327 13.791738
35.586452 9.739555 31.236456
28.920540 7.080455 8.417483
26.113147 17.603090 31.856477
4.198447 20.920356 40.405743
4.192260 35.259214 29.825967
14.466455 10.209280 26.454555
35.586452 21.087631 12.056615
17.256737 9.829852 34.978246
2.322460 23.252086 27.875649
23.406322 17.530122 25.645545
17.742198 22.169184 15.970391
16.755299 27.155499 7.579806
5.568644 22.518684 37.193187
35.292335 8.428222 35.586342
11.530189 21.699453 16.011488
34.947903 8.296705 25.907995
7.746455 17.043403 8.536080
4.638735 5.818490 34.054577
2.944354 3.504925 20.150204
14.466455 20.236516 34.269196
20.902757 1.224066 21.049396
15.830927 33.099830 41.386465
32.259333 42.369821 30.003551
5.092203 28.526602 37.262675
7.746455 31.041744 35.805284
35.586452 24.158937 14.863273
25.451766 14.173543 14.609845
2.832093 30.400770 4.466732
28.386456 19.822035 8.924902
35.586452 30.283056 25.851748
13.872832 30.375977 14.665651
19.548887 22.275525 37.435167
21.666456 16.043597 35.036319
7.746455 18.768324 35.013350
21.666456 19.221247 5.999789
20.684671 19.159167 0.580938
30.884731 33.618830 13.176702
35.586452 17.803427 10.060357
29.116839 32.045389 40.469769
28.386456 28.308207 35.468724
35.586452 5.758739 23.964650
20.287993 38.347722 25.442557
35.586452 28.380942 9.043125
4.148162 26.412838 36.108521
35.586452 21.821989 15.880977
13.289307 31.734628 16.558901
29.398835 0.595143 22.093500
17.212140 21.957602 6.087908
5.612551 6.520583 19.516485
4.638905 41.335601 16.638619
13.938991 32.501361 25.751256
14.912144 36.664751 29.643699
7.364747 2.496633 21.811077
14.466455 23.344459 8.888515
35.583900 20.989221 38.744857
0.546455 11.900175 29.325719
26.240773 31.870111 27.142801
35.320916 7.012333 11.677347
17.136893 18.329138 43.863788
22.765832 26.218901 11.796431
26.694378 19.480745 16.659062
35.586452 14.411291 11.983703
18.076227 33.646704 2.879268
7.746455 32.376386 13.090276
32.246613 16.938180 24.718266
28.386456 16.321094 35.422705
28.386456 11.392884 15.017624
21.065789 23.878469 36.313885
17.791103 40.331381 13.772190
35.562759 18.895791 38.863754
21.666456 33.629227 30.734265
2.930586 16.728369 24.268325
0.546455 11.407770 9.911146
4.202755 33.529303 30.840825
25.674065 11.899798 18.456610
35.586452 32.334545 17.012594
32.946915 32.786784 36.155378
8.695842 22.172837 15.970071
35.527494 38.555987 29.386896
6.033670 3.091317 20.252889
28.386456 19.833684 6.897929
25.548322 11.425994 20.505891
28.559981 32.363111 35.069838
33.873370 17.223553 5.438909
21.484134 32.583447 35.676138
14.466455 9.315870 32.031345
11.437900 19.172079 32.440797
14.466455 15.663658 12.299438
2.673475 25.697254 26.845479
17.296101 42.052183 16.004905
2.793894 17.449248 41.864838
24.973112 24.294325 11.231014
25.909269 26.160891 32.153558
28.297171 28.302459 12.534770
14.569141 21.260301 4.521890
29.397606 19.792469 1.386382
18.454929 27.484271 19.048064
7.267156 20.142518 41.985786
16.991641 33.637048 39.786281
34.894169 15.546054 9.256624
30.015603 8.767233 26.785477
7.746455 9.463559 20.194049
26.134919 15.443200 30.503212
14.553998 38.810617 29.337992
3.260607 15.194410 34.427281
10.506854 15.270523 30.356539
28.506954 17.171907 37.389166
28.386456 8.346271 12.933432
27.423594 12.551435 16.920478
16.422728 25.366175 27.077303
28.386456 10.828859 17.387798
21.286550 36.181595 14.283335
18.855292 7.084239 32.163064
15.237803 33.621161 4.350121
8.098094 16.532571 20.202160
22.227893 17.560472 18.237986
29.131708 18.193116 26.360888
18.293296 33.092182 41.384851
13.558982 13.773425 28.855957
16.793174 27.244568 25.249411
0.547364 37.126241 29.673421
12.786835 23.673575 32.797390
28.897655 36.910656 29.648298
3.069998 32.388921 35.162407
9.996969 29.117081 13.477150
35.284353 19.195878 41.123908
1.057152 41.137708 14.638347
32.152367 17.188602 4.318727
32.170700 6.372855 19.574857
21.668061 14.242208 30.226645
17.886077 36.592905 22.370895
21.867667 14.351981 14.206032
33.755789 22.129710 37.620369
4.918534 3.758361 23.838666
24.289049 32.825535 19.242803
30.346362 4.292237 19.990137
1.446867 8.121083 12.923651
15.298638 12.185190 10.065130
35.456618 32.231886 34.363048
19.185762 30.949414 39.954652
16.347506 9.023069 28.850082
33.765936 30.013005 4.863150
26.983646 27.198866 18.612195
14.466455 17.448458 6.114522
35.133774 32.180832 39.395427
10.842543 27.164353 12.201646
0.546455 30.553224 18.755010
35.586452 35.844643 23.396158
19.121706 6.359494 24.347437
23.356502 28.497218 30.923094
9.211034 16.824403 24.474269
5.629614 38.364870 13.981833
21.666456 17.990894 34.397331
27.315681 23.823057 27.729598
0.546455 34.116477 27.349977
10.051751 12.426341 17.184808
7.746455 32.064714 8.602311
26.470468 32.715588 18.822924
25.948584 16.306747 21.299468
5.728447 32.293502 9.212781
14.466455 36.827099 19.552648
20.907429 7.088569 11.769039
7.746455 34.447665 20.722010
7.746455 22.143300 9.433288
2.520058 12.880586 33.794305
32.060675 33.629138 39.655885
21.666456 24.709158 34.489920
14.415135 12.446960 27.544999
9.951828 19.802438 27.417822
28.386456 27.594809 8.172037
16.370395 43.149358 14.337291
14.466455 29.034262 32.141555
20.844349 27.731195 19.577596
35.586452 36.123915 14.532418
29.050896 18.639545 17.193791
35.586452 17.215248 14.052373
21.222324 18.184893 2.361846
27.132399 25.735384 26.818780
14.466455 28.595983 6.867629
33.671705 37.643470 19.131532
25.470484 28.082067 23.286857
21.666456 29.793957 9.115409
7.713429 27.972909 23.694243
2.739580 32.220643 9.924456
35.586452 33.589789 22.381918
3.284459 5.275550 24.067893
14.758793 40.892100 16.645718
16.039801 32.222494 34.061793
18.098438 12.398818 33.817172
35.586452 28.079120 24.131164
14.466455 28.841889 34.458081
31.198751 6.635564 32.744069
4.895616 8.298384 30.758910
35.586452 17.012611 34.312510
0.546455 32.874344 15.656816
21.666456 21.053195 35.862182
2.986313 17.803298 25.971070
6.402221 17.023630 36.772087
34.206407 39.955409 17.583922
35.586452 10.440616 16.693687
7.746455 6.959678 20.436986
18.871846 14.456141 9.869937
29.662632 32.626143 11.823179
0.552172 30.024315 7.035829
28.386456 10.649249 25.496957
14.759310 17.199463 3.952112
35.586452 10.963771 18.882251
10.714564 13.738625 28.811691
35.586452 19.082139 12.611651
24.840095 26.399860 11.868532
29.101303 33.463262 38.396718
7.413769 40.188975 29.704342
35.586452 26.666061 12.513995
5.011467 18.251863 0.077282
34.896182 23.405264 36.527965
35.236962 6.634685 33.824849
19.877556 28.618754 6.572049
5.191776 20.106297 42.046676
7.752065 30.580403 29.816767
28.386456 36.998890 25.932721
21.666456 12.036909 30.555712
21.666456 34.570208 28.960390
17.845350 5.150984 35.585885
0.546455 16.307967 28.072040
23.905636 16.804360 19.495589
13.638179 27.932815 23.843874
11.313581 21.137501 32.833675
14.466455 33.367183 28.318352
9.427159 19.529315 11.388974
7.734085 26.294051 36.080628
35.586452 32.546755 32.055043
21.617304 39.292459 27.087558
6.966624 5.802226 8.772574
21.666456 36.800954 16.844756
4.105427 9.737303 8.895751
15.400730 19.493502 42.966396
6.484676 34.082829 30.388967
20.801761 41.218659 27.199358
21.422212 39.948731 29.268687
35.586452 16.930024 18.448792
6.213594 22.147066 27.954550
28.505103 12.679124 33.803101
31.111292 5.067561 35.831361
10.164083 11.692722 24.779210
0.546455 28.354636 18.684502
35.586452 27.260449 26.677986
14.466455 7.682628 20.270612
18.498293 5.067614 19.888275
14.670922 3.300883 22.928893
7.746455 12.001554 12.120303
14.466455 17.427627 37.249665
35.586452 34.396087 15.958182
7.696736 31.329838 6.643872
22.300221 12.928585 16.283177
21.666456 31.632646 30.953384
8.244931 14.221358 29.372979
28.386456 10.770589 32.593116
14.466455 18.342810 35.424012
28.428324 21.757462 5.757209
15.864850 7.784151 7.985870
9.815979 25.113476 11.428518
28.594838 26.328116 17.589906
14.524420 16.592445 23.948169
14.021374 11.311531 22.119456
0.546455 26.923659 35.360113
19.567273 35.606827 29.726514
28.386456 34.579840 23.247625
7.746455 10.264949 29.570597
7.562764 7.741038 33.956336
5.310195 18.831779 26.867689
21.182728 33.296414 38.846042
15.107708 24.806471 36.050360
3.511269 22.027861 37.749731
33.661868 8.709265 29.993904
17.289736 6.148504 33.472697
26.322966 18.262367 11.802825
33.884226 1.239911 20.952256
35.586452 30.062524 23.402256
35.586452 15.277852 27.677133
35.586452 20.260882 34.407249
0.546455 16.603792 11.297679
8.632394 26.136479 32.163284
31.205164 7.045029 7.752389
14.466455 6.437135 24.195646
5.180104 8.366343 17.915360
32.257966 25.176265 27.193347
19.055047 7.647354 12.396657
0.876421 33.367063 5.970245
29.181167 17.532081 1.735532
28.020592 26.010823 32.266742
14.307889 11.402798 24.373111
15.597769 16.155825 35.225117
31.158334 32.229613 34.290136
23.643838 15.380619 30.450055
28.386456 17.905051 10.570392
17.154247 16.728618 19.658017
11.620597 30.315320 14.600676
33.671669 11.154148 9.748480
21.663080 9.139649 11.489818
21.666456 37.136140 26.608879
18.893416 32.643882 8.104199
28.383813 33.690566 20.959124
35.346789 19.871087 2.981435
5.138714 37.091948 24.025096
28.386456 15.248453 33.570190
21.722932 29.588334 30.509650
0.546455 18.360459 28.958209
14.367231 17.612151 25.762695
7.746455 33.843569 14.698384
3.400702 33.085842 12.587107
0.546455 21.869444 10.028864
32.255081 7.911219 25.424003
7.785249 17.910268 17.848836
12.657993 32.956766 19.838989
3.744640 23.913445 36.298365
7.108992 29.697229 5.214326
21.666456 16.438235 10.232595
32.528228 7.785097 35.940675
32.158566 19.967012 42.280806
14.881483 28.225771 22.225022
30.861309 37.498556 14.176703
33.393755 37.812735 24.984752
24.884567 25.189547 27.187153
35.586452 29.986573 32.735639
21.160542 37.404320 29.731245
21.666456 31.695173 13.358486
0.546455 31.258558 35.561401
35.586452 18.358967 28.814914
30.532373 9.192075 8.593472
35.356469 25.243929 7.917539
7.746455 18.266933 10.624112
8.291352 26.794969 18.056759
35.191912 17.365300 25.410155
7.627325 17.528313 4.181544
16.345456 17.129045 25.072748
35.082248 33.509365 5.139598
35.559070 38.325066 15.545113
33.512312 8.934021 16.582817
3.568590 39.834535 26.272446
1.595297 34.734899 30.019528
13.265100 25.133860 16.713756
11.443934 27.354639 18.834662
21.666456 19.319491 37.261703
2.843950 19.352130 0.777790
15.845478 17.186962 39.241597
33.886072 13.585657 10.085175
0.546455 12.302316 24.946521
0.643404 38.878333 14.575694
30.301437 17.308980 41.095547
30.654299 21.179624 4.253985
19.092690 38.461229 29.961567
7.139750 17.461443 41.913087
15.981506 5.155187 8.353340
28.386456 31.217036 11.163749
35.586452 34.449452 18.210802
35.586452 12.412299 28.817139
21.658820 29.798064 6.866763
33.511135 3.365959 20.184196
7.729891 20.563875 4.980946
0.546455 32.451395 17.972336
0.805377 40.821937 27.025077
35.586452 10.570569 27.810553
35.586452 8.672292 21.341478
35.586452 16.805271 11.894296
14.466455 31.939743 31.981516
35.586452 29.032176 29.032296
5.832069 27.721915 24.369182
14.953971 36.801369 23.373579
4.424119 43.222781 14.542819
10.146776 27.433377 31.579211
16.448116 17.524961 42.163285
3.113304 7.331607 36.093629
15.516121 18.984040 16.952573
0.710046 19.200172 16.801236
1.006012 40.920963 29.364875
32.899158 28.791933 37.563760
7.746455 28.793681 10.139998
29.702377 5.642071 34.408991
17.550888 28.736350 6.432636
21.666456 8.230498 23.630502
7.746455 18.245960 37.828738
23.372096 20.713340 27.740070
0.546455 13.805289 15.867052
21.049377 20.246445 41.811081
6.589811 17.463575 2.005414
32.994744 16.315312 21.201575
5.701202 17.229120 5.626096
17.240495 24.889001 16.599576
30.370860 37.030272 20.019591
28.386456 11.749230 27.924834
7.706157 39.414172 26.159939
28.478730 38.788068 14.397498
14.643031 7.282507 10.639602
2.428683 36.993584 23.821744
7.746455 35.905020 29.122603
34.481027 19.522161 0.997519
31.616540 18.578108 17.236810
31.034496 33.348585 2.681677
0.546455 25.363667 34.095196
14.768817 33.224629 38.006580
30.398213 9.022985 28.851578
28.797768 25.244570 7.917599
32.372626 30.127597 39.183450
33.553331 6.442316 24.375840
23.921648 21.628959 11.066556
0.546455 23.161583 34.929127
16.405867 30.680626 39.718916
35.586452 30.385733 8.901070
7.672101 7.933945 18.478684
2.262538 31.041186 40.029639
15.017371 10.032847 9.075544
34.040905 26.452971 17.714760
35.586452 32.003382 24.110748
1.403016 32.124056 3.105712
0.546455 28.985827 12.106008
19.583430 40.707294 30.149781
16.945643 13.938289 10.019127
35.586452 31.206859 30.298032
28.970343 35.709132 14.215131
28.386456 22.538123 7.618165
5.694717 7.784542 7.986008
21.926649 32.038555 27.054020
0.546455 35.055926 18.291094
19.119826 33.557028 38.972302
32.567417 34.885167 29.943903
23.671017 11.874755 18.525934
15.425160 29.405288 38.366542
14.466455 9.424980 29.684602
7.333588 41.334963 27.565565
3.352686 7.400160 7.852582
14.845943 41.042796 27.990911
14.290540 25.946911 26.670667
0.783167 31.092401 5.016643
35.541265 9.129099 10.074940
35.586452 13.622379 24.991699
28.720596 29.221229 5.806713
4.831468 19.125824 16.853295
19.990899 40.436381 17.287175
21.666456 20.463587 8.141302
9.862828 23.593722 27.791048
19.092124 20.434506 2.465886
19.812419 19.192600 43.355204
35.586452 23.401974 9.265592
33.712494 21.389338 27.888257
0.546455 28.715953 8.666941
7.110554 5.737766 34.390014
28.431802 38.690063 28.540204
19.549540 31.727191 3.371841
0.546455 14.829931 24.389193
10.025665 16.950738 31.516419
5.952151 28.214011 22.359445
28.386456 7.575773 19.896171
19.914237 22.775174 6.968717
17.781580 35.623273 14.202737
32.603571 8.910980 27.260167
19.285516 27.017230 36.289796
18.936454 8.620278 17.461744
6.513925 36.899974 20.323391
35.586452 12.110195 22.011426
19.143389 17.157327 6.630514
35.211347 6.880735 9.607627
26.171183 28.760086 30.741981
0.546455 29.975228 28.287604
34.674310 6.161868 36.118314
35.586452 37.472975 27.105737
12.579097 11.437790 20.394624
0.546455 13.583616 32.004079
35.586452 10.104708 22.870883
14.466455 6.421822 21.906074
28.523210 39.797439 16.196144
0.546455 9.396195 20.002431
28.224043 16.668421 12.351086
35.586452 19.769549 14.587953
9.096884 11.349618 22.700581
3.722734 17.196662 4.963996
19.093792 20.855627 27.778196
16.176554 20.143163 1.942177
26.002241 15.649125 13.250377
28.389787 8.697412 17.293600
26.021974 33.153375 21.279859
14.466455 14.335681 10.259872
2.347862 16.597327 35.819864
21.666456 36.734677 24.136745
17.926564 32.950886 12.396904
12.351236 33.175764 21.838889
30.407161 8.854997 16.870552
28.495410 39.923817 26.775810
0.546455 30.771706 26.287349
10.443965 31.322461 28.052999
14.466455 19.415362 9.796865
31.047115 24.873996 16.592579
28.386456 15.752398 31.554494
0.546455 32.055732 28.125722
30.057048 39.061159 25.868434
28.386456 31.604597 13.630277
33.077276 8.964533 8.481237
32.016915 26.530547 17.792337
21.666456 27.417657 10.499844
7.703806 24.821351 16.568030
12.263866 30.358861 29.278969
1.149465 16.368795 23.113497
15.855114 29.603168 5.325444
10.027060 30.055926 29.607573
2.820853 9.025040 15.111902
30.266547 27.557145 19.204344
29.516919 5.918686 10.051194
7.534825 27.896053 19.945804
0.546455 25.884925 16.027071
7.721183 20.529308 39.195132
17.148276 41.203963 30.131749
21.666456 8.824801 30.916394
17.838998 42.634406 28.522265
19.478576 14.205841 33.984830
19.151689 16.798365 24.418432
0.546455 28.725357 34.189999
13.906004 26.642746 17.904535
26.924398 25.162788 16.727245
24.467014 32.081277 17.207562
12.242629 27.280347 31.664097
8.431808 11.629868 19.433212
29.428389 4.363141 23.949538
33.880457 33.650166 40.886428
20.194602 23.592651 27.791335
28.386456 6.656382 24.037852
23.958214 32.295691 26.245808
2.321691 17.466476 1.993986
22.055800 17.184518 31.675849
7.640849 28.369828 6.800826
22.609720 30.373352 14.663625
14.466455 33.340551 15.267462
0.546455 28.994308 25.258667
35.586452 30.217504 17.065045
19.409839 43.187510 14.744877
17.080440 7.293192 36.104472
17.950952 24.696949 7.860080
19.211866 17.187918 4.472213
4.612287 21.043226 3.854150
30.844373 17.218446 38.578186
7.746455 12.513924 30.533784
7.614962 18.107994 26.275766
13.039003 16.254285 22.027758
19.187017 33.238477 31.135299
20.085780 33.649422 3.005841
30.860689 28.620924 37.357131
0.546455 17.426446 15.859827
17.436418 38.361233 13.982479
20.762465 42.431547 29.091839
1.573077 32.650238 11.872426
28.386456 30.387841 36.279373
33.378417 28.666294 6.520259
10.480653 23.270722 32.838506
16.748809 6.347987 19.583385
14.466455 34.634715 17.267087
15.078364 8.920899 14.567103
34.367832 43.015411 29.617014
19.011595 16.293328 22.474019
28.386456 6.006379 21.309479
19.244953 10.229562 34.722403
16.142630 33.187809 2.590374
21.666456 13.174629 32.656275
30.583966 16.258469 21.851293
19.095696 25.436771 27.027871
28.386456 8.669169 21.656975
35.586452 28.329241 18.714449
12.144643 11.981894 18.229352
28.386456 25.882782 35.517266
14.466455 21.160450 7.781746
28.386456 9.014987 31.529200
7.746455 11.778284 33.856171
28.386456 14.494713 11.370748
7.372301 33.134291 5.518573
6.508352 7.975171 35.874290
35.586452 11.624603 25.580340
5.454163 9.051800 28.338478
35.586452 11.074248 14.310978
7.746455 20.129582 36.871828
29.022831 22.718518 27.922330
28.386456 27.011475 10.717040
14.890025 30.951618 4.000831
30.256912 33.667408 30.700987
6.475017 41.980895 13.870490
32.936742 17.223705 40.345107
7.746455 19.446647 8.424336
21.426226 17.486966 40.520183
5.810465 12.491016 33.811314
5.232158 6.042197 10.271721
5.090809 17.846562 43.232338
0.546455 19.130870 32.012921
14.098946 14.657555 14.035298
4.881455 9.040217 15.877032
3.845099 41.894119 27.768027
31.704162 18.626468 26.723928
3.235121 7.480572 18.912167
3.217981 32.338699 32.900416
21.310249 11.400930 34.083312
14.466455 30.838212 10.522520
2.055467 36.141249 14.277510
0.546455 33.505161 19.737320
28.426603 28.930898 37.737572
21.666456 34.168255 16.626825
29.100388 19.650735 42.700316
7.746455 34.149256 17.389352
1.027565 33.128239 38.940090
30.187191 15.393970 34.565169
4.448234 13.584751 10.085283
35.586452 32.229733 26.461657
23.337001 26.480350 26.184737
0.945583 24.889276 36.042595
0.546455 14.354399 29.206265
33.853991 26.971636 7.655965
28.040009 27.077494 25.488018
21.666456 10.016595 32.608023
32.326226 17.075348 6.997621
28.413417 18.650713 5.040782
24.306954 19.589241 16.608470
1.066240 29.830567 38.870022
0.546455 21.021033 33.758824
28.386456 24.330200 34.068760
35.586452 15.813543 15.562328
32.033453 4.956466 24.025438
18.914953 32.489595 35.436127
12.269335 13.309451 15.675785
28.011258 19.780352 11.274462
7.746455 14.888138 33.160518
16.441724 17.074865 36.927788
35.582617 12.672480 33.803391
26.855940 25.497200 11.532823
35.586452 36.212633 19.170657
2.803071 7.056656 11.730665
0.546455 27.506461 32.168146
21.640116 31.924374 7.634700
32.015124 14.660130 34.152084
29.989365 18.262717 43.851588
7.496626 19.888302 2.934246
30.744518 41.737727 16.294731
0.546455 14.653437 22.151311
21.666456 37.786340 18.693301
31.829565 35.327413 14.122412
21.213658 32.569666 4.763851
24.661776 18.643456 26.735823
17.852319 38.221572 25.340662
35.586452 14.542168 33.081859
32.231511 17.684199 42.735793
2.488865 21.266183 4.541384
33.457704 32.937596 7.394357
7.746455 21.965470 6.907747
5.381359 43.188184 29.481257
0.546455 32.540646 30.235392
35.586452 28.059372 16.623566
1.019840 6.958361 32.314429
33.041025 31.789780 40.600104
21.666456 9.093157 28.886938
9.141944 21.299619 32.842465
21.666456 11.170551 10.767845
4.696955 32.508671 2.862380
18.122318 22.990170 27.898564
35.586452 27.681208 34.623000
2.936690 40.163606 17.462473
20.502496 8.777794 35.537749
31.164865 37.706205 24.865545
32.442810 33.114037 31.300031
16.414267 27.756058 19.630915
21.972208 31.719640 16.383497
35.586452 35.512812 28.125852
2.009096 20.287385 41.742260
5.838736 26.243480 7.858121
16.631061 17.209919 5.198174
10.401138 16.405975 20.674622
25.957915 24.072289 32.737843
0.782755 7.574802 9.702654
34.225742 5.443717 19.833421
9.852494 31.496294 16.162788
21.418837 16.961155 7.344647
7.746455 29.290645 12.344925
23.738247 33.172765 21.728140
35.586452 12.691299 17.073660
31.918704 39.811438 26.259003
21.666456 29.765087 33.379851
7.109630 33.499496 39.300053
15.286000 17.286307 18.629535
9.170316 12.814203 27.453595
21.666456 11.950307 27.829635
29.231919 17.220583 6.227873
0.546455 27.816956 27.185322
28.386456 35.469459 27.324482
14.341253 28.610975 12.805832
0.546455 17.691568 13.582711
15.027847 40.578786 30.151460
14.466455 13.889129 30.826873
32.075218 20.259773 2.138201
13.333973 23.101828 16.038081
30.411554 36.648407 22.787024
14.386889 27.959925 20.184180
20.991711 42.098606 15.820587
28.069063 23.015149 16.030498
0.546455 11.778045 16.374343
0.546455 20.135207 8.290324
4.280015 8.281177 13.139410
21.666456 10.774074 16.339732
0.546455 11.473942 20.775001
27.149149 30.658149 14.987294
2.846688 43.229294 29.234022
14.466455 30.154748 8.601487
21.666456 35.950056 20.005148
7.746455 9.501607 16.104823
21.239161 6.776171 9.372567
16.881278 20.974228 40.259726
28.386456 32.489057 15.526062
15.923724 24.911896 7.886403
27.025731 18.627920 26.724945
7.746455 10.235564 10.838063
33.547852 27.802019 19.729478
19.157253 23.906204 16.219557
21.447039 28.218180 21.615080
4.171957 24.455352 27.529514
0.546455 27.385178 10.185650
32.887967 17.231717 38.191161
1.190500 32.981112 36.653759
2.841952 16.379395 20.773822
6.668547 19.333468 0.753673
26.080466 11.479590 23.810943
0.546455 12.435058 22.859450
23.114102 27.785621 24.232563
0.546455 24.673503 30.532046
19.745995 36.818246 23.412929
30.697035 8.308240 30.742551
7.746455 6.048271 22.332346
35.582116 29.416501 6.654974
24.467259 11.332202 22.481220
16.308469 7.976209 18.433699
4.699975 28.051928 20.527538
0.546455 25.447420 9.633701
19.878619 16.340003 8.459439
7.753076 18.863733 32.894304
14.466455 19.530387 6.349830
29.103275 41.937838 14.989444
17.250824 9.031640 15.957668
1.397995 5.558645 9.344972
7.746455 37.230611 27.530289
35.586452 28.926651 14.582832
35.586452 24.799618 11.605841
35.586452 22.688967 13.330509
20.523980 33.641373 40.744959
10.547692 21.431424 11.077266
19.214514 17.188282 39.535518
3.802827 40.683297 13.776778
34.330541 18.404735 17.358207
11.757707 26.994343 25.606769
28.360546 16.289775 22.433412
13.624652 19.198083 32.447865
14.872621 6.942880 34.617663
17.121999 30.896389 4.015550
1.700080 17.188536 4.331078
15.207315 18.132182 1.408337
5.752011 39.695125 17.735712
0.546455 30.357730 10.525150
35.161297 19.757098 27.396679
30.431811 13.239043 33.800458
35.503695 4.169330 22.152362
35.586452 25.039729 33.193514
7.706912 38.262479 14.505360
19.800744 9.027330 15.152676
16.680467 33.038015 36.812329
33.420554 41.662038 27.566936
10.027240 18.054263 26.222035
35.586452 34.253725 26.564862
31.364577 23.432783 27.834172
11.693365 25.492467 26.988872
17.646215 18.528507 26.655335
19.542725 6.997627 36.187862
28.386456 33.869658 29.320685
21.666456 35.237838 25.977690
9.900071 17.275056 18.645603
35.586452 16.420327 32.327136
7.746455 36.226627 14.907931
18.641392 17.473269 41.959661
19.518735 37.310316 14.214512
28.386456 34.639921 25.491156
32.829229 5.457829 34.800431
14.466455 9.228057 18.798572
7.753523 24.905947 10.835829
14.232916 11.694489 18.707912
13.047693 12.036829 25.849594
13.560888 21.672235 32.862668
14.466455 30.350449 30.154214
28.668330 28.007995 20.363577
15.400890 38.038984 25.193181
5.366234 33.469263 5.493319
9.242758 23.082342 11.078158
5.373007 40.741010 26.843210
0.880659 18.754151 2.731454
35.586452 18.640520 32.976787
14.489631 30.928813 36.840246
19.246777 28.233772 21.793305
12.009918 32.927666 24.220090
1.766968 5.228631 36.118338
20.688511 5.368254 35.429033
2.072824 20.362209 2.325464
13.251972 19.480917 11.402130
2.631869 38.834172 13.901240
20.350532 33.235952 6.482751
35.117405 31.318917 3.997284
19.467915 6.215350 10.558069
17.712328 17.312813 2.801165
19.355512 17.564424 1.608137
12.847799 31.769639 27.309786
35.043542 17.192333 39.865844
31.688774 5.384429 8.947185
25.068731 19.879941 11.293666
7.746455 34.085778 27.550467
2.334586 21.229463 39.507391
30.004638 18.291785 0.069949
35.349608 40.753540 26.879575
2.232306 38.390552 25.477151
0.697824 39.977242 16.400689
35.586452 27.115539 32.547022
2.837012 18.850843 17.045839
14.686721 19.050557 3.183819
5.275100 33.108163 37.007737
21.977910 33.173270 20.772042
16.627673 21.125535 4.077164
34.643747 1.468961 23.077772
35.443866 31.569276 5.956474
33.302818 5.933733 10.078059
23.082386 11.377194 20.966193
22.842871 23.757154 32.786233
12.286018 28.917617 13.307723
35.287836 32.619627 8.160678
16.310833 43.059510 29.831084
19.015606 5.287318 8.709952
32.339341 18.071575 0.115334
33.283492 32.221164 34.019113
0.546455 23.745140 11.134062
28.386456 24.024283 9.771228
23.023920 23.449879 11.099625
16.402322 16.287182 22.403770
35.204852 40.746504 28.888040
33.365833 36.711494 20.885470
3.455304 19.491863 42.968507
29.664405 5.089787 8.160894
2.730985 8.662880 17.368878
1.601306 18.258399 43.350594
14.466455 30.853362 33.968096
17.486043 8.700047 13.909908
34.495321 17.529856 42.182568
21.689015 11.239547 19.136511
30.655720 33.376218 41.229445
7.746455 11.282458 27.472347
28.173566 32.469226 26.202932
14.149192 16.038414 31.026711
23.681950 15.170354 13.655423
28.611709 33.825788 13.350667
11.805036 11.433570 23.492444
14.329227 32.735959 18.222072
5.081063 17.317053 41.159081
23.536404 18.457455 32.201781
4.892929 33.565960 39.029170
29.747536 24.585370 27.468885
35.586452 12.267610 31.429801
13.719747 21.890279 11.052388
28.565775 31.273336 38.439374
14.466455 17.247234 32.685078
28.386456 17.370221 32.884210
28.386456 22.022955 10.013565
