5.602085 21.836248 15.999519
18.149412 11.755144 9.975400
0.550516 11.508435 9.884985
34.854415 14.481673 34.067509
34.643248 5.741404 9.723777
26.335331 15.395560 13.464131
12.907162 15.113912 13.703365
32.206006 6.523928 24.412186
4.634282 33.117092 6.890413
3.502748 17.164031 37.339038
28.386456 10.613150 31.267898
27.058809 27.921534 23.885974
32.830974 21.230944 39.502533
12.314435 29.433583 30.180888
4.248902 4.212143 23.922248
24.650052 17.942492 26.110265
30.979318 19.422266 27.240545
25.839395 18.909234 11.557526
31.190533 28.473299 6.710654
14.882430 7.459115 35.271603
34.289372 4.486150 23.969722
26.524619 13.837223 14.989766
21.666456 33.132765 28.282252
17.619403 17.811341 43.133344
34.804501 24.590646 16.460451
0.546455 24.611301 8.024277
34.675031 41.578226 30.103977
19.891795 32.225974 10.325788
4.465045 8.300927 25.914271
35.570932 26.872974 18.146773
21.666456 34.055775 29.647123
9.519101 14.355763 14.412183
14.466455 10.226865 26.482442
29.342817 16.395575 8.385117
8.957078 20.250173 11.222093
35.586452 18.485567 30.721956
0.737877 19.464540 3.296027
34.566748 31.381752 40.306298
14.466455 13.456938 29.950334
25.846810 11.440337 20.370598
25.148749 31.856736 27.165030
21.697456 33.317631 19.554801
7.326162 22.881550 27.908067
32.503673 17.337811 18.555979
7.713781 8.384140 32.525193
0.546455 29.349670 14.284465
1.472204 36.751716 23.203587
3.013193 17.438398 2.119172
24.527502 16.598869 23.972142
18.825830 20.078458 42.093468
20.443814 6.740876 11.326410
7.746455 8.408098 21.961096
21.666456 15.278637 32.318039
0.546455 25.124663 14.585471
32.565808 26.216970 36.062529
20.841123 32.459937 40.550172
32.043450 5.998595 7.511746
34.340583 19.913450 16.457289
33.210580 42.632941 29.951688
33.665159 32.221845 3.042687
4.450796 16.392524 35.537680
17.647907 3.667690 23.816487
35.401087 17.785428 3.661227
20.180879 17.169777 37.375608
19.755980 30.996530 3.933725
14.466455 20.931840 9.600542
21.666456 10.184794 20.982547
1.713474 16.284577 22.373997
22.226502 33.018597 20.103657
9.712105 20.325336 27.636105
4.223385 25.013218 16.657499
4.286685 22.197423 6.392508
0.546455 26.636017 29.532794
35.586452 15.611854 26.231797
14.923227 22.533207 37.179879
20.229863 8.805353 14.173382
1.141624 33.485347 5.394584
28.386456 9.758959 13.345965
19.533408 28.159376 20.942955
7.635097 9.103082 9.219399
17.367098 25.162939 36.016933
28.386456 36.008644 23.436727
17.660243 7.089882 24.715829
26.945990 30.956791 15.367176
0.546455 26.851794 8.659758
26.617702 27.707239 24.400654
35.586452 24.799024 9.793420
3.686057 33.212417 37.363407
28.386456 31.179362 10.345513
35.586452 9.602916 28.670497
7.458306 33.329487 37.869645
11.070898 28.184993 22.691124
14.321865 19.170480 32.653859
35.586452 22.628866 7.749769
24.865710 30.432562 14.727852
21.666456 36.489811 23.291972
14.466455 12.412262 14.770363
34.540218 32.367822 2.950525
28.318411 11.008221 21.381575
27.008728 32.891992 19.544720
6.396688 29.046427 6.040756
0.613438 27.318809 36.414715
34.457949 24.265252 7.747287
20.261386 27.104033 25.450117
29.515123 5.697725 19.793040
21.537366 7.926268 25.440021
17.243744 35.194922 29.846238
27.042620 32.721559 18.842754
19.065354 17.967438 26.135210
35.586452 32.761063 31.803654
22.074385 16.838554 19.422259
20.111210 11.643988 33.989664
5.029630 7.020436 7.745448
4.365499 33.335903 6.107859
22.124639 24.919855 16.613963
35.586452 28.984131 24.429073
14.518276 39.296269 27.257307
0.546455 38.233519 17.542665
18.957822 21.999706 37.785491
29.907936 8.376614 30.629079
5.861919 32.421790 2.916482
20.623283 0.512138 21.486322
2.323149 17.169937 37.376631
7.099989 26.846018 25.818599
5.988947 34.751652 13.915805
3.685118 7.230106 11.939257
14.466455 33.885960 28.660612
4.506010 13.865799 10.040011
35.586452 20.062704 13.951449
28.288792 30.127702 29.916359
7.746455 9.118172 32.218078
14.533388 29.683215 5.583117
35.586452 8.939899 27.242756
20.810535 33.154909 37.166168
32.600375 6.376710 33.118025
21.404499 17.958520 3.220528
35.586452 19.242013 33.692107
2.094994 39.171721 25.924184
15.685502 28.639474 37.376825
33.293978 39.924326 26.324844
12.061883 25.985826 32.223310
15.872545 33.587523 4.683806
17.647603 27.519806 36.514243
35.586452 17.331680 29.540384
14.855395 22.586282 27.933899
14.730173 33.212378 37.811075
0.546455 10.899267 21.069241
33.986295 33.439953 38.278544
19.705866 31.837888 3.292132
0.546455 10.736194 32.197088
21.399306 26.757253 18.019042
7.746455 10.329049 20.505897
14.253543 32.624121 18.131043
32.979945 20.761485 40.778295
0.546455 22.580965 15.118017
28.386456 34.077554 15.722889
14.466455 13.217466 14.505932
35.586452 29.310399 37.065232
34.601629 36.637472 22.742934
7.746455 17.142935 11.187584
24.667016 11.972271 25.670886
9.125080 19.538283 27.294645
31.031771 42.457643 13.940399
14.215048 25.099640 32.617763
14.976448 8.351983 17.936708
9.535604 27.325583 25.133710
21.360292 16.326681 22.855246
2.948667 36.791866 29.646077
14.466455 11.499457 27.618557
6.998975 32.252855 33.396908
1.155294 3.034158 23.656246
21.666456 7.569817 20.611343
35.586452 31.963682 33.447294
35.586452 32.981024 14.129566
29.762235 16.837526 7.645594
28.386456 8.296880 22.067507
21.666456 10.603941 22.895520
7.746455 11.284002 33.627541
27.992085 26.322603 17.584393
30.755901 40.761132 26.856653
32.168374 30.979953 3.947271
2.311738 7.007379 36.185110
14.466455 15.308537 33.028708
14.498780 19.628288 4.741243
15.963474 33.608959 39.455699
1.317037 1.196741 21.972721
31.695269 7.379565 12.111944
21.447804 17.958041 26.125813
30.034032 16.955093 36.563805
21.666456 17.945228 33.811776
12.791303 28.221712 22.271420
0.546455 33.353113 17.847437
20.114311 22.425963 15.978950
28.738150 31.058301 4.430470
28.386456 24.931265 35.765223
7.879863 30.181529 14.141462
7.746455 35.022036 18.261984
32.521883 8.308405 8.186116
17.780857 10.550876 9.411769
20.033088 0.711056 22.699920
5.521602 5.020838 35.968873
16.963213 17.724769 1.064220
28.742819 20.256300 41.537166
0.739164 32.890020 36.399967
0.650499 16.321706 22.798387
30.015345 36.565366 21.895078
11.955521 28.213468 21.561229
35.586452 28.070327 30.997188
28.918081 29.585577 5.346221
9.613609 23.350296 27.856274
35.586452 24.590765 11.759163
28.386456 9.601812 26.390596
22.106548 25.116458 11.407429
17.614827 33.650370 40.123160
31.955210 38.010571 25.170232
33.668701 22.276455 37.433985
26.269403 32.948341 19.800715
32.359895 25.716452 26.832036
17.985884 12.502602 33.810808
31.323581 32.830232 7.670268
4.153807 32.248685 10.498296
20.214615 9.035211 28.633865
7.746455 31.308301 8.331453
34.666185 22.166496 6.353228
21.666456 35.128650 20.932973
7.746455 17.835438 8.588150
13.002116 17.202480 31.656061
1.862459 37.607689 24.755306
30.799007 32.693822 41.166146
15.790242 0.001720 22.204985
32.096441 9.052767 28.321256
17.776485 17.161223 25.118703
1.096606 33.074572 12.571224
2.996696 33.491418 5.357319
21.666456 21.323430 8.776475
1.580883 40.444091 26.644852
3.200341 18.374345 17.384759
0.546455 12.563189 29.583235
0.546455 27.239382 30.218059
11.902611 31.882708 27.121864
35.586452 33.717164 24.100214
9.952086 23.714398 11.134936
0.546455 34.387614 20.746127
0.546455 9.944966 26.546801
30.094997 21.874526 37.957854
1.227464 22.037362 15.981924
29.644187 9.040452 28.052056
28.386456 10.906685 30.630584
28.386456 26.913944 35.753925
14.466455 25.384682 10.290657
19.533280 33.412572 12.967856
21.660994 9.821840 10.620176
28.386456 37.427452 26.604582
20.398249 26.701157 17.962946
12.090576 20.295770 27.628182
0.546455 12.559549 32.925824
35.586452 21.783781 34.208266
20.303742 8.852842 27.048481
0.596083 9.184835 9.865586
1.903717 8.935219 27.348423
2.938356 27.384689 18.877578
6.184893 25.666241 7.918187
21.666456 35.784460 21.184063
21.666456 10.075383 27.550972
29.766842 25.943469 26.673078
18.359715 8.132600 30.990143
18.866915 31.371186 3.628186
7.731003 18.527955 38.599813
29.065351 23.613925 36.431272
20.135285 23.909616 16.220472
21.591761 4.260908 20.791783
14.807889 16.995443 36.686425
15.543471 16.558495 20.105412
18.193960 13.192943 33.794973
35.116103 8.180203 12.994566
21.615245 31.600815 6.773570
0.546455 16.008708 19.661296
35.586452 10.564984 30.500569
28.419927 30.661746 37.247307
0.546455 11.679355 22.596080
30.624221 16.261906 22.114873
28.532696 9.031421 35.034986
29.646682 6.633749 11.180333
35.586452 18.089118 32.322389
35.586452 30.546037 33.311265
31.461663 16.323940 21.102952
11.334748 31.600740 16.336379
35.586452 30.530613 10.901482
1.461826 28.804126 6.347866
32.443979 7.250631 11.963896
23.407586 14.587615 14.168263
0.857775 32.751055 7.854684
35.586452 18.381898 14.573160
14.842043 6.295040 10.681924
10.388542 31.734340 16.558422
4.395111 8.988450 27.563147
27.794933 21.819365 27.925880
0.546455 14.174483 13.492240
30.792493 39.073583 25.874697
35.586452 13.825000 25.205365
14.466455 10.081258 21.206229
32.677950 24.062111 27.665543
17.583781 27.248018 25.244485
35.470590 20.258412 3.743123
18.112541 32.344118 34.972773
3.352915 25.086284 27.235306
4.083436 20.746796 3.115190
34.539959 39.986892 13.788375
12.503441 16.788495 24.397266
0.546455 12.488113 18.037125
14.467921 31.938705 8.269122
35.482487 7.753996 33.024667
25.786809 22.505660 32.879986
29.551678 30.128014 39.183886
27.132957 26.514386 17.776175
5.479344 7.543755 18.863685
32.528703 27.998897 36.811126
4.509296 33.572531 39.094357
28.386456 12.257448 32.534766
9.505178 20.548118 16.231077
28.914456 8.957494 29.194702
14.754022 30.730145 39.370583
3.186722 6.268237 33.286610
35.586452 29.945549 23.329736
0.546455 17.490370 26.915028
14.466455 31.231809 33.692714
21.606336 32.226161 34.179398
21.666456 19.515401 7.199278
29.614811 5.991668 24.221298
31.939456 21.281580 39.334354
19.241627 17.132969 37.141317
35.586452 16.465976 20.268151
6.951801 8.334524 25.964215
30.569006 32.588030 8.239017
19.175651 17.151810 25.105260
8.072719 19.135479 11.429864
7.506852 26.325921 7.838763
21.666456 31.255777 30.212843
35.586452 15.451906 10.038150
21.666456 12.862361 28.692047
6.429877 20.919184 16.131650
7.938677 25.567274 16.990384
35.586452 32.847801 25.328935
28.591654 27.823634 24.151044
15.329966 32.245544 9.457870
7.746455 14.543016 11.238107
13.454303 31.575177 27.632984
0.546455 17.129600 7.058015
17.705936 16.262480 21.805447
26.116033 17.894767 17.864337
30.664921 20.001226 27.510518
21.666456 19.790754 10.346788
14.466455 34.560220 15.115061
16.663292 23.036193 27.894537
7.783604 24.385473 33.070655
14.406903 16.686245 12.169411
34.008123 31.643922 3.431797
7.373538 8.982631 16.405823
29.930395 38.554882 29.977673
5.310635 41.451650 30.113371
14.466455 15.291090 9.788139
0.546455 33.123987 20.153915
28.386456 35.313046 21.303710
18.394354 6.772544 11.369593
27.211350 12.047528 18.047665
35.586452 15.068184 30.498970
20.089805 8.991679 16.333367
7.746455 28.484625 35.087376
18.502588 19.531895 42.916779
16.583915 16.466575 20.448462
17.656309 22.739480 6.936010
6.646726 19.229778 0.619678
33.847380 26.477492 36.123702
15.359654 38.013883 18.753969
24.533872 16.284961 22.378393
13.846174 18.112369 17.646735
0.546455 35.875005 25.994982
28.134859 33.158709 23.651079
20.876887 26.121890 17.383679
14.840156 8.804943 17.052802
21.666456 18.549133 10.559845
6.581474 2.556711 23.508071
32.716873 33.822686 13.348407
32.627833 21.324248 4.734243
8.483367 33.103160 23.120671
30.578556 28.200723 22.511330
0.546455 34.126956 24.620863
2.940757 33.343330 6.075058
3.047704 26.207773 17.469562
18.620296 27.295356 18.749996
14.466455 9.589738 32.208925
13.557133 32.607443 25.442786
14.466455 12.688126 12.940595
35.586452 25.706015 27.018880
28.892048 7.876195 31.281417
14.407995 16.597822 19.958641
19.054792 14.305952 9.913206
0.546455 18.606158 5.974906
35.586452 29.127304 17.887954
29.719572 8.969044 14.784271
19.321387 23.575513 36.448317
14.466455 17.227230 8.033055
17.156905 40.748248 26.848046
30.340364 42.948166 14.037796
14.701353 6.919374 32.361308
15.828111 41.892494 13.858476
11.071370 22.405830 27.949687
18.649940 28.053458 20.533246
5.458990 19.406905 43.078287
28.386456 33.495805 17.867599
1.132706 17.532052 41.933082
29.373061 21.274344 27.878196
3.108547 28.375905 37.131346
6.216554 14.692433 9.759485
20.964311 4.984679 19.898100
33.769077 30.206132 4.661375
18.943629 16.232751 8.602880
28.386456 11.069491 33.363730
10.654686 26.805535 25.859552
28.415193 9.129679 10.620016
35.586452 11.831789 29.817310
26.353922 13.923380 29.045671
35.586452 22.838800 31.804147
16.462503 17.244078 3.342090
6.193755 17.267548 25.270551
0.546455 34.764156 16.293835
16.590266 2.164737 20.560750
16.425447 22.906552 16.020997
28.386456 8.711572 26.632487
7.746455 6.415101 19.935117
20.903077 16.460595 23.456096
21.666456 34.768970 18.477403
2.997073 19.917221 1.569639
30.200570 17.186699 39.184053
16.791949 35.428289 14.154218
7.705813 9.396398 33.999157
0.752969 16.845943 36.297449
17.924465 31.072873 3.871346
34.800884 33.142026 37.121982
15.878245 32.261231 33.333285
2.426482 7.290179 31.915425
3.187772 16.571008 8.150490
2.687040 8.351942 17.936768
6.938294 21.337530 4.775275
4.534308 16.766525 36.144889
11.362818 23.484468 11.104242
14.427418 17.143839 32.049789
18.100268 21.715288 5.680902
21.666456 9.419842 12.229038
0.553438 5.387831 22.168889
35.586452 11.878077 12.232639
14.478562 7.835231 31.427962
35.586452 17.752042 33.482602
0.546455 9.374582 16.169425
17.801863 7.457535 36.055081
35.586452 13.889109 24.017733
35.586452 17.027726 31.558993
19.318852 39.655386 30.122530
2.010000 17.223164 40.336808
15.686984 8.932581 29.307080
34.615033 11.825166 9.990010
27.172352 16.074505 30.972376
6.865193 27.521401 36.515231
5.429607 8.271306 25.870238
17.604100 5.747353 34.190774
34.671971 5.355681 8.771737
2.152965 23.799402 16.190940
25.324641 11.424802 23.409738
30.369575 32.382746 35.141846
16.927931 41.259579 13.799253
1.310497 28.160141 22.975182
13.192625 17.726773 12.016225
19.603028 33.294741 31.078329
28.386456 13.069580 11.232186
2.502739 21.280720 4.589667
31.278181 8.936803 14.638840
6.246815 36.853550 20.431633
31.683660 33.179633 37.250966
21.675200 24.935814 33.062873
28.410586 32.364948 7.804243
17.786601 19.347329 43.155271
22.045283 28.151599 23.027361
14.466455 18.041183 37.989883
35.586452 14.341081 14.203780
18.297098 42.675173 28.567124
2.030049 32.600339 11.770441
7.746455 35.695657 28.162372
13.556697 11.621538 24.455818
2.176741 4.977455 19.898952
35.586452 32.858779 30.809547
35.553355 19.667322 4.718345
19.723141 42.036226 16.020451
7.746455 34.654563 14.972688
19.122808 42.934394 28.866823
7.564632 3.473677 20.421164
3.834417 41.940622 16.113568
32.923989 5.812299 19.765985
1.214721 16.986002 7.269138
35.586452 30.819269 19.798163
16.364783 8.596222 17.514185
6.578339 22.837100 7.025462
6.864837 26.710506 7.748459
1.927708 40.862188 13.779111
3.050105 5.364007 19.845537
16.820672 17.069606 7.015069
7.746455 32.541021 15.293142
4.790764 35.944838 14.249157
28.644834 7.278047 34.001809
14.466455 22.068217 7.966218
18.143745 7.454580 12.191678
7.746455 34.495544 16.757572
0.546455 12.026197 32.418115
35.586452 21.989282 10.032638
3.925334 6.422715 36.328374
28.386456 9.675797 24.452178
1.886851 43.158062 29.565885
5.160672 28.223694 21.678113
27.028018 11.406373 23.235912
19.799259 17.197475 3.982486
2.164996 32.926344 7.425623
22.775017 22.927135 27.904079
1.937755 32.938852 12.379944
32.531970 33.579830 39.166702
3.226555 19.535656 1.014953
28.386456 29.362253 11.963018
34.978483 6.117780 9.212754
14.452704 27.011259 25.582612
35.586452 24.338359 9.164688
30.360663 23.763002 16.181186
2.271498 28.110576 23.180462
23.441743 27.841451 31.352852
7.461556 40.853770 16.638324
0.546455 8.514699 13.500707
15.510570 6.225881 24.301617
0.546455 20.204479 31.944113
21.666456 22.082533 8.704423
5.364132 30.087456 39.141512
15.286992 32.395886 8.741272
15.208930 37.227772 14.231092
21.640461 28.137968 20.848643
18.783228 29.042205 6.046409
19.886573 32.389915 11.196249
18.153300 28.243252 21.901655
32.179561 36.578395 21.734648
28.386456 10.962429 29.858240
21.666456 10.190640 26.639105
21.907262 28.215540 22.341963
7.746455 25.034498 8.706546
21.508729 33.037701 37.230322
14.466455 12.514674 28.813759
35.586452 37.724153 25.910529
21.666456 35.642291 26.616990
33.862272 42.310135 15.753675
4.415149 28.203029 22.484972
23.395744 22.295634 32.891374
17.188738 39.345898 26.012006
14.466455 34.057771 24.412322
30.697909 5.616551 24.119727
35.586452 21.311837 6.632026
25.466041 16.673939 12.563999
6.163490 26.737069 7.742222
30.551141 37.972112 25.139168
20.865461 4.010685 23.885794
9.958197 18.793967 17.085664
0.546455 12.504525 15.912605
31.032632 21.295737 39.287332
35.586452 25.106298 9.131747
0.720268 32.467197 32.474423
20.546974 1.144298 20.999148
21.666456 17.342859 34.668987
0.546455 17.175474 35.698389
1.415007 27.204829 25.306165
19.297108 0.001742 22.208067
12.155856 14.111048 29.249242
14.707193 18.223116 3.259310
31.395526 9.022640 28.857707
0.546455 11.247423 21.927440
21.666456 18.761761 7.057394
0.546455 26.091574 8.351994
0.546455 11.874917 31.528977
35.586452 25.654419 8.679913
32.889803 32.075910 40.792045
35.586452 5.698723 22.389252
19.009217 27.725331 19.565020
21.666456 15.365057 12.578441
35.586452 34.376279 17.890591
21.666456 11.327049 30.011730
13.951571 33.082978 20.560965
15.905978 31.009117 3.923441
34.943614 2.931475 20.302498
25.701713 17.380620 12.178491
15.616973 41.965397 30.058492
1.432821 25.837379 17.179514
31.940207 19.427704 43.051426
33.390224 10.196269 34.744246
18.406952 29.338039 38.276530
5.102206 8.747802 26.743119
0.546455 11.296832 11.597875
4.194093 40.989761 27.025352
28.386456 17.500365 35.490768
4.686446 6.697235 32.659974
17.781737 9.040677 15.390337
5.766597 21.157043 16.067916
23.632738 18.185190 32.093301
19.856361 29.874989 38.919531
29.000393 33.509221 4.712994
0.546455 12.691490 31.996448
34.167155 5.389188 36.480727
30.039520 35.387300 29.785582
21.666456 34.444018 17.801354
4.003123 21.269583 4.552675
6.537343 37.676391 19.094693
24.584319 30.040959 29.623808
28.386456 18.368737 8.674527
0.546455 32.788742 16.894629
0.546455 10.514507 16.194537
14.459918 14.876391 30.709946
23.414921 31.029505 28.467204
0.546455 19.825617 8.915594
14.466455 8.873317 12.326025
16.196931 16.849704 19.398348
34.260766 1.476432 20.845743
7.682333 20.942611 39.883018
16.740799 29.727276 38.748021
35.586452 10.614391 26.154567
18.165462 32.395956 11.216276
21.716825 33.419985 23.558368
7.184538 6.555828 35.017770
28.386456 17.451866 34.047208
0.613402 39.186958 15.978328
3.735513 31.542376 40.421959
35.586452 26.782084 26.487082
1.701172 33.046858 31.394712
18.799255 41.297446 30.124813
33.088709 9.567519 35.128156
30.963248 17.139428 6.744441
14.034946 12.421804 17.147532
5.839736 21.358381 39.089800
5.600725 17.194920 4.021512
24.018445 26.086899 26.572646
28.421849 29.866839 6.223515
33.315482 31.524952 3.517462
34.207305 37.378117 24.474290
2.410876 24.732132 7.869272
21.666456 23.982323 33.989362
14.466455 12.566137 32.136815
30.190118 29.272064 5.738652
29.134023 17.163842 6.589040
7.746455 8.856463 18.523322
10.926227 19.421237 32.508524
35.586452 32.217456 30.373913
0.546455 28.331451 12.019694
14.990410 28.723912 37.478683
22.244649 12.102226 17.895958
28.927625 23.225054 16.048862
7.746455 22.302211 10.092189
21.666456 11.896346 28.393350
35.563048 5.038885 22.622682
22.439749 14.293766 29.447442
2.985948 29.319342 38.251524
4.842871 27.678194 24.462942
0.546455 11.636417 21.192235
30.348147 17.824252 43.173679
34.179226 26.639699 26.025387
15.055662 3.376657 23.745297
32.508953 24.355634 36.155975
21.666456 38.200329 17.812929
21.700647 16.266653 21.757745
13.742808 11.352555 22.728277
19.672371 36.621797 14.283981
35.586452 31.499190 24.848083
35.541393 32.153886 7.289131
8.069175 27.236550 31.751384
35.578663 20.166440 38.713574
3.273792 41.697989 30.094819
35.586452 21.710134 34.986322
2.439564 42.919563 28.848343
2.527727 17.031978 24.919417
0.996382 40.974003 29.120262
30.731686 16.898978 36.399329
16.482815 31.875279 3.265209
13.361974 17.102314 18.892304
3.909670 25.564426 7.925179
22.763886 31.253134 28.158112
22.261055 21.821034 32.871208
34.068429 7.898248 31.256366
0.546455 32.665446 29.346023
28.386456 37.406231 19.299934
35.586452 22.503332 28.188278
2.837923 10.589537 34.491547
21.666456 29.237249 36.230787
5.538921 2.420206 23.462903
21.666456 36.637194 19.546178
29.229830 6.877922 7.705240
25.983508 33.167260 21.524917
35.586452 20.435483 33.807849
35.586452 33.083533 18.074040
14.672288 17.000388 7.225420
32.518800 10.669197 34.443005
15.312784 33.628297 13.186288
33.144994 33.647398 41.015303
14.305089 20.692794 27.734565
19.956715 41.466480 16.528429
19.865638 6.912379 32.369722
0.546455 16.436936 33.121700
23.654304 18.620631 11.660079
28.386456 6.163492 23.115191
35.586452 29.078636 8.465216
22.647109 24.771281 32.591374
0.634358 20.760724 40.064345
34.267458 38.236279 18.574334
25.367355 16.440821 20.544575
21.068553 1.728484 20.746033
21.666456 16.850097 35.949897
4.701412 19.510303 16.645279
0.546455 21.119816 28.383785
0.546455 31.939409 13.154846
31.523719 15.343923 9.396289
33.941830 6.324684 33.198883
7.482882 16.560125 35.761833
0.901717 9.019406 27.854188
31.886804 28.416506 6.760147
29.034733 6.346787 19.583797
26.657844 30.483694 29.143558
17.819977 22.206750 6.404356
19.078845 22.342256 6.572021
6.305985 17.327324 2.704371
14.466455 16.672049 35.497696
14.529984 32.654739 8.078917
14.466455 9.155305 28.520741
28.386456 30.550309 8.234619
16.326503 5.466573 9.147806
13.831149 32.927430 24.221162
35.586452 17.056842 33.238229
28.400057 21.311436 4.710558
28.357300 12.492513 27.734382
30.029581 34.288623 30.244818
24.310215 16.289271 12.812257
29.275304 37.893987 29.839172
32.014331 41.100739 16.817160
33.851955 5.523782 34.654164
17.046193 21.202336 4.329405
28.126352 21.391595 16.038422
14.466455 34.288748 25.899289
35.586452 28.451184 19.718429
0.546455 10.949450 17.001400
15.820205 9.821150 34.983212
7.279583 7.759458 35.915879
21.666456 36.696963 25.781192
28.586374 8.963184 14.757840
18.915409 26.372407 36.099027
2.739381 17.667417 1.243552
28.386456 20.076546 35.400455
16.730195 18.753514 0.063824
15.377041 33.224451 40.363031
21.584038 18.478903 39.639218
0.546455 17.634636 30.141247
28.862564 6.467373 34.484263
1.845457 14.276429 9.921711
0.546455 28.647429 20.447919
20.825854 22.015225 27.943015
14.466455 35.406470 27.617174
14.466455 36.451435 15.164108
21.545476 37.659030 24.812756
9.494282 31.045620 28.446705
19.112392 38.742011 25.694958
35.582613 10.681129 9.649692
4.375727 9.807490 8.935861
5.789806 16.330700 21.025693
22.701329 30.737425 15.088135
35.586452 18.547985 34.233164
29.060580 3.032745 20.271069
20.581645 32.812235 12.201494
15.539367 16.971650 19.136833
3.123185 41.070864 27.087006
24.585489 27.838018 24.120199
31.563465 34.617452 13.848058
19.550663 17.337639 41.276845
0.546455 27.311720 10.300181
35.586452 31.475209 20.069003
28.386456 17.521263 36.634355
7.085747 5.656080 9.546919
7.138362 6.461015 32.986996
16.694114 32.758603 36.089793
2.745441 8.170102 30.945854
28.386456 12.724246 31.688260
7.746455 18.790264 8.825328
28.977883 7.316566 36.061176
16.811210 36.941916 23.701276
23.171089 24.265802 27.610965
18.146320 39.305482 25.991632
28.386456 21.005207 36.457000
35.586452 17.587734 30.291426
20.600894 2.971734 20.290002
7.573677 31.797700 5.837543
6.282562 20.729078 40.851964
27.844901 28.158596 20.934039
1.772362 6.856389 11.483923
29.794148 19.417096 0.861758
21.666456 19.248282 38.128647
33.684334 32.683714 35.915406
14.471166 17.042320 24.941596
7.746455 31.934274 30.688801
8.395073 29.075122 30.485367
0.546455 26.268798 32.472693
2.341187 5.225960 36.288988
14.466455 6.928507 21.686322
6.770958 17.203579 37.590770
7.865147 26.868064 11.791423
17.458283 25.877227 7.903698
6.775501 35.433884 14.155982
15.042983 19.847550 1.615727
5.986269 21.018842 40.138863
21.386980 27.243748 18.676293
35.586452 9.229197 32.072079
33.966919 38.070608 14.046121
4.382487 23.130507 27.886286
4.302800 36.824772 14.280185
31.519624 8.417067 13.364931
4.357425 17.182174 37.454518
35.586452 22.643192 35.048939
4.444824 15.565789 9.242988
2.352757 39.277565 17.949337
0.546455 11.712276 19.509270
35.586452 14.891291 31.256804
4.352416 8.689614 26.616275
0.627214 39.249582 28.083218
14.466455 32.065231 31.031153
35.445344 9.036765 15.909487
28.386456 33.917486 23.285486
19.514168 17.494455 42.043122
0.546455 27.854262 29.658962
7.746455 9.486222 26.803140
28.547029 21.654600 5.571095
13.661777 26.012662 32.212618
2.408096 8.864718 29.604963
20.626520 16.321691 22.798214
16.328799 33.256124 41.297707
14.466455 32.825396 30.899769
2.610583 24.288895 36.173412
28.900331 18.112333 2.115779
1.643913 7.401981 31.791098
5.750902 40.389025 13.772941
2.683230 31.048131 3.891559
29.681189 22.987526 16.028081
2.881468 17.086115 36.961975
14.500383 18.915527 4.827392
21.083347 32.276612 39.817867
5.074367 36.583807 21.668004
26.731576 19.190282 11.481131
0.546455 9.615636 27.274346
21.649120 5.194850 20.800033
33.321367 18.670967 43.922379
7.746455 17.862194 10.733348
15.303969 8.452148 8.246416
21.214653 12.056891 10.038360
21.332438 22.886236 36.867793
29.772353 33.591185 4.647478
28.386456 10.870914 9.827349
20.532035 22.705732 37.021790
34.877387 13.835693 10.048685
33.817142 40.509375 13.774513
26.629310 18.013770 32.025001
21.498726 4.519678 19.953183
22.819778 16.682058 19.757866
0.546455 35.077427 21.151035
22.580096 32.680238 25.221339
19.332486 24.408400 36.142188
10.210524 27.187127 25.331445
12.744162 20.879863 11.121994
16.461965 43.211625 14.714851
34.708520 18.377161 42.951977
7.545811 7.207177 33.477511
2.705448 42.148997 13.893327
18.580741 8.549582 13.584853
19.975094 4.756282 19.925162
28.386456 33.480193 28.756523
35.009025 13.767206 33.863303
0.546455 31.577706 27.976278
2.971802 33.420604 30.950888
35.586452 16.235549 30.992696
7.746455 36.909487 28.654793
30.771168 16.934837 7.424626
28.386456 21.824338 8.248263
2.798508 20.920121 16.131399
8.457297 13.715501 28.782277
18.606214 32.769852 12.116896
34.191438 33.578905 30.790600
3.150447 39.719671 17.721396
3.845346 43.254729 29.294297
19.363991 21.377512 4.893783
14.414223 11.015515 22.953121
14.466455 27.103996 9.289629
28.386456 35.228020 18.942280
28.386456 18.546366 7.925102
0.561124 19.812122 27.422338
35.586452 31.902063 17.071227
20.445212 28.416639 37.166845
7.746455 28.792143 11.844689
31.111480 32.498829 11.557316
0.546455 33.174879 18.690019
1.377744 21.179106 16.062004
24.437377 31.494632 16.160027
31.240771 17.145695 37.222325
29.342295 5.566696 35.573411
21.666456 33.831516 25.902263
3.179360 17.273473 40.816113
25.777007 18.695916 32.296793
2.834741 6.240649 36.367950
4.154232 8.993260 16.318504
18.986358 43.102275 29.716139
30.549689 34.445067 13.761034
1.724092 32.957585 41.230982
7.834211 18.823961 26.862214
21.666456 38.031391 26.213012
3.612728 43.256978 14.658381
10.445694 14.679062 29.847617
34.653413 22.260269 15.964454
2.831567 32.218737 9.985603
3.088773 22.753550 27.919265
32.288575 7.684533 7.951075
6.418980 9.121485 35.368224
35.586452 21.612312 35.955961
7.746455 13.764338 10.738028
7.295082 6.236481 9.890513
28.405411 20.514038 38.997685
16.776120 6.948909 32.325795
33.546503 20.075655 16.381651
9.254235 20.885118 11.121293
28.339464 11.897590 26.467350
33.268160 25.946186 36.027913
0.546455 12.148531 25.276653
22.383715 20.234908 11.224979
5.604666 7.025743 11.693488
17.656455 25.606231 17.017662
35.229344 12.738654 33.800502
18.713734 33.516501 5.203339
10.569256 11.554252 19.776743
21.039016 21.111727 27.846818
28.628820 40.132305 15.137179
21.666456 10.916658 25.041800
30.441966 9.012472 14.980165
14.466455 26.207708 9.728900
6.123136 32.465672 41.038128
29.194697 18.073085 42.710458
35.586452 8.780098 20.572510
0.894994 7.004976 9.636786
10.074055 15.992301 13.008946
14.466455 35.724859 17.163994
8.635878 11.960433 25.638118
5.982851 31.329057 3.662010
31.427334 41.641016 16.378055
9.717713 22.581932 32.875851
33.254740 22.489558 27.942362
16.971487 11.943098 33.912260
2.530736 7.500612 25.030086
32.999724 34.422730 13.749758
23.507278 20.316039 11.209639
21.478006 8.885730 35.291108
30.945125 7.035640 24.686728
4.619491 29.607129 38.606111
32.458319 32.891476 31.613703
14.466455 33.347151 17.921240
35.586452 36.004043 27.854248
35.586452 32.717522 22.127996
16.679690 5.329492 19.850784
0.546455 30.361820 13.712091
7.746455 33.358401 17.405288
31.701128 28.335373 37.096023
28.762377 21.630961 27.909396
25.869386 21.402398 27.889399
33.568761 21.362122 39.078710
7.746455 9.688414 28.209639
15.719049 16.959290 36.576559
16.202256 7.428403 31.763043
0.546455 31.812540 32.205233
19.476160 20.718038 3.049820
35.535014 38.896472 28.388472
28.386456 31.190138 8.625071
1.144482 31.672812 3.709325
32.282647 8.969716 14.787303
35.586452 11.381256 33.527170
20.430968 2.036415 20.609361
33.616922 27.173336 36.354458
28.572285 31.092106 38.590394
5.663677 0.007639 22.283485
7.746455 6.075640 22.996063
32.263265 40.051177 17.528059
25.989560 16.262040 22.116399
1.663475 18.011837 26.179609
34.524349 28.238394 21.846125
28.386456 24.017520 33.962655
2.901520 8.870970 16.812391
34.916340 37.386826 24.487960
31.936341 23.809860 36.344329
6.012029 40.598834 17.178647
15.719090 7.879557 12.649278
14.506271 24.469014 36.126351
23.025527 11.495504 23.883238
35.586452 12.161537 20.073636
3.904994 26.425779 26.239308
22.442981 26.198650 26.466437
18.049521 16.438812 8.327291
21.666456 8.057165 21.969063
14.466455 17.675914 6.999389
13.847483 20.549592 11.166082
3.929379 41.807859 13.846984
29.777433 15.111098 34.369716
7.515094 39.596040 30.000180
32.146441 38.668465 18.272088
12.844164 25.482093 16.930740
0.546455 11.316920 14.903905
21.666456 17.973578 37.002061
35.372654 3.250627 22.787739
17.313087 32.954189 36.578812
5.733081 21.794580 5.824370
14.466455 31.824964 35.222036
16.327879 27.736191 7.278543
3.289199 6.763237 36.253995
29.236191 33.585236 39.220333
20.188161 32.368948 32.800135
7.250647 2.038628 21.808570
3.104368 12.060986 10.039215
21.671887 12.549237 15.871817
7.746455 36.775186 17.442821
0.546455 28.520253 14.144533
21.666456 11.201357 12.105726
14.466455 17.710265 34.141942
30.798387 24.298022 7.755849
12.623370 17.197277 12.273700
0.546455 29.484101 32.770608
14.017659 22.660520 27.927404
30.599842 20.195258 16.325879
35.586452 19.970726 6.409624
18.672596 7.367968 24.928305
17.454016 7.747064 12.502685
6.895678 21.975930 37.815688
27.816782 32.841078 24.625780
6.940509 22.571354 37.144924
32.892407 36.564093 21.910760
0.546455 21.245958 6.279127
29.608766 28.595633 37.330279
27.962670 19.981568 27.501351
3.669196 8.548883 26.309500
21.666456 37.684044 18.293799
11.075133 31.153149 15.626335
10.867559 13.678846 15.191226
14.993529 4.844257 19.914746
14.466455 27.149347 35.683137
28.651117 3.036084 20.921389
28.386456 10.688791 27.795349
7.746455 34.921534 21.762044
34.888796 23.866697 16.208972
7.734156 38.253305 16.287475
13.422619 19.522293 16.639688
2.896296 33.599892 4.561137
28.386456 15.144455 34.230338
16.703262 33.587580 39.243604
11.612708 18.795156 26.842044
28.959289 7.756396 25.259216
5.063698 17.151411 6.668168
30.133333 16.555377 8.171394
14.980566 20.444974 27.668162
5.005528 21.403648 16.037367
23.604915 24.401337 16.372175
19.440305 21.156537 27.858825
17.119698 38.626295 25.631755
13.246263 20.184694 11.234473
3.960353 3.372287 23.744228
19.681644 7.770471 18.652679
5.514704 10.296582 9.248383
28.386456 13.856138 13.032323
33.871432 42.717051 28.613177
4.864057 15.071124 34.346861
1.394244 32.927936 3.570937
35.395474 8.181447 34.541216
4.909554 42.881481 15.125919
20.928608 7.500674 31.686167
23.700538 18.189665 17.569438
3.005338 8.530001 30.374520
14.650266 7.197749 10.661584
2.786615 36.966126 20.169152
21.505637 39.628446 28.728158
35.586452 29.594071 29.245729
35.586452 18.892234 16.267631
27.678062 14.445315 14.315044
28.386456 11.856652 29.743289
7.746455 32.774335 29.877744
0.730774 40.229819 27.532124
21.666456 24.925687 10.354898
20.406106 19.645539 1.170535
0.546455 34.920748 14.737125
21.666456 36.243057 18.127775
0.950548 8.934968 29.296312
6.583131 21.499611 27.897905
21.239042 7.504562 8.529939
16.968499 29.179438 38.064186
5.988316 33.435007 5.670175
23.640042 11.433992 23.496430
28.614790 16.842879 24.513893
35.586452 6.513758 20.250483
0.546455 27.851825 19.742073
35.304038 32.303054 38.454692
28.341693 14.638406 30.312737
34.254197 9.286056 8.639828
31.328190 21.175243 4.239436
11.090382 31.715764 27.399327
3.616189 8.821530 16.992405
21.666456 11.940656 16.371620
35.127610 21.475004 16.031124
35.586452 33.136679 27.214942
14.466455 20.102788 36.085979
2.340409 5.319428 35.138447
35.019339 32.586318 4.343554
14.466455 21.410303 7.593196
22.771442 17.919362 26.087134
12.649215 24.307944 16.328625
11.672291 21.590776 16.020996
15.201807 24.466752 16.402678
14.466455 20.843301 34.103376
0.598695 9.648866 9.317164
2.597220 21.322506 39.198419
31.507834 38.321151 18.505782
35.586452 12.693219 26.030675
35.395207 39.343192 29.992983
7.746455 8.869859 24.586894
29.292610 21.769041 38.148716
6.765681 38.222013 18.585858
4.853403 41.639450 13.827443
0.546455 26.804261 16.584019
26.903581 24.111981 32.730338
35.586452 24.425775 30.939536
19.301421 28.639150 37.376482
4.558187 34.345940 30.215883
1.816743 37.176275 19.769415
28.386456 35.920699 18.522184
2.905693 7.002618 11.665679
21.471088 40.295217 27.593068
25.716899 20.333037 27.638168
35.108816 31.538356 39.845700
29.960866 17.645878 42.615977
19.189473 16.784193 19.538837
1.823701 21.262956 39.396170
9.723914 18.844021 11.576844
10.541985 16.668719 24.140406
32.763743 18.212613 43.842386
35.586452 21.771149 10.731704
16.899095 31.421689 40.335056
3.680455 24.444174 16.392150
31.549365 20.419572 2.436879
7.746455 19.353031 34.259823
3.133455 16.755795 19.599737
21.639330 9.605129 33.783578
35.586452 33.927231 27.631048
13.901015 11.477038 20.113481
35.586452 35.055295 18.109487
19.344753 6.444442 7.603221
2.119466 7.691233 12.443316
17.015685 22.035173 6.186433
28.386456 12.988723 32.988355
32.825202 16.884056 36.370665
35.582314 19.358719 5.410158
2.334370 5.382357 8.942096
28.386456 12.937522 13.529341
15.661984 6.514760 11.018081
30.337442 14.130432 33.963104
29.139458 41.747941 16.285931
34.455810 12.795259 33.798031
20.544790 40.696983 17.113078
5.328451 41.051982 13.783850
7.746455 34.879328 22.760871
21.016796 1.567312 22.179989
0.546455 8.643312 12.343627
0.546455 20.468805 34.674590
8.590360 25.002317 16.652416
28.422248 31.293769 36.942248
21.416951 39.997238 14.717451
15.417239 39.504665 13.820016
16.045378 18.919976 0.253752
35.586452 10.250229 23.251298
19.154486 8.888902 29.504103
20.446355 37.993463 14.064297
11.473637 27.039049 25.542924
0.546455 23.405970 33.416352
21.978517 21.303061 27.880709
9.985577 32.930725 24.206192
14.466455 28.582904 33.910420
31.057660 27.738977 19.594284
14.265601 33.030152 19.457774
21.666456 11.157920 28.252934
30.254282 27.167790 7.574714
6.783983 17.186501 6.444813
33.808326 17.237909 40.536240
7.746455 7.880352 21.119134
20.733715 39.077371 25.876610
16.206651 24.444646 16.392370
35.586452 10.571839 15.473517
25.235591 12.287763 26.436035
0.546455 9.085984 15.300040
0.546455 33.868188 18.931796
35.586452 31.714232 32.014971
7.746455 10.848401 23.983740
0.976110 10.370503 9.296837
30.746061 36.564978 21.899860
34.748267 6.561503 11.081819
29.866448 2.957160 23.632351
22.686424 24.888338 27.327609
19.269173 7.448272 31.741895
28.386456 26.744515 33.318301
0.546455 10.819519 31.219390
2.707828 25.683405 17.071700
17.658366 10.055299 34.836629
21.666456 34.249515 26.998228
2.537492 21.975140 27.939508
14.397526 22.854180 33.185656
0.597380 32.212202 10.195219
31.113493 26.703875 25.961212
0.546455 12.260193 11.529051
7.746455 17.108937 33.145335
31.470962 32.217410 10.028164
7.746455 19.731670 37.125719
30.713642 15.112834 9.555962
25.291652 25.200407 32.474728
20.506912 40.109144 13.782486
21.785553 32.984706 18.879361
28.386456 33.938944 19.705875
14.466455 11.827516 31.840471
12.418250 27.192046 18.602455
33.279555 33.568840 39.057665
31.050664 6.229840 10.580591
5.366042 27.652217 36.596295
6.205673 3.876966 20.065277
18.307963 36.896222 20.332140
35.454186 3.829056 23.373800
7.759156 12.310159 16.376630
1.959300 31.541095 40.421037
18.206538 17.196049 38.973539
5.149563 28.312605 37.076182
14.466455 18.084909 7.575548
0.593914 39.332532 26.788661
2.277506 0.001495 22.173451
3.466403 38.773932 13.911585
30.975325 6.004937 33.721680
0.546455 27.268840 7.721086
2.970628 40.117668 30.144801
17.437357 18.675805 0.003680
20.508364 7.790834 35.938673
29.197269 8.823182 26.940485
14.466455 35.377497 29.703204
20.701788 17.193177 39.024003
35.198775 36.866006 14.279414
32.689138 6.325951 10.729965
32.782029 31.902477 3.245624
16.652994 32.895491 7.511634
7.746455 13.101740 10.227930
35.474685 39.513664 28.008194
28.386456 10.759639 15.794874
34.726796 16.507022 20.297510
14.466455 12.570871 13.799770
18.443836 18.195372 26.363144
12.654573 23.486518 16.107103
7.746455 19.491084 7.618813
7.746455 34.984091 15.604587
30.249621 5.498650 19.825071
34.076839 6.867813 32.427375
20.206116 33.638301 4.108922
29.553018 13.623852 33.846246
35.586452 9.471553 22.826569
1.355359 36.212456 29.639087
35.287097 40.098921 29.538969
7.746455 24.816263 35.913710
21.684715 30.883044 29.389543
10.760740 21.956494 11.048798
0.546455 30.359043 12.919011
35.398345 32.569725 37.741638
28.493975 31.279293 37.838546
0.577385 20.032611 16.401723
14.466455 6.019147 21.662861
15.064752 18.327579 42.112465
28.386456 31.915274 10.214863
2.660882 19.579012 42.854070
18.940440 36.599280 22.449386
15.171257 8.791783 29.787445
6.921510 28.147742 36.932507
0.678560 16.254012 22.024641
0.546455 19.105936 6.510281
25.403246 19.527378 27.289559
26.289694 26.950602 12.097791
2.957182 30.710859 39.746872
17.142279 8.817134 17.008413
28.386456 30.014409 7.710066
7.746455 11.879293 27.900995
4.411953 36.614393 21.291396
21.666456 37.300955 26.983439
9.341712 11.439991 23.553014
7.746455 18.340170 5.902856
29.951352 1.485399 23.085175
19.571939 29.339279 5.648702
0.681827 19.214773 40.179575
28.386456 10.058542 16.998368
34.441210 19.720116 1.280093
14.466455 12.247540 28.051736
29.088421 25.612017 7.921911
6.167359 19.170373 43.383924
19.113553 8.243436 18.098068
27.488108 25.072216 27.241865
28.593712 17.188244 4.399832
12.761464 27.140121 12.189873
18.428056 37.595013 14.157330
17.026523 20.693579 2.994217
0.920423 32.357616 38.890474
3.341282 32.943243 12.386133
7.746455 11.599690 16.412077
1.284189 18.782002 42.625580
14.466455 10.248693 30.151122
9.514818 12.982470 16.193619
34.426091 1.709441 23.186071
35.586452 11.227335 15.224734
11.741831 17.310225 31.714182
35.586452 34.215426 15.242526
1.621822 5.242973 8.298155
26.384013 23.629794 32.803234
33.187639 30.031971 39.083543
28.386456 25.845481 8.152002
1.373309 32.279037 33.198033
35.586452 28.183873 8.961570
7.667821 19.512100 39.801225
18.324196 32.251076 9.429598
35.586452 33.197290 12.995654
21.666456 26.423837 10.305033
20.892891 20.974948 3.669101
3.368433 8.545656 17.624412
16.316443 27.863617 19.861576
28.059574 27.668264 31.520312
7.720743 38.852410 17.183694
1.764574 6.849023 32.452997
33.660834 20.850387 40.576206
30.770621 0.049025 21.618295
0.546455 31.318256 10.513184
18.421778 5.757905 9.757973
0.546455 29.784181 21.773640
23.297531 32.816126 24.726816
2.202936 11.792288 33.943727
32.422942 28.217079 22.324373
35.586452 31.512961 30.608884
28.465961 10.796218 34.365601
14.390366 28.880691 31.026501
0.546455 8.944944 30.122603
18.670929 33.648308 2.953945
0.546455 22.125029 31.053347
35.510552 36.571293 22.104783
21.666456 14.758723 9.950095
28.386456 20.726433 6.773281
6.863215 25.724926 17.100773
19.105251 4.675971 19.934680
30.733097 22.846109 16.015709
0.546455 14.448231 17.116875
3.896694 17.210399 5.206593
24.262524 31.157284 28.294651
28.437803 4.434007 20.872592
17.008432 17.173701 37.400590
9.633885 32.858740 19.393653
3.392555 20.219580 2.070638
19.506738 19.187617 43.361647
3.140757 21.180765 39.669104
11.746551 28.174248 31.137003
31.482362 0.022191 22.292308
0.546455 32.172956 34.094617
21.666456 33.019204 16.760943
34.937581 32.323384 40.022851
19.477213 41.334711 13.804830
23.816890 13.772044 28.854200
2.587075 27.668020 7.320787
16.629556 5.483275 34.738274
1.425887 32.502293 32.358076
28.770665 32.144195 39.075780
7.746455 31.757123 15.311531
18.567659 19.958843 1.632332
32.438793 10.674850 9.487315
35.120945 16.176279 35.248470
35.586452 33.414629 28.535846
0.546455 30.923120 8.686531
15.451093 27.775953 19.673580
27.215642 31.553958 27.668250
15.147706 32.991267 36.682107
21.666456 31.475773 35.447104
21.556216 18.610643 4.051204
1.608909 17.148917 25.101128
18.058792 33.045182 12.529802
32.952234 17.230413 38.246231
14.466455 27.188236 10.891667
28.575047 31.330088 5.440651
25.644549 32.666445 25.267143
28.130851 26.615451 11.834613
26.431555 18.473371 11.718753
0.546455 12.240918 30.265504
35.586452 35.706502 28.656722
7.746455 23.866289 9.962926
7.667647 28.166312 22.904645
7.270880 37.096312 19.894930
9.889213 27.748905 19.615574
28.386456 32.882270 31.585994
2.988281 17.975758 0.361946
1.104580 29.268796 38.183850
0.549363 5.458924 20.567067
2.699495 40.770643 13.777917
29.972591 18.832615 43.772792
35.586452 7.870970 21.170303
8.058510 17.373360 25.421665
21.666456 13.001522 30.178314
24.739823 17.900309 31.979794
14.298761 11.668144 25.328679
3.571910 8.910744 14.521297
18.478946 26.881361 18.158751
31.074961 33.633549 2.848454
18.313883 25.215407 27.175095
24.249992 13.002482 27.766518
27.729076 28.017569 23.527567
28.296098 31.298942 28.564712
15.877443 36.577347 29.642065
28.386456 33.298251 25.959608
32.413309 33.336383 2.674748
35.493409 31.652007 6.436271
18.372675 39.954765 26.342596
2.274390 16.682768 7.942882
28.386456 17.724685 32.963518
16.970614 4.925849 24.021800
35.540620 39.317408 17.247037
6.736452 25.824424 26.756433
32.857699 41.659854 30.097920
35.586452 31.093971 21.508251
35.515422 30.885199 37.745420
2.476109 17.211976 5.234440
34.075144 0.000979 21.825922
35.586452 9.873848 18.492934
1.175221 41.590778 14.824870
16.353111 36.001229 14.257297
34.118873 16.532649 35.725086
15.065282 23.255196 27.875377
35.586452 20.751552 6.077881
7.586787 40.101462 16.584427
35.586452 9.622643 31.192626
0.546455 28.524694 12.849107
28.880245 6.896419 11.537963
15.743989 36.569856 21.839791
7.059441 33.499148 4.451370
8.766543 28.245729 21.996903
22.463455 26.442639 11.885576
14.466455 29.186493 10.565393
7.746455 30.056897 34.953259
23.273330 18.958364 16.970552
14.847107 40.469060 14.359213
7.746455 31.262312 9.788559
35.586452 29.674577 18.349167
35.586452 31.433923 26.151683
20.216619 17.368984 2.484889
7.746455 34.611169 29.304510
14.437936 22.044780 33.306260
14.834189 2.557878 21.801024
1.734102 15.298199 34.498996
21.666456 21.765433 7.273887
28.315125 11.560229 18.504401
35.586452 21.098353 14.520086
20.911081 26.918127 25.715618
12.964523 14.005076 29.134289
22.291754 26.327685 32.087101
0.546455 20.762661 35.425831
9.683818 20.297677 11.213111
15.998330 1.132874 21.005156
15.370845 33.182942 6.664562
21.666456 19.730094 33.853856
28.386456 30.911445 9.347254
18.561393 21.174460 39.690066
35.586452 34.476257 23.773893
7.132659 1.680122 20.929582
35.293883 6.434951 33.199882
34.782354 27.944234 7.149623
23.908349 16.852655 24.534856
28.409137 19.573893 38.962158
7.746455 7.036835 19.570946
33.695415 32.258980 9.389204
19.141153 8.464300 26.157134
28.386456 20.858525 9.238757
15.641445 18.169618 43.619638
14.466455 17.356839 10.948454
2.037637 2.639878 20.392994
17.841587 0.842596 22.769090
7.714935 7.990066 31.901091
32.534206 41.619565 27.530342
21.766173 33.134696 24.544772
28.556165 7.061975 32.189814
14.748169 40.579644 28.036689
7.746455 38.025733 27.439670
21.666456 17.837370 8.787347
7.746455 11.211494 17.718704
2.199101 32.565970 32.226679
27.306549 21.292016 16.047134
18.914133 8.194357 13.013546
28.386456 12.219354 28.506671
0.546455 13.042955 17.576865
16.168840 34.133520 13.574834
13.809235 32.068216 26.748157
28.386456 18.617202 37.312353
34.796654 32.256229 9.403264
0.546455 9.803662 29.169588
35.586452 19.276126 6.202341
32.734926 32.475292 32.447586
28.386456 29.373711 12.800394
34.210679 40.002652 17.556365
7.710146 19.651971 16.579218
21.612761 16.495397 20.340895
5.137391 17.915723 0.516463
0.546455 14.196196 32.737104
17.024323 41.734861 27.629679
15.544640 5.431853 9.063008
35.586452 28.729486 26.792519
7.591462 34.338936 30.219419
0.578478 39.322277 17.904688
32.826993 14.600992 34.124057
6.563652 8.968132 27.468264
1.486016 4.173413 23.915240
29.311483 24.815324 7.877347
0.546455 11.339115 30.648881
32.807491 26.401276 26.263811
5.056369 9.541716 8.783975
33.771447 22.024151 15.983080
35.586452 25.602209 13.388334
14.466455 34.445512 21.367272
0.570426 18.631050 38.814286
35.338092 40.729871 27.144129
0.546455 31.962084 13.863939
31.896661 14.649940 9.779623
14.468185 9.107329 11.590022
21.666456 32.832367 28.926227
33.838654 27.723597 19.561302
7.817932 21.433902 33.168848
0.546455 11.400676 25.239152
20.449609 42.259429 15.803062
28.386456 6.788273 22.712822
33.544529 17.152751 6.659639
18.261877 19.322654 27.194095
28.388842 37.750092 15.598847
27.848605 25.161218 16.726513
6.194636 22.457877 37.248906
33.074865 28.633951 6.555915
0.546455 13.290647 24.642618
17.016287 21.150121 39.770932
21.666456 29.224088 10.354734
0.546455 8.809285 31.631257
28.607577 19.016844 26.997272
33.431230 38.210404 25.331641
0.546455 31.964931 14.656223
6.610392 39.520944 30.108644
28.386456 31.858752 11.246793
12.932289 25.197126 32.475620
28.552252 9.050937 8.658184
24.696574 33.168040 22.373166
28.386456 11.167864 12.247908
35.586452 28.118554 23.455227
16.698535 3.795149 20.080076
7.746455 10.500791 14.913291
0.546455 6.211850 20.007132
5.408206 17.188644 39.617692
26.500123 30.619212 14.937765
20.483647 35.158512 14.069158
14.097049 13.106256 15.894880
0.546455 11.258486 14.069562
20.392450 17.808991 0.800909
17.568731 4.385232 23.953545
25.785325 31.928814 16.887647
21.497553 8.249307 9.552761
24.470657 29.137957 30.431996
21.666456 7.180627 19.990987
4.837893 0.840095 21.159086
17.209313 33.647320 3.880754
28.386456 7.229137 21.858439
28.882865 32.567437 4.582037
32.668572 28.652586 37.390746
4.255394 26.559603 36.142983
35.351120 16.740999 36.095854
30.052738 33.386432 5.884699
35.586452 23.620762 34.797440
7.141858 21.369176 39.057803
19.565516 18.017164 43.671484
15.338764 22.066580 37.700552
17.579352 33.678444 30.689812
28.386456 12.522442 14.125319
20.099600 32.467595 8.547010
2.640144 6.661288 32.708992
17.307026 16.452084 23.424334
19.655412 39.269165 25.973319
1.275969 37.998039 14.063220
34.831409 8.869815 27.110278
35.586452 15.848604 19.460651
35.586452 19.513731 28.352113
35.586452 10.072405 31.792841
11.097694 13.942331 29.066228
21.624859 4.618112 22.082667
7.648341 16.805089 7.707907
28.386456 35.115298 20.377981
15.233213 1.210274 21.539673
32.527284 9.044063 15.450634
35.586452 17.995518 10.117403
28.386456 38.130139 26.444290
6.171285 5.441493 9.086543
0.546455 33.982284 27.316571
35.586452 5.665202 21.131278
7.746455 32.530679 31.827201
14.836569 19.419748 2.471743
34.453509 21.434794 38.863305
33.240046 19.079715 0.436005
5.388526 32.293450 34.713833
35.586452 14.596167 13.396843
35.586452 35.056354 29.034068
14.489171 8.362759 32.140686
0.957032 10.260689 34.702003
16.185069 16.339239 35.466415
35.586452 32.407881 27.329159
14.466455 10.740849 27.437869
35.586452 17.795771 10.851586
21.666456 35.967609 17.337892
34.887913 15.845067 9.001107
20.214954 10.111975 9.127386
19.096078 42.883252 14.024907
32.512405 12.307124 10.090572
35.586452 29.420360 19.878781
33.291025 27.947398 36.779214
24.558391 22.060238 27.946953
19.247462 17.230985 5.704795
32.475800 9.212312 8.603454
3.258334 21.307676 4.679197
15.645491 19.122082 16.855915
28.386456 34.848535 26.389428
30.839643 35.101003 14.051026
28.386456 24.942983 9.478265
