2.994971 7.396466 31.796961
26.606166 17.527439 12.107156
7.746455 13.029866 29.827121
12.932289 25.197126 32.475620
1.730280 14.006677 9.999425
27.544782 20.595409 32.766909
19.301758 30.226491 39.286774
25.671497 21.699033 27.916658
35.586452 13.974817 10.384090
0.546455 9.825485 18.944417
20.530694 32.271617 33.254390
34.357283 20.297455 16.312267
2.550318 41.667884 16.354904
5.574508 24.827249 7.878465
0.546455 7.826870 25.143283
3.976244 30.947041 3.974161
4.995253 39.260943 17.957717
0.546455 25.401032 10.508685
6.963069 32.846955 31.676448
31.767494 25.741173 26.818740
34.030737 21.130544 39.835999
0.546455 22.072074 6.374585
11.783107 27.003320 25.588614
0.546455 23.457597 15.554680
15.333998 39.765744 17.694552
2.985948 29.319342 38.251524
17.615926 17.883154 0.600332
6.140719 26.612367 26.061977
28.386456 9.758959 13.345965
15.798308 41.655220 27.561062
4.070993 5.908219 33.894369
7.746455 15.986145 31.984224
19.043479 17.951010 17.797607
35.322141 8.982890 14.846725
31.927916 8.293925 18.023013
30.283841 39.364043 26.021139
34.776566 8.808576 35.522564
12.076249 29.480386 13.785744
29.837227 33.621288 39.578002
19.421592 19.498056 16.652035
32.854796 9.937249 34.914029
7.735608 21.231741 39.138568
1.325670 4.360622 23.949112
0.546455 17.804733 35.938731
0.655134 16.837995 19.394377
14.466455 31.148211 32.732284
7.746455 34.003532 23.156869
0.546455 27.822287 9.296358
34.340487 2.125580 20.575581
35.586452 30.024946 30.001835
0.546455 31.734901 22.965687
28.021188 24.051640 16.259897
20.052005 17.231586 38.196702
5.245220 17.235669 3.408262
20.028865 10.923581 9.638885
18.406952 29.338039 38.276530
21.143190 8.951629 29.221161
20.291161 19.591490 27.323120
34.499207 23.735520 7.549559
0.546455 10.263998 22.245845
0.546455 25.326986 9.695540
0.546455 24.922474 28.444588
6.218762 32.783870 31.781330
21.666456 33.468334 14.168576
0.546455 11.469298 16.041981
28.386456 35.747082 23.395015
18.445338 32.917473 2.637952
7.746455 23.170451 8.817327
6.468716 17.238915 3.382717
31.942745 7.291673 24.869761
7.746455 12.517937 13.833987
26.609376 20.158503 11.239425
29.059468 31.741912 3.485989
27.836830 26.138713 26.515936
5.744261 0.001596 22.187547
24.933940 18.380218 32.171007
7.746455 20.168865 6.678924
0.546455 24.677137 8.127158
19.644121 32.507502 2.863028
5.122231 37.464987 29.743431
31.750206 25.417336 16.885587
16.929778 1.276729 20.935676
28.386456 33.375995 15.167869
18.921480 32.214087 10.235495
35.586452 20.950313 10.436286
4.272678 39.441147 17.866863
0.546455 16.718827 17.217617
0.546455 15.712724 25.065988
3.777205 16.697244 24.232152
17.812909 6.837494 11.458159
28.386456 7.298716 20.045670
21.666456 22.967975 35.767712
34.793163 33.189419 3.894590
9.243306 32.711991 18.810981
0.546455 14.607768 15.954258
25.770450 28.543489 30.892448
18.609770 31.191822 3.774151
7.746455 30.976876 33.730041
16.110626 17.215616 18.735172
23.270216 21.002088 27.816578
35.586452 28.322396 21.418219
28.386456 11.214681 27.226844
20.617366 21.696937 38.279179
15.332551 24.020092 27.679914
31.004556 37.046180 19.982503
21.666456 14.330189 33.460474
19.127898 39.296047 17.940004
20.141884 6.547079 32.864725
7.735422 20.284451 38.802931
21.211237 17.408575 41.445911
11.053535 26.376930 11.859396
7.746455 9.035783 25.175378
16.102230 28.878315 37.671804
3.896560 33.650660 40.863835
35.586452 32.052788 17.266755
6.281691 23.770054 27.745019
10.932793 11.903868 25.481535
6.496083 17.603210 18.192784
34.166188 17.237730 37.937359
34.833574 17.189000 39.098191
30.529119 37.036951 14.265790
2.418169 25.986003 26.653263
29.977476 28.018814 20.360341
21.138189 1.955596 23.218729
9.175537 25.065545 16.689064
34.643248 5.741404 9.723777
2.657901 6.442721 33.015429
20.887724 16.327068 22.788189
18.644154 17.005851 24.844240
35.586452 21.200695 15.435950
31.436327 25.260672 36.007768
14.516504 20.382977 39.681328
24.735728 21.869007 32.873337
32.159441 22.995246 7.130456
29.897946 24.125308 27.652518
0.546455 16.447713 20.132665
0.546455 10.430496 23.277730
14.466455 36.739612 24.928725
6.107733 7.925281 18.487906
10.797446 14.215223 14.564633
21.808996 33.071517 19.363490
3.476410 40.772468 26.864226
13.205956 28.232989 21.976502
6.096691 29.984945 39.034411
26.611453 26.086942 26.565555
35.586452 8.152721 24.905842
19.059716 21.456989 5.129360
4.879915 27.493598 19.079317
35.586452 8.673768 13.826686
4.653278 17.822094 43.167021
0.546455 18.224078 6.501084
17.728691 28.471630 37.214768
31.487712 32.302779 9.165370
27.263173 33.072494 20.516953
30.633718 17.427569 41.750655
26.860410 26.855375 18.148779
1.643922 41.686299 16.339037
2.379341 32.221398 34.026637
35.586452 19.957331 28.473096
17.403238 26.093825 17.384249
9.451327 32.416331 25.971826
7.746455 12.311153 32.191592
17.238192 4.802997 19.919636
19.653132 17.602049 1.459919
3.161619 36.683614 22.928988
11.963415 12.123672 26.073660
20.342326 41.198427 27.183978
7.746455 32.220291 15.954462
6.025684 32.417888 35.252749
29.861754 16.873989 36.351325
33.491729 27.708329 36.631067
0.546455 32.693330 22.973822
20.034566 2.586829 23.517418
21.666456 30.460207 9.056587
31.579429 36.718169 29.644698
18.435338 17.819780 0.767143
7.641561 31.883657 37.448949
6.888718 4.148410 23.910716
35.586452 35.773917 18.960445
14.730262 7.261571 19.080213
15.829969 19.470613 16.667365
17.516675 26.481088 36.124546
29.050072 19.112730 42.451423
28.386456 31.407142 14.328353
10.316291 19.771876 16.499069
24.151494 11.390448 23.085700
33.890683 24.007075 27.683303
33.379766 33.449918 5.604321
35.586452 15.446939 30.706135
35.586452 21.384169 11.582384
34.704791 26.868350 18.163521
11.763741 16.495631 23.594229
31.523719 15.343923 9.396289
6.917690 42.452432 15.489081
27.653879 32.976790 19.929959
3.658479 20.305107 16.309563
28.386456 23.736579 10.525939
7.115282 27.712569 7.293181
7.746455 36.838164 18.220539
35.586452 31.242590 13.932702
21.151810 40.824224 30.113756
0.546455 29.916959 32.644089
35.586452 30.830418 31.806557
5.722923 7.641313 35.990896
28.235839 25.400044 32.628389
13.155738 32.533241 18.278683
30.502363 34.841993 29.965465
7.746455 7.880352 21.119134
17.223406 31.836056 3.293451
7.891025 31.254904 28.501317
34.401164 40.729910 17.091081
0.546455 20.740620 11.446660
34.547834 8.190142 8.136504
12.727282 24.315284 16.353049
28.872274 37.820055 24.992943
24.095256 19.337117 16.741940
21.064294 9.030739 15.213385
24.360709 32.305072 26.225091
0.574981 20.437359 39.207223
28.386456 6.901933 19.415950
29.537856 5.832324 19.760222
4.296987 23.789536 7.573528
28.386456 32.882270 31.585994
1.264880 5.789931 19.771267
32.843366 41.905126 30.066680
28.386456 6.599303 20.435821
0.546455 18.139786 34.003524
28.197217 21.548657 10.906707
24.033526 26.892756 25.738106
0.979458 2.270143 21.899235
17.961220 27.195494 25.328777
22.348322 25.095346 32.503286
28.386456 20.593396 6.729768
0.546455 14.053256 19.286877
2.957462 7.461310 18.926948
7.364849 41.308665 16.659096
20.129428 32.213499 40.878916
15.311712 8.983575 16.402385
7.746455 10.261253 12.795395
14.490636 17.984232 38.720322
22.788517 22.833257 27.913681
7.746455 36.775186 17.442821
5.908656 42.208380 30.025503
33.991162 36.702408 29.644404
16.766326 30.764071 39.796074
3.917831 10.216539 9.195917
7.075776 32.229636 9.636003
7.746455 14.194865 30.507201
4.182638 29.324857 5.668014
35.586452 34.822239 13.959070
3.215993 40.337743 17.353070
3.821087 5.725688 9.691193
14.420271 28.550277 31.328674
32.455203 32.970630 7.302323
6.777730 21.265111 27.879725
28.386456 12.366086 33.435746
29.638720 37.413440 29.733077
20.251510 32.214901 10.108653
21.666456 22.759438 9.988255
6.213844 20.275882 16.319889
8.693995 24.469142 16.407410
5.761954 40.790378 17.050685
0.947145 33.263962 38.463784
17.931260 33.855969 30.554223
18.338495 23.089472 7.192149
35.586452 16.067822 34.279112
14.466455 28.804020 35.622322
28.733726 32.859361 38.441392
35.578482 38.223547 16.504738
0.800079 30.654681 39.238342
21.666456 36.877455 15.594245
5.713458 9.028205 28.758615
17.366163 7.248766 11.961666
0.546455 29.372188 8.717785
4.204245 9.882547 34.948159
6.123136 32.465672 41.038128
20.522403 17.849657 43.240304
0.546455 15.683575 12.168164
29.920476 8.919273 14.559768
33.472367 39.614684 30.118919
28.386456 13.938302 12.789188
28.823870 2.275781 21.142984
31.192533 42.785507 28.688498
29.092455 24.165582 16.300155
21.044180 25.934839 17.255877
34.865716 11.188583 34.165128
7.746455 35.137855 14.329415
34.997050 16.264022 22.295843
28.386456 12.619102 12.777631
1.991852 6.728825 32.616898
1.236832 6.014684 34.984166
22.490911 11.565205 24.199897
23.737510 21.243410 11.087460
7.746455 36.198601 24.115664
35.514400 4.264215 22.646503
4.848146 33.253591 6.422253
24.439139 21.310530 16.058662
26.834379 28.238129 22.258086
29.556046 26.948412 36.261291
24.436007 17.172928 12.287207
20.843799 27.635633 7.340857
0.984036 6.431113 10.893403
13.247883 21.749173 11.060038
17.551436 37.963587 25.132282
14.466455 32.281021 31.113360
17.157906 17.595805 18.201198
5.369250 20.409299 27.662228
18.253274 0.001784 21.712940
21.666456 12.123219 14.893840
33.658534 20.718479 40.876056
16.131399 20.961840 40.293301
3.580672 5.497242 36.492448
24.992917 16.143784 31.018261
20.996589 41.686527 14.719123
35.586452 23.499587 30.021726
35.586452 10.785447 29.202173
20.306965 33.527901 41.140425
35.586452 31.319503 35.854005
35.586452 29.945571 7.290785
7.315389 17.320778 2.738859
15.661984 6.514760 11.018081
6.874775 21.678903 5.615068
16.622708 17.234749 38.063169
35.586452 21.905878 33.037778
15.152174 32.912265 39.813067
35.586452 10.667509 20.820562
16.055269 6.301692 24.327615
21.165575 41.528303 27.451711
17.782875 15.762513 34.846248
6.872142 7.720915 31.451988
0.546455 27.611327 19.197896
2.260875 5.711378 34.265331
20.186901 37.536988 24.676192
28.386456 10.477556 13.626661
28.513542 40.115610 26.436410
19.485754 32.607366 32.142074
7.705272 7.962260 32.266639
3.539837 8.931388 27.334474
30.649115 20.938301 3.569762
28.386456 26.568892 10.423117
10.991690 25.229796 11.460136
14.466455 25.407748 35.729304
20.279978 31.518848 40.405017
14.466455 30.541996 8.128018
31.943513 12.240928 10.076760
12.993011 17.265057 12.236103
35.563220 18.979834 38.871006
29.382290 2.574022 23.513443
30.725424 33.607052 4.490078
28.386456 19.814214 33.849005
27.155401 25.218636 27.171914
1.162173 40.606229 13.775774
28.386456 11.020034 27.958706
35.586452 14.903339 27.729888
25.934268 17.996896 11.908598
17.268418 18.740779 43.877584
32.981211 30.361596 39.423922
19.561177 17.195110 4.936629
31.899921 24.445241 27.531316
20.469925 39.759147 17.698372
18.940440 36.599280 22.449386
28.937072 5.845797 34.105513
22.760377 26.280249 26.380286
22.893024 11.333499 21.397754
0.546455 14.359093 30.902733
34.721042 31.979849 3.195469
6.018668 19.536358 16.630637
15.071415 1.706778 20.772940
21.854934 28.165281 22.826971
28.819324 17.359248 41.346302
0.861487 40.299322 29.223255
35.230295 18.090229 41.153455
14.598316 33.339403 12.893769
0.546455 14.081189 23.403082
18.311134 22.673798 15.981498
29.050470 41.990410 15.610107
19.444724 25.897141 17.225437
4.649669 8.299496 18.014732
34.665007 5.370270 8.912603
21.666456 26.931539 10.283900
20.867053 1.119089 21.293011
34.730334 13.810806 10.055855
28.386456 19.598480 7.392496
5.883296 14.327710 34.019940
16.461965 43.211625 14.714851
0.590472 38.541888 28.830156
35.567433 19.683075 38.895853
7.852242 30.177700 14.083091
30.642766 23.427506 36.513993
1.955699 41.644580 27.551892
0.546455 18.103067 12.235697
8.691280 22.123393 27.952776
6.059659 41.305400 16.661578
23.858561 13.750068 15.100630
9.784917 19.807313 32.613467
5.701839 39.669794 17.750487
5.975935 9.829012 34.978749
7.746455 21.107600 6.225551
21.666456 10.398773 20.120153
19.595381 27.744952 19.607479
4.095807 29.332373 38.268971
26.446621 16.921174 12.426856
17.547751 27.192308 18.589993
17.770382 33.066576 41.370792
14.466455 32.589553 12.866332
0.546455 23.532124 30.376758
16.771551 27.822103 24.180625
19.081486 32.645165 8.101210
34.684531 0.852815 21.854065
6.522051 33.653858 3.212407
29.652108 5.529573 24.106506
6.430800 9.040785 28.534608
17.143868 42.873424 14.022956
35.586452 14.908637 21.639746
14.483166 20.410660 38.945919
0.546455 35.198507 20.096112
0.546455 13.526298 25.179236
7.907738 17.641651 25.788258
7.709503 38.564364 15.572443
2.181557 32.738976 31.873086
14.466455 25.151739 9.518887
34.527897 29.347566 38.289262
35.586452 17.190281 28.169401
35.586452 19.234852 32.469590
27.410902 12.991964 16.177840
16.092568 8.197148 13.017289
1.349935 22.311554 27.958085
18.407171 19.627261 42.783190
7.527125 3.611954 20.124023
18.047116 11.399077 34.084026
7.842250 26.092053 11.447075
16.074779 39.424826 17.875067
20.345758 30.083965 39.137866
18.491372 6.681073 24.496497
14.537483 27.317043 18.792574
35.586452 18.368644 8.905363
0.546455 26.780348 25.890413
18.740688 36.260015 29.636129
5.683438 33.458822 38.369465
7.189468 23.271933 36.615262
25.151459 11.362354 21.106166
1.650696 24.467510 27.521250
17.820955 8.538383 17.640265
17.787696 23.610633 7.494142
28.386456 32.105160 14.273628
21.666456 35.526641 23.379435
0.546455 18.534251 16.623450
21.679924 33.350436 24.532771
17.374808 40.141150 17.475570
29.240099 29.309583 5.688419
30.640529 19.789999 42.544127
16.903272 6.095839 10.367494
35.586452 28.787944 32.563592
5.997601 24.415581 27.544724
17.681550 32.988069 7.253690
28.360616 28.205744 21.335126
4.493353 23.499017 27.815591
22.263910 15.913802 30.866179
25.452474 18.965290 11.542289
2.845004 39.147345 13.859177
20.288382 27.908594 23.898200
6.447374 7.505524 36.038323
14.466455 20.528207 6.023373
35.586182 5.545254 21.493427
33.365429 20.391271 27.657534
30.611338 30.510804 4.364987
35.586452 31.531923 21.134770
31.724347 29.364498 38.311929
25.621219 24.014399 27.681396
0.546455 15.892880 17.263759
7.746455 9.615194 22.398630
29.682851 39.981792 30.138255
2.988209 8.016393 18.390930
1.883420 16.595906 8.109742
14.466455 10.647643 11.512705
24.530581 32.018658 26.857599
19.157405 8.922608 14.574813
0.546455 22.517625 30.302792
35.586452 14.064813 24.518918
34.205591 33.484531 5.399601
26.105574 30.276113 29.368729
34.733012 22.084779 37.677437
23.486596 20.196804 11.232183
23.086102 27.069398 12.155511
10.010960 12.615386 27.123158
7.746455 35.333163 25.301747
7.730634 19.374112 38.780225
6.635614 42.950273 14.836016
18.692655 0.002162 22.267069
14.065438 25.187649 11.415855
22.420045 33.074211 20.533153
34.190462 6.511762 24.405659
17.264528 33.651726 3.112998
1.302649 41.407856 13.810258
35.586452 19.466624 10.443702
3.484577 40.106756 26.431237
4.854014 8.877802 16.787515
19.304465 22.319520 37.379288
33.079648 25.316316 27.105893
7.738186 37.938107 28.209425
0.546455 22.009535 37.768651
14.332752 32.711321 25.797106
7.078999 27.213209 25.304825
32.474045 25.507829 16.936139
31.002161 21.310766 39.237415
32.265468 8.162804 12.971236
26.652532 33.175464 21.827791
15.767047 33.976666 30.466302
4.317574 23.553332 16.121513
19.335838 38.204220 29.912190
1.567576 25.411533 27.041538
21.327724 40.291800 29.519005
35.586452 23.106795 30.654754
14.395023 31.954615 16.309092
28.732948 31.285494 39.349318
20.193419 33.228612 12.781588
32.801974 25.328402 7.925460
28.386456 8.589691 30.310616
35.586452 8.023499 22.549993
14.466455 37.439436 26.991070
21.715571 23.898895 10.802568
29.128165 9.731495 35.034446
19.066228 3.255056 23.715552
28.433884 21.249670 39.440338
21.713953 21.381304 33.217708
19.862067 17.177955 18.796337
21.666456 16.787154 32.360153
19.607016 42.948147 29.889084
15.077047 7.364846 24.925909
21.658612 9.673290 33.220045
30.085382 30.862778 4.043015
4.323379 17.610098 42.498663
31.133852 40.246693 17.413897
8.635342 32.437752 25.912529
7.694801 8.953779 27.416001
20.240878 8.980699 14.836844
21.666456 20.681907 34.718440
31.618967 0.001366 22.155294
28.962752 32.301008 10.895738
2.726675 30.830775 4.069164
29.058055 37.825078 29.822958
30.966283 30.043565 4.831221
35.586452 34.871361 19.491538
13.738120 18.181999 11.834846
7.231151 40.861813 30.031101
34.166538 27.172274 18.557455
5.370075 17.379771 2.428054
17.334363 16.730322 24.297759
13.761679 32.658452 18.633191
17.644184 28.071032 20.602638
14.466455 12.366231 28.467242
18.798160 37.929245 18.822333
30.952367 32.635236 35.802535
29.646682 6.633749 11.180333
5.856539 17.151233 37.257572
0.547246 30.280388 36.630545
8.629317 32.696298 25.168010
32.100694 19.413426 27.242630
14.459977 13.471642 29.306882
26.903581 24.111981 32.730338
21.821944 33.235384 20.194296
22.785792 32.552774 18.332754
35.586452 14.071768 29.451120
9.157464 32.043604 26.802510
0.546455 23.497577 28.960119
16.011673 3.362490 20.185045
21.324070 41.168048 16.751044
28.386456 22.118398 6.351206
34.609153 29.801776 38.836022
29.293933 19.127948 43.150211
21.343379 25.091931 27.238995
3.130756 20.035104 1.760533
15.754401 15.955306 35.031961
30.675378 22.269640 6.484233
2.348397 32.483079 35.419463
2.372907 4.711220 23.996362
20.780707 38.438417 25.515519
29.647934 17.214502 5.279212
15.976212 37.702026 14.132874
17.713826 33.204959 37.337827
0.546455 13.828100 14.895029
28.370598 11.517775 18.156793
0.546455 21.923447 31.776877
34.247240 36.797559 20.562180
35.566516 37.901866 28.961505
15.136964 1.622612 23.146968
32.896515 27.724905 19.557591
30.881446 5.726979 34.233008
21.666456 24.795477 33.989865
7.995079 27.934336 23.814145
35.586452 12.474670 18.626017
29.481149 23.258647 7.302915
10.330289 25.336600 32.437708
7.536498 8.918449 35.468372
6.830463 3.356010 20.186630
35.586452 15.442592 19.846375
34.471378 25.661740 26.872427
20.854374 32.641581 3.512757
28.572729 32.627703 37.689711
34.759620 32.315545 40.632199
1.645625 32.531511 32.297108
19.256393 32.929476 12.366730
28.386456 20.179429 6.148970
4.879174 25.043775 7.898770
31.572417 31.016618 40.009568
28.386456 34.048925 14.887945
14.495765 4.892764 21.769547
28.438180 20.377149 39.718182
29.983291 19.297971 43.219075
6.710712 16.645410 24.083304
31.568827 3.139808 20.239515
28.414395 38.725559 16.617098
27.404679 12.619125 16.797504
1.687486 29.338804 38.277582
0.546455 18.537745 33.305603
33.885877 8.911438 29.402450
16.167459 6.438356 36.324983
32.521186 8.862471 29.610585
31.298260 36.641177 22.757871
11.907679 27.737928 24.355408
3.332230 5.269041 8.665304
31.160714 22.223677 37.501020
32.104822 21.142545 4.130853
21.666456 33.895059 27.426039
17.541855 16.302284 35.416991
23.179817 23.739679 16.153465
30.202418 8.719180 29.969098
5.921964 30.959302 39.962731
6.433506 28.651533 6.537248
31.579231 9.038399 15.349765
16.690191 16.885579 24.605693
35.586452 25.782089 9.137624
28.684430 30.580770 39.509078
14.894357 40.759027 14.528851
7.746455 30.645935 9.734339
10.118319 17.761854 25.944001
7.746455 36.625789 28.532682
15.897068 32.302761 10.907319
31.996812 17.938275 0.458461
34.771376 9.039085 15.361994
29.861931 9.783487 8.922112
3.764456 32.465837 11.447944
5.911388 29.378340 5.596416
22.276619 30.814798 28.740320
0.581473 8.089480 32.258613
24.426237 18.982724 32.389326
4.605096 32.327992 32.935911
15.640898 41.223491 16.723845
35.586452 5.977991 23.348080
0.546455 32.986678 13.532517
5.396136 26.718780 25.959988
19.305791 11.360388 9.827943
7.951900 23.386280 10.944275
17.261901 21.597349 5.467506
6.068499 35.807600 14.229346
3.339653 17.224275 37.722505
22.906616 33.138949 22.783093
7.746455 33.635603 24.677321
15.201520 19.646821 27.348131
2.778356 28.364852 6.805163
21.267766 19.467744 2.339143
0.546455 17.302733 6.617039
8.087848 33.207639 22.696975
26.053011 26.178828 32.146411
20.819466 7.289328 12.010472
0.865240 40.278758 14.608554
34.577628 17.197146 6.377053
30.295584 8.988440 29.055117
29.214629 18.162740 17.578641
7.746455 9.767354 14.900436
19.250601 41.550404 16.456122
35.586452 34.578609 28.841455
21.436967 18.893467 3.168328
0.546455 10.067077 13.213434
20.301534 20.783085 3.197681
34.153180 39.146699 30.067627
28.386456 20.150358 9.611127
1.319755 3.623189 23.805601
14.426053 14.365338 13.851503
16.807528 16.022673 35.096854
35.323476 21.554942 16.016754
13.447533 12.127441 17.844891
19.421864 28.126475 20.859892
32.238453 23.761704 7.561178
35.586452 24.940963 15.262644
34.364008 11.375993 9.833956
1.566516 39.881668 13.793444
35.536949 39.201651 16.536325
30.134490 2.968848 23.635978
19.025026 19.372988 0.804759
28.478552 32.478970 36.983627
31.630222 16.348698 35.479066
15.377704 9.053240 28.312829
4.873077 15.774155 9.069415
31.887267 21.381333 39.021766
14.942549 7.501089 35.691342
5.440020 16.280187 21.603118
14.466455 19.980810 5.486024
33.074317 19.024872 16.916371
2.573992 4.008207 23.885350
2.712527 33.454420 38.342440
7.658579 7.949014 33.081845
18.745110 32.623660 32.108771
27.586670 11.596537 19.584639
14.434318 28.110654 12.259220
28.386456 10.392746 23.637430
14.451310 23.736392 10.667742
29.161851 10.668438 34.443467
35.586452 13.490529 23.773747
0.546455 35.866681 17.475896
34.903483 5.667483 34.528895
28.386456 31.915274 10.214863
28.386456 25.780975 35.255186
30.892344 18.682571 43.924340
0.546455 31.250183 22.226172
17.024201 19.864466 1.492148
1.875486 27.238245 7.545531
2.955686 23.073750 7.181855
6.491404 7.225354 19.108002
35.586452 30.893681 17.603503
7.746455 25.472896 8.597256
11.289878 15.979857 30.909689
6.230947 38.341484 25.437517
35.586452 19.457542 6.254364
31.251027 7.552091 25.069587
21.069830 19.455417 42.305277
21.699362 21.824458 10.649918
35.229344 12.738654 33.800502
33.639478 2.371440 23.444429
6.885841 19.825037 42.492650
35.586452 33.639877 21.353186
0.546455 33.871754 28.151901
28.386456 16.285604 8.935228
35.586452 17.665966 30.798789
1.841205 8.195029 30.912429
14.449551 29.336757 13.052568
16.734673 33.244807 37.474495
31.684233 22.338524 27.955789
7.739148 37.478650 14.268150
21.615367 31.488958 6.707187
28.386456 17.521263 36.634355
15.780912 21.213548 39.560291
7.078148 18.204926 42.306067
21.666456 22.560875 34.978450
26.397355 11.403603 20.717087
5.478815 17.808238 0.803266
35.586452 12.277974 33.326691
6.192703 5.157254 8.359480
9.036235 11.629137 24.490343
2.815023 17.217122 18.732727
29.825786 13.611482 10.082102
30.265481 8.947135 16.535065
17.481415 32.679190 31.995277
32.147584 32.691195 7.994027
15.096858 8.175421 30.938722
7.547177 17.067782 7.020612
6.199275 14.125445 9.965209
33.959625 24.589228 16.449840
14.466455 10.585596 32.883822
30.559851 16.939912 24.713455
14.986881 18.729144 1.984940
7.746455 27.999227 33.091960
30.825583 15.128796 34.381945
2.987793 22.695897 15.982437
2.258711 33.566215 39.031700
7.746455 30.000143 31.419411
19.280604 5.387512 34.972185
9.385210 26.381896 32.065501
3.759455 10.849734 9.593885
2.690598 21.509728 5.281688
34.621577 5.298911 35.188610
32.100723 41.646408 30.098918
16.783912 13.737592 33.859779
16.531317 18.775609 17.083783
35.586452 8.606739 21.948863
34.827399 13.356585 33.814444
14.020176 18.328776 17.444576
0.546455 33.782455 25.568973
7.594480 32.198345 6.266625
28.554752 3.561740 22.781956
7.658628 4.154936 20.577434
2.577494 27.734195 19.580710
28.668036 2.962736 20.316772
33.748569 23.495849 36.483667
30.205469 7.637835 31.540342
14.828940 19.615342 2.477424
26.742210 17.089853 25.010848
7.000935 16.826347 36.259807
16.407577 40.070553 17.516747
21.666456 10.985848 30.759503
5.675445 20.466658 2.528335
10.825272 11.471534 23.774343
16.429904 37.474947 24.606768
28.368798 29.570717 30.671474
0.546455 21.427607 37.226872
16.164807 42.381908 13.925358
19.564632 21.577790 38.494760
20.051147 16.248620 35.345219
25.538344 17.880275 26.057498
11.429712 33.104438 23.108613
16.713958 19.021108 26.997826
28.970631 29.758250 5.142271
29.689268 27.261252 18.701964
15.232444 17.591737 42.426333
2.182723 33.532605 5.104484
19.349815 21.150364 39.770085
14.466455 23.517904 36.073397
8.225943 14.806696 29.980621
19.103945 17.286027 3.011962
15.148393 41.394886 30.103970
15.177514 18.511594 42.495960
0.546455 37.886692 26.474105
11.594866 12.264246 17.542774
28.386456 19.309962 36.469535
29.218465 40.594178 30.151260
14.446882 13.215453 15.059818
29.420674 21.085255 3.967984
21.666456 33.162634 27.465449
30.480093 6.523124 11.029486
21.666456 8.924172 27.141743
15.099666 35.075036 29.884038
7.746455 28.424702 35.790854
35.578508 38.840527 26.067114
0.546455 28.556689 21.223171
29.450569 17.250650 40.636512
18.177812 9.209972 8.602300
17.758663 27.167098 36.351874
17.509261 28.336258 6.830082
4.465045 8.300927 25.914271
29.336717 11.472991 9.871329
28.376435 16.288497 21.407499
28.386456 18.662013 5.740347
28.785628 26.806853 25.854255
16.381852 5.983111 19.708513
28.743051 40.849152 28.262069
35.586452 36.740722 29.473219
2.347740 18.626237 26.730940
14.642473 39.717368 15.120699
7.332648 30.961989 39.872789
33.698783 37.419446 24.539163
4.828793 21.153183 4.166067
20.507125 32.729406 41.185664
3.648053 2.582872 20.410686
35.216704 40.622534 29.058145
2.918723 0.841823 22.768680
7.746455 33.412725 26.103469
17.656309 22.739480 6.936010
27.069837 13.803774 28.894562
0.546455 14.556162 10.906116
17.877619 20.711536 40.891838
7.141844 9.466658 35.185806
16.826681 21.820598 38.055430
3.203938 31.333957 3.658006
27.312254 17.111127 18.904872
28.386456 22.726213 35.536983
7.746455 19.115859 37.067909
34.479716 23.617469 36.429700
4.778335 38.278570 25.386700
34.804825 16.933159 36.497147
28.198552 18.941271 11.383050
28.508450 8.961431 14.749931
7.746455 10.920995 19.592560
18.803989 28.213576 21.519501
27.635790 13.547869 28.569042
0.546455 14.838527 21.049541
33.759818 11.713337 9.963933
21.666456 29.383449 31.288387
35.586452 14.772431 16.334357
0.969961 2.332606 22.668200
28.539127 9.152720 35.261352
14.441260 33.486138 23.574386
29.473161 5.280431 8.216907
20.206253 21.198628 4.317034
4.681491 31.843011 40.638433
15.265632 16.728898 19.665875
32.803407 7.362076 7.841843
5.571804 32.258588 33.353362
0.546455 5.704649 19.833810
29.074088 21.133007 39.827820
7.311743 32.926633 38.848175
35.586452 11.773097 32.462227
17.586225 17.845481 26.024151
29.425009 37.456639 24.586282
35.586452 28.811930 10.122967
7.746455 9.839103 29.961549
33.855226 39.474337 26.076747
35.417605 32.375546 6.230966
15.177149 32.683781 31.985894
0.753463 32.532425 37.925123
33.093554 21.084018 3.964629
3.018532 20.980658 40.242335
14.466455 33.708806 28.058984
20.181580 32.671021 8.041006
14.466455 33.613759 29.535414
12.163314 26.344238 11.846370
21.038358 7.410469 36.071378
35.225173 8.959573 29.185326
1.020893 24.112587 7.707398
26.779827 11.379182 22.979432
7.746455 31.776742 29.014038
28.386456 6.639134 22.260231
2.702960 0.001799 21.710821
17.305207 37.852462 29.829401
1.824420 37.407719 19.406121
18.241993 8.196808 13.016833
28.386456 35.720251 21.081382
8.837096 25.648171 17.024408
18.161458 40.903127 13.779648
24.676194 14.728066 14.031565
19.391722 4.183669 20.009801
15.155219 32.482113 35.416992
14.466455 34.182218 18.354042
7.434163 20.397035 41.362386
28.386456 8.421153 22.790682
14.466455 22.443204 35.755561
1.728506 27.765668 19.659035
6.565729 7.217435 32.002897
1.364197 6.320497 35.935045
21.666456 29.999726 9.617794
15.211510 32.973728 3.937710
29.602659 22.715189 15.983256
31.608859 28.867410 37.658164
31.544301 27.174057 18.560352
26.076988 22.056690 32.883513
26.501874 25.487962 26.989880
11.525476 14.948397 30.082922
0.546455 16.486039 34.073753
21.639989 23.418550 36.519266
35.581698 37.639555 15.178794
3.042323 2.035794 23.317283
27.978232 25.571474 26.933437
2.036338 17.201169 3.926050
25.660159 22.095386 15.978930
20.034841 5.065904 19.888478
24.376940 27.675351 31.444987
2.408873 33.551357 2.800218
10.773244 22.102217 11.040897
7.261402 39.745069 13.800025
7.667165 20.220039 39.907056
28.386456 31.554923 31.478140
14.230960 11.429148 19.765883
7.746455 10.951301 17.469546
27.736454 11.442125 23.573141
14.466455 20.046779 9.824442
29.649837 8.190706 8.136740
31.114212 7.445761 18.938879
16.253568 19.871557 1.502565
28.987917 27.209975 18.618686
4.363794 23.032559 7.154886
0.546455 32.919240 23.713909
7.746455 33.427692 17.672757
7.751089 28.451061 31.597571
20.911488 6.418810 35.772777
27.698320 26.141024 32.161474
26.738807 33.162368 22.562190
23.412011 18.357773 26.515142
6.943089 29.463247 5.490662
21.666456 9.459637 12.094804
32.769583 17.232329 38.165335
5.883225 17.144171 6.714252
27.298064 27.868667 19.915356
4.819106 17.421016 25.489940
20.013062 23.668817 16.141314
14.390472 11.992983 26.527803
7.248152 8.271736 8.170732
31.527551 39.359326 26.018761
5.831538 39.502310 26.090879
1.877315 18.790441 17.071807
12.148187 14.456752 29.624238
34.837389 32.222326 33.628801
21.666456 26.295417 34.514832
14.496809 31.190543 36.864620
16.141965 0.001579 21.741748
27.347553 15.937211 30.881444
8.230750 12.136753 26.130606
19.522039 41.485136 13.815992
7.556116 33.138334 37.109321
0.546455 24.169120 15.503109
25.123445 22.632425 11.053764
35.586452 30.760142 31.073719
31.447209 17.658482 1.271470
0.546455 13.100485 11.935772
5.282535 41.784957 16.254035
28.386456 5.644432 20.605971
16.493932 6.533662 7.622620
1.253559 38.225802 25.344079
10.373569 26.071441 11.737677
3.838349 5.144717 24.048006
14.466455 17.627741 34.481918
35.586452 22.195067 37.469654
0.546455 37.007926 18.482111
3.035237 17.115108 37.050083
28.386456 33.912008 21.896397
7.698968 4.483710 21.965201
0.546455 24.501782 30.439651
33.742966 25.898638 26.712312
19.948925 23.420434 36.518033
17.990980 9.057978 28.228469
12.206735 31.919738 16.870186
1.635531 39.358266 26.018247
0.546455 28.121943 28.878749
34.210198 30.896961 4.015083
28.386456 29.786306 34.348182
5.161390 33.267652 37.552850
7.776355 21.831437 27.927927
17.776395 19.609847 1.118103
12.778264 12.161655 26.157542
28.386456 36.078645 17.237668
8.218341 19.463016 16.671609
21.210647 6.512893 19.520611
34.915636 8.866436 27.097977
16.403117 9.399479 8.702690
4.974538 17.235986 38.010959
7.746455 35.048299 21.945808
34.324942 18.200731 26.364630
21.113428 31.718569 3.893175
16.347091 5.654314 36.468214
20.122564 5.863769 19.749439
0.546455 15.899612 19.607056
17.829190 17.795914 17.973831
34.800324 28.893687 37.691030
1.495385 13.262916 33.803299
0.546455 18.734767 11.660208
30.902072 37.547916 19.238455
29.700954 26.283865 17.537696
0.546455 31.104182 25.464080
32.022476 33.610542 2.834952
34.284101 33.420839 38.194132
33.872868 5.558982 9.345675
11.566918 23.061736 32.849837
28.386456 35.570693 28.674578
28.425718 26.812616 7.721833
16.835614 6.841424 36.231935
35.586452 22.541758 31.434655
16.716926 0.110811 22.346043
15.042983 19.847550 1.615727
7.746455 18.434137 5.940173
2.352757 39.277565 17.949337
3.016026 8.954352 29.208877
25.994454 28.339333 12.899212
4.675825 21.390314 4.931730
10.489508 20.027055 32.662596
16.303311 5.225115 8.558069
15.640222 39.129424 25.902857
0.546455 23.609289 33.485094
35.566146 29.878161 6.591382
26.125426 33.124216 22.922059
35.586452 16.727688 27.607912
14.466455 32.755792 12.140929
35.586452 10.310606 12.728944
14.466455 18.238779 9.762656
1.071639 17.587271 18.210895
29.725401 32.329902 10.997296
2.990350 39.704848 17.730042
14.778501 39.944841 13.792430
35.586452 28.538209 17.921458
21.340857 7.520936 34.750793
28.386456 32.191799 9.450576
7.810626 14.574862 13.728157
2.164372 27.938865 23.799356
33.927441 20.423394 41.482576
30.946914 20.753779 16.154127
21.666456 13.304958 33.140265
3.050105 5.364007 19.845537
0.546455 16.425973 26.716490
34.858201 41.687165 14.204523
5.273803 19.536666 16.630465
35.115691 26.414694 26.251430
4.684577 4.664056 19.936079
34.799155 24.023447 16.249936
33.961465 25.649120 7.919363
7.746455 23.291841 35.092357
28.386456 10.009634 15.625132
14.466455 10.649345 15.558744
18.643302 41.935863 16.118199
35.586452 10.240362 25.925060
0.546455 30.170622 9.263319
2.467091 20.897876 3.460218
18.587106 33.657580 3.621505
14.727928 8.613254 8.351343
20.939910 8.398711 30.592407
28.386456 33.947642 26.843501
34.223380 16.264184 21.979852
11.822199 19.584267 32.552839
6.095942 27.647149 24.535457
30.536222 27.673225 24.483738
15.199663 28.614828 37.350658
15.996326 27.052882 25.521602
14.466455 9.342584 17.954114
27.889768 26.682776 25.994495
7.746455 11.539448 15.651035
19.844232 16.276536 21.689080
16.453479 8.973424 29.122848
35.586452 27.874848 16.735888
14.465656 10.864108 20.246556
35.586452 36.495945 22.111555
14.469544 17.359524 38.097610
10.130441 27.768638 12.533636
26.165063 29.012511 13.388327
20.608973 15.943454 35.020545
14.466455 6.772430 23.770238
21.527332 28.242107 22.191129
21.628562 38.626879 15.672196
23.120075 28.424994 30.970929
17.086450 34.505646 13.791616
31.488261 26.330214 26.332398
5.226126 16.393137 20.756434
13.039385 32.892775 24.378598
14.466455 5.918230 24.122476
27.795848 19.580982 16.605709
30.837841 36.349003 29.637794
2.201683 17.350510 41.344654
14.873652 6.586999 9.755542
30.487762 32.592910 32.171618
3.527704 38.806991 13.905907
3.999222 15.786982 9.057059
2.454310 20.407383 41.513673
0.546455 8.154573 22.816568
20.437432 8.625478 17.450408
8.282476 11.324075 22.195372
29.631938 39.108617 25.892361
0.546455 18.142552 27.227607
33.068326 22.997764 36.794771
2.446140 29.626555 38.629056
6.506947 36.727657 23.106575
8.134734 29.533212 13.777862
15.786655 7.340663 36.091080
24.508408 23.583051 16.126609
21.327964 6.275033 10.595365
23.267077 19.253947 32.463050
30.444842 22.125937 37.625162
28.386456 10.278638 18.949790
20.394968 5.282625 35.228340
31.614952 32.231288 33.560724
32.461217 2.764671 20.354265
28.386456 22.135647 7.180391
21.666456 33.854504 15.972261
2.813058 21.997736 15.974097
30.351000 20.642673 27.722994
0.546455 12.676887 33.175616
11.893239 25.916891 17.241385
23.895615 15.916100 30.867461
21.006477 27.976665 23.675924
14.481365 37.567676 14.162820
18.335444 20.721721 3.058190
29.895461 41.745241 30.088400
7.746455 26.561695 9.113668
28.426468 8.918417 33.445243
12.199047 13.834002 28.933013
35.586452 8.913632 31.032056
6.945944 42.036167 14.513467
7.070468 6.471143 32.971256
14.460005 33.640117 20.973203
21.666456 31.154173 10.794735
1.250814 23.801106 27.736933
16.612701 21.313417 4.698275
6.107872 16.986299 24.805460
20.446410 9.022360 28.862701
14.456171 33.230214 18.828173
3.223187 22.850610 27.912204
23.774567 13.925445 29.047911
30.981143 38.309086 13.991448
3.931835 7.686426 18.742133
35.586452 11.259603 34.082044
2.612767 27.114240 25.438640
29.698488 39.846335 26.279356
35.586452 34.687407 26.582371
6.478003 27.671143 36.608023
6.452269 17.378273 2.435947
30.787984 32.255693 33.375350
0.546455 15.370181 16.604471
24.189134 12.087100 17.938122
21.756709 11.323016 24.432925
35.586452 24.452918 11.619597
30.350035 5.819722 19.764232
18.836781 21.238778 4.450411
28.433433 31.505774 6.824816
29.139458 41.747941 16.285931
0.546455 13.262849 22.629381
25.692592 33.168412 22.359426
14.466455 36.630892 16.694225
5.312066 2.381957 20.478463
35.586452 18.061264 9.755276
7.746455 31.144944 29.495239
25.829617 30.721287 28.859268
32.147050 9.824569 34.981256
25.748912 33.048856 23.632888
5.094496 17.189089 4.206972
18.969783 35.437948 29.769613
1.333469 32.296745 33.063524
34.179386 21.809052 15.984185
34.665772 36.566077 22.040555
1.699837 36.563313 21.920356
14.175532 27.704335 31.523819
21.561858 39.569999 27.666663
28.386456 13.899454 32.929515
18.546622 33.460108 5.549521
35.586452 18.197374 7.944421
17.300660 20.788463 3.209906
35.586452 28.331070 26.658056
0.546455 16.388384 16.588067
21.313840 39.258482 25.967932
0.763248 33.033494 6.271976
14.466455 10.208496 16.111986
7.746455 35.585267 19.740429
35.586452 16.851227 26.734754
15.876475 38.500238 13.958611
24.793442 18.502315 11.707220
0.546455 6.218201 22.510066
5.459174 32.952197 7.353605
32.202542 17.610113 1.428151
32.474238 32.063463 3.142680
3.648095 18.826653 43.779607
33.487172 32.677481 31.998770
19.595987 36.623274 14.283953
7.746455 10.460885 16.935338
20.871153 13.769479 10.063302
10.697004 32.301492 17.693878
0.986343 6.436936 34.210798
4.867170 17.951821 0.423554
1.342774 27.710391 7.294531
32.693156 17.118116 37.059226
27.716387 28.956886 13.341079
8.857936 17.216308 18.734047
7.746455 14.768480 31.022493
11.189193 12.913390 27.618445
26.042506 19.416261 11.419705
19.490072 36.753206 23.209597
29.541097 27.664843 19.408122
11.900101 25.685624 26.856285
8.822684 29.404923 13.721644
28.425254 19.180781 16.829275
16.953661 39.163160 18.007009
29.568137 29.344190 38.284743
35.586452 18.995948 11.554072
24.507208 11.450270 20.276912
12.925176 22.118072 15.971074
2.336360 26.658463 17.925044
17.124141 8.101884 31.025036
7.708581 9.608785 9.791163
30.273161 38.210779 14.013131
21.835152 17.673704 32.087256
35.586452 30.497588 12.280860
3.792765 6.528437 24.414605
14.411080 18.206261 32.479834
35.586452 22.342281 35.745366
0.546455 32.192810 35.006806
0.585231 8.299410 11.290758
20.042741 32.935007 7.401491
0.546455 7.255815 24.720247
35.586452 28.493399 25.893735
29.523789 5.399995 8.985203
15.405226 33.620639 3.722851
24.498160 13.887603 29.001196
22.881204 12.495451 26.894690
34.604307 6.583773 32.814691
18.081814 33.440700 38.281845
14.466455 10.442970 19.481667
33.019541 20.599978 41.139596
9.582534 17.255919 18.669716
5.533684 23.003931 36.790733
14.894355 41.400475 27.575927
35.586452 25.357001 32.391907
28.091289 12.063309 17.782266
16.281563 4.059120 20.032323
15.354944 17.227089 40.396792
12.289960 14.981669 30.111184
3.277022 7.894617 12.666386
29.105175 6.580784 19.484186
0.863836 31.383586 39.153107
7.197226 14.473882 34.063817
15.800430 10.433227 34.588921
35.586452 16.346154 18.887624
4.460834 28.586119 6.606698
3.742639 7.595198 31.585658
21.685263 23.445338 33.287603
30.912963 21.474662 16.030519
21.666456 10.729714 33.080017
1.498590 33.544595 38.895977
35.586452 21.241350 34.232527
11.220290 12.614371 16.805404
35.359134 16.453173 35.618793
34.871396 27.641154 24.547347
16.287924 8.776358 29.826039
25.334846 23.739602 16.153452
31.138650 19.749935 1.323899
34.895193 6.062861 8.880830
3.975144 42.497033 15.555784
24.643079 12.999481 16.165347
35.541337 17.457104 38.970149
13.535026 16.350646 20.953594
1.344213 42.197004 14.980417
14.701395 8.130165 34.838592
30.847977 17.496472 1.875801
20.325836 24.065061 7.694981
7.746455 36.253128 19.485506
0.546455 10.430719 29.232726
28.148389 32.833518 25.114049
24.366937 20.621243 16.197865
6.559368 41.422115 27.360222
21.222245 18.105021 41.548575
14.466455 14.514747 32.787191
0.546455 35.784498 18.199363
1.459879 3.071093 20.259166
19.530349 19.583892 27.319685
30.773910 26.079630 26.572563
10.430838 32.674817 18.687534
35.576302 8.252434 31.668145
0.546455 25.033010 33.281758
16.828508 27.151112 18.523087
0.546455 35.228343 26.833027
0.546455 8.408415 23.478714
34.729185 17.318480 41.170311
22.701374 26.663526 17.930797
16.121210 28.018375 23.539728
7.146189 10.106773 34.802880
29.612471 26.194908 36.057348
7.746455 9.277569 19.731811
0.546455 17.085534 9.307691
29.932188 10.448449 9.347931
29.861718 8.669657 26.572772
1.280899 19.607425 27.330323
8.548316 11.346101 21.259472
14.466455 34.490161 15.516155
11.742971 25.702341 11.593075
6.334040 27.227100 25.286043
28.372192 30.244780 30.086320
21.928369 17.168896 18.811050
15.660488 18.794164 0.155033
28.678116 32.510438 5.553748
35.586452 28.813148 17.122027
32.114053 17.189965 4.097201
3.927549 17.154923 6.645814
33.813546 21.172545 4.230477
18.927006 8.707664 8.354537
30.582491 29.996319 39.046294
8.042465 33.126302 20.250454
16.298161 20.841396 27.774737
24.234386 27.004442 12.123950
29.960643 20.554551 41.227829
33.665828 40.532172 17.223181
15.015275 41.821872 16.207605
35.394274 3.941525 20.053591
7.993862 30.258130 29.545216
28.386456 36.512292 15.434382
16.899036 43.261567 29.275084
4.853403 41.639450 13.827443
34.352400 16.637800 35.897613
17.740611 38.011930 18.755547
3.386510 2.610164 23.524660
7.746455 34.815733 17.505476
23.915202 28.168293 21.053932
9.016620 19.787242 32.608012
0.955051 20.541036 41.254078
35.586452 27.436436 12.692463
3.915369 0.598448 21.286134
7.162454 28.204690 21.310333
35.586452 15.670784 11.212646
16.686208 26.161047 17.438527
6.429955 8.623505 8.318300
35.586452 25.747395 35.081153
25.290000 27.830602 19.820629
20.017031 3.680034 20.107370
2.500881 2.175099 20.556825
7.746455 12.488344 15.793758
31.603672 15.131871 34.384069
35.586452 13.015936 21.797233
14.110567 21.977667 32.932908
34.531331 35.518865 29.744100
0.546455 31.280508 16.921721
10.165786 26.821362 12.036474
21.666456 8.361409 18.700806
3.852865 26.685149 25.992220
0.764681 17.777544 3.453293
31.535753 39.695350 17.735618
33.464897 14.683964 34.163379
11.458960 33.113895 20.907466
26.742379 33.073109 23.404117
3.709295 32.567918 8.290450
19.723141 42.036226 16.020451
30.239912 20.696630 3.001150
7.901210 28.631541 12.862838
7.746455 21.883516 9.692978
32.214402 30.198126 4.669739
27.965817 27.955342 23.745550
10.050976 21.910862 32.875606
30.893967 33.026006 41.348520
5.764223 6.068920 10.319432
6.604851 5.735759 34.214796
35.586452 26.518946 8.990418
30.116019 28.084912 7.049124
25.564786 29.543966 13.839749
17.370936 0.000531 21.888828
24.662377 25.415362 27.038950
4.026305 17.026838 19.041766
14.466455 16.792234 9.755282
1.916775 9.042978 15.431308
28.386456 26.274346 32.815512
14.626243 18.319863 40.186218
28.273286 33.279023 20.143412
21.208227 17.185522 18.784048
3.018248 3.235527 23.710774
7.746455 21.217856 33.935664
33.837692 33.984303 13.466137
34.938660 36.765048 20.669533
35.557563 4.899436 21.849104
2.629697 18.922900 0.257104
5.569478 0.764167 22.727847
21.674992 21.105165 10.593602
5.990716 25.548085 36.000575
7.709018 8.897736 33.336753
6.428128 33.178095 41.342019
1.395939 17.236416 37.992788
0.546455 21.136554 13.933213
22.242636 11.749223 18.924362
28.386456 34.433991 20.170686
21.006308 28.146802 20.954210
21.785596 28.327383 31.320570
0.550108 19.858126 27.443647
6.852224 33.258271 6.406201
15.134278 12.436335 10.113175
30.416949 8.185693 18.183906
30.980584 39.924700 26.325063
15.997477 29.418433 5.543630
13.817050 27.348610 12.300644
28.398945 38.194561 16.105186
20.552365 32.255362 34.519184
16.918697 8.176693 12.989860
6.427857 0.012734 21.640303
31.443814 34.619300 13.848990
7.746455 33.360099 25.402336
16.270218 30.091047 39.145264
35.586452 33.152219 28.945489
28.892264 10.583639 9.431734
31.111480 32.498829 11.557316
14.466455 9.818020 26.048674
6.231695 32.222253 9.872807
21.666456 13.658064 31.266552
19.891816 39.302385 13.842185
6.720071 33.848987 13.367567
34.195947 27.736305 24.358628
30.787987 17.191569 4.874588
28.386456 38.225403 25.433489
30.985727 28.959006 6.154150
20.872953 4.968221 19.900050
19.763136 19.107981 0.468291
29.622786 16.748726 24.334261
2.243904 13.128430 33.787296
17.825199 2.815670 20.338438
21.666456 35.111153 26.466077
14.466455 22.742852 36.705088
14.466455 15.291489 11.825770
4.944609 23.233918 16.066744
30.392057 41.637091 27.545442
14.466455 25.363211 10.712352
34.307117 41.665557 27.569968
17.860733 37.288591 29.708001
2.197315 35.232293 14.092421
2.615909 16.563298 20.077989
20.090734 33.443332 38.293469
29.519499 3.009623 20.278245
0.546455 17.127185 31.662019
10.934953 11.437977 20.392864
21.666456 18.870437 33.181359
2.876138 6.620785 24.464151
8.051508 18.719927 17.128744
16.174270 35.249594 29.829000
7.746455 22.187893 37.540066
35.586452 16.705684 18.021078
29.850392 22.030722 6.180779
35.586452 26.432938 16.176313
32.438793 10.674850 9.487315
7.746455 5.873513 23.570414
21.666456 15.227827 33.646354
21.666456 31.048254 9.735097
31.705245 16.934826 7.424661
6.171058 42.467895 28.339042
16.796774 8.609878 17.484414
26.442162 16.149327 12.904944
6.614004 29.343385 38.283714
6.279468 31.635806 3.437644
15.074640 23.090975 36.733742
28.386456 10.359603 22.910266
17.581459 25.983900 26.654685
28.386456 10.052248 19.653556
21.666456 31.407816 31.038085
35.586452 23.008369 16.013815
32.690426 26.799510 25.864184
26.515507 12.871612 16.377866
30.716727 30.972189 39.973264
28.941825 16.675921 24.182933
21.746557 18.871616 11.259104
29.650022 17.238005 6.026717
6.885167 4.196937 20.007401
14.466455 29.478376 35.865911
28.691771 2.854388 23.510601
28.929271 26.535117 17.784896
5.439815 14.165737 9.953601
35.581548 37.377787 14.328019
31.605162 38.086166 25.231292
29.147077 3.661835 20.111822
26.091656 17.931447 17.819835
13.624985 30.196919 29.454633
35.586452 20.476014 32.111984
14.638924 40.270347 16.781327
35.586452 11.988533 25.979379
20.433419 6.531868 19.510430
18.775064 37.031857 14.266389
33.764193 17.330358 2.688388
35.585728 20.785878 5.286966
21.666456 34.512203 26.963607
33.460090 20.137215 41.994694
26.502755 16.313082 22.678966
34.543710 6.104369 10.382723
3.699983 42.949240 15.041551
34.555635 40.124478 13.781747
20.667639 42.511548 14.413612
28.386456 13.004010 30.223972
35.586452 8.570255 19.478053
33.512411 7.830719 18.588553
7.746455 7.752230 20.048548
0.566573 38.165553 15.579688
28.386456 34.225250 14.195088
19.131262 19.459867 43.009851
14.551273 31.961687 6.700045
28.386456 32.493149 32.383614
1.278512 33.115910 6.894467
30.139987 39.304340 30.084905
0.546455 11.678302 19.741080
7.746455 19.494959 7.416631
31.810266 39.113843 18.031876
4.627055 7.086168 32.160744
2.388859 19.889874 1.529465
0.546455 26.642893 33.225509
21.666456 20.977538 8.524126
7.746455 10.985255 12.804290
18.822881 27.714128 19.530773
14.466455 26.244322 35.874693
13.161184 13.053046 27.850555
14.968734 39.992284 30.138760
28.386456 17.400943 7.582605
35.586452 8.868189 24.529103
20.212387 8.342901 25.976669
24.039340 20.399370 27.659643
18.317528 32.304113 9.158554
0.546455 38.373504 25.686113
14.719073 31.859618 38.577648
25.003608 12.370992 17.307040
4.256656 39.065637 13.868133
35.586452 11.416392 18.216906
11.552706 16.791569 24.419234
0.546455 28.360979 8.755331
3.275152 43.129821 14.284779
32.298389 17.252654 40.652283
35.398130 40.040742 15.722289
18.585470 12.702716 33.802071
22.166291 33.143847 22.814513
28.383587 27.719496 19.544131
33.175284 17.198896 37.560959
7.827152 23.886239 16.201457
7.712351 22.660015 6.863194
14.466455 8.574020 18.501474
0.546455 15.869230 30.532639
14.273142 26.356431 26.307271
0.546455 23.695656 12.554799
28.386456 15.379357 31.607242
29.347870 2.001969 20.622406
5.980131 38.918029 30.040034
16.982592 38.553663 29.977451
35.586452 10.249300 14.702272
4.053489 35.930546 14.247094
14.409600 14.079322 29.715756
35.586452 20.633644 30.871900
7.568143 26.041852 17.342283
30.231631 17.592247 42.428342
21.080664 30.164197 4.705186
6.491706 8.397378 17.869224
35.586452 15.675172 21.368172
3.571660 37.974545 18.785743
3.960353 3.372287 23.744228
35.586452 10.554652 15.478612
21.666456 17.499521 32.799141
0.546455 30.347099 29.040609
8.416817 27.537734 12.405552
21.666456 27.464106 9.480578
31.266050 26.850092 7.706310
21.213694 5.691216 19.794577
0.546455 32.051337 12.099374
11.662009 28.236171 22.051409
35.586452 25.674537 29.921573
18.917385 27.715828 24.399241
12.670585 20.849100 27.776743
26.571787 33.127290 21.033815
3.211772 5.572734 34.552700
2.020350 21.222664 4.396839
32.148924 26.009039 17.315789
21.666456 8.387733 19.626175
35.586452 25.403381 13.053653
0.819881 40.723580 27.480631
27.996986 32.073716 26.815153
6.410659 33.547090 38.911289
14.460839 11.488273 25.863245
7.746455 7.429039 23.809568
0.546455 30.488449 28.156761
23.654304 18.620631 11.660079
20.275914 29.032796 6.059004
0.546455 15.743589 22.328093
1.510802 8.747217 8.374047
35.586452 29.674410 24.829114
18.191443 32.566667 41.096320
22.667406 11.823065 25.241228
1.738785 16.263507 21.995792
6.070743 27.047598 36.302375
34.660126 8.194172 30.913579
22.528215 33.048495 23.636293
7.064469 41.485920 14.066244
28.386456 34.075567 15.658293
14.466455 10.022478 11.831436
35.586452 23.115129 35.814817
9.060978 11.990704 25.721913
2.757554 15.522293 34.653836
6.606815 39.271105 25.974297
14.466455 9.617890 19.961917
4.266167 18.415245 43.879163
35.266593 8.132514 35.395365
0.729632 7.418203 10.388134
29.167385 20.391116 27.657494
35.586452 38.114867 25.889726
12.629087 17.953059 26.127256
19.300222 8.978846 27.507274
27.507729 15.742502 13.180976
0.546455 36.696920 28.785555
21.653796 27.301886 36.407705
28.386456 8.028063 25.279895
