3.574073 31.490904 3.541983
34.026797 33.300621 12.854501
34.422213 27.092627 18.428102
0.564226 16.776693 7.762454
4.106044 43.231408 29.236653
28.386456 10.197899 12.361403
24.843970 16.345063 20.979498
24.003112 30.430579 29.201175
6.428771 13.803651 33.868959
21.666456 27.605080 36.298072
30.623056 39.675153 13.803394
25.730931 21.820789 15.981614
20.966334 28.111658 20.791140
12.474109 11.320098 21.892475
11.859127 30.492095 14.792430
7.746455 32.636263 12.791222
0.546455 28.089946 19.911102
16.889525 33.652392 40.782765
0.546455 9.665099 25.154051
28.587449 38.127420 14.032750
0.546455 27.163467 28.415741
14.466455 8.251687 30.959814
0.546455 18.357335 27.259572
7.746455 14.909537 10.955608
2.827849 10.006915 34.868327
0.546455 26.215546 11.855608
35.443276 10.171162 9.166196
19.485598 15.593953 9.223528
34.264853 28.346248 37.105501
35.586452 14.164494 27.554945
33.461463 16.500854 20.256628
9.416147 27.195636 25.328585
1.742132 17.955048 43.511591
5.532422 38.018208 25.176400
6.953041 21.365550 4.858326
14.466455 20.003406 36.800397
21.546893 8.024945 10.371403
3.727195 20.643183 27.723127
11.034205 11.426792 23.428511
21.499818 9.050571 28.360368
7.746455 11.859339 33.914939
0.546455 19.854074 28.691657
0.546455 29.203598 28.641054
0.546455 32.240429 8.976858
1.813886 0.426209 22.537307
14.466455 12.471202 13.123038
2.857644 17.036970 36.812624
29.220844 2.209214 20.543899
26.711763 30.890526 15.282886
35.586452 12.518941 30.079108
5.488124 9.933606 34.916375
7.746455 12.895322 11.408419
32.805195 14.930048 9.646875
7.746455 12.943820 14.177781
31.060799 38.411157 29.952991
16.571438 32.270515 10.664117
12.666373 25.911139 11.673807
18.618486 32.441918 11.368650
3.178164 43.211622 14.511468
21.503045 3.577551 22.171096
2.539243 16.802117 24.440155
32.958748 7.744529 35.954844
4.519280 23.862668 7.605979
20.789662 2.649993 20.389855
35.586452 25.706075 27.461710
32.740258 17.267057 3.161255
7.501015 28.363667 6.806195
35.586452 31.229088 32.536133
16.612750 17.225803 5.486041
28.386456 11.542851 16.512985
0.546455 24.184890 11.470750
0.546455 34.159151 28.261668
10.407924 11.346713 21.253701
16.849737 32.498738 8.467367
34.000875 21.545025 5.363703
3.282121 37.904566 25.084609
0.546455 17.061178 25.207923
1.015206 6.562795 11.083581
7.746455 33.134909 28.068205
31.823388 18.896946 26.913907
28.448122 7.536612 11.694112
28.434562 4.496703 21.149682
28.386456 9.243858 14.255384
7.746455 18.812734 36.965469
23.906981 31.769578 27.309888
5.888702 32.340287 32.895150
29.643042 33.651276 3.780685
2.734310 41.858884 30.072968
1.426406 35.011944 14.022945
32.769004 21.404301 38.953689
18.496999 26.460359 26.207664
28.998095 41.266251 29.836903
19.671809 7.491212 25.022873
16.726950 8.817062 29.724197
21.626197 38.373651 29.025636
20.110946 30.293799 4.569781
35.586452 11.639711 12.082451
19.213260 8.290338 8.178536
21.666456 35.898083 17.296719
30.543096 20.966372 40.281017
10.043192 23.958705 16.227061
0.564825 29.299692 37.774593
17.830673 30.813425 4.085166
17.973852 21.528166 16.021345
23.769652 12.002423 18.172523
21.265253 21.431391 38.873392
30.521837 19.776014 42.564671
7.010835 20.421380 41.486486
2.228086 8.696963 13.902192
28.395818 18.625462 38.482534
14.501229 39.339053 17.802500
2.559835 33.107070 31.309850
7.746455 32.061724 9.710020
14.460677 21.881981 33.400633
31.462089 18.897029 16.987788
28.562395 10.156588 34.770255
21.666456 5.868784 24.004585
14.959992 20.094931 42.053051
16.067858 29.728752 5.177111
4.672977 5.780196 24.153310
16.123760 32.618128 35.762706
19.280579 21.610632 5.491540
21.666456 23.498194 33.426572
7.746455 12.810051 32.123731
0.546455 20.431726 11.550748
24.037738 14.701134 29.869099
15.545702 21.460031 38.788501
0.553826 9.581286 10.825097
30.682905 17.449927 2.059153
0.546455 32.041841 19.319654
31.405902 41.317613 27.274582
21.666456 8.353920 20.465006
6.203447 42.398901 29.998140
14.466455 34.715973 25.085417
15.532252 23.886227 16.201453
24.937867 11.392411 20.822656
7.744553 8.588859 12.182323
0.546455 28.356049 30.480728
0.546455 8.999876 27.271891
28.721264 9.737680 8.895938
21.929302 31.256545 15.604508
2.421835 42.204898 28.070706
2.772441 21.266814 39.383359
21.565669 16.788333 24.412816
23.827060 30.792893 15.158692
7.746455 17.009109 9.023855
26.975617 18.114148 26.281647
35.586452 19.736983 35.694746
35.586452 15.331179 30.083896
2.585842 21.644147 5.552182
33.415190 41.606340 27.518948
7.746455 26.382488 9.377503
0.546455 19.904069 6.749369
17.903061 21.541523 38.571313
30.098834 36.537941 29.641328
2.399248 26.209625 17.477752
4.467264 7.678013 18.751087
13.883824 11.514918 19.949087
7.653481 19.393561 27.233651
32.348812 16.958211 7.353594
18.750227 11.757165 33.951055
2.576436 33.103984 36.996094
0.546455 13.699519 15.092577
0.546455 32.929939 14.727638
28.769355 2.514681 23.377658
0.546455 22.905018 13.025467
18.502173 32.386748 35.155171
5.757527 32.786805 12.151545
15.229508 21.416063 27.892573
28.386456 14.367347 30.397854
32.866224 9.933854 34.916254
18.573292 40.980303 16.908714
28.386456 17.199939 36.859374
14.533902 31.256279 6.411434
33.444248 43.092130 14.183471
0.671258 38.780438 13.910468
28.386456 27.107673 36.193038
30.987791 40.523302 30.152184
28.386456 23.609602 35.758562
7.569508 8.971056 35.281072
14.466455 34.601134 18.951578
5.333907 16.757064 24.350798
8.193852 17.439104 12.135531
0.546455 22.008168 37.650411
13.063582 12.965349 27.704802
26.422939 29.545154 30.086119
0.546455 21.812613 5.857394
7.317272 27.882437 23.983613
10.019350 18.253541 26.415245
30.825825 28.716256 6.457769
0.546455 14.719144 13.022323
35.543420 19.919173 16.445922
7.746455 24.795389 8.135618
7.745983 15.693644 34.779908
15.075687 28.199437 22.560236
35.517362 4.339761 20.046230
0.546455 18.468507 12.132090
17.432359 1.795011 23.224605
22.884886 23.924797 11.163022
28.386456 14.820593 32.721917
7.746455 6.815867 22.926602
2.636906 15.412626 9.348817
18.774096 16.596933 23.925011
12.301850 14.755763 29.919297
0.546455 17.306798 37.170475
29.677656 23.103018 16.044299
15.971532 19.072923 43.498587
17.770179 7.052111 11.725179
5.094434 33.450130 30.920991
12.399779 28.212260 21.488533
18.663384 2.292656 20.512292
19.246656 20.071411 1.821564
23.707262 23.153013 16.052872
25.094689 12.659634 16.730177
27.226197 16.789312 19.515528
14.537080 24.996932 7.894377
19.652608 9.749701 35.024059
7.907242 22.400296 15.969880
7.746455 35.143877 19.319287
31.831854 33.608584 2.833803
0.546455 16.881669 13.951527
19.755248 28.218096 22.414533
21.125515 21.483728 27.898332
17.016559 19.561018 16.616861
14.466455 27.374699 9.083124
2.060032 17.195325 38.986013
21.547643 8.723636 34.352263
3.566342 32.940981 12.382945
20.808808 40.192215 30.148392
35.586452 29.232343 10.974220
28.386456 34.151763 16.210663
19.578506 33.305863 31.067068
35.200955 2.503485 21.100195
16.686525 24.990563 7.893780
14.335524 14.656427 30.133887
11.253813 26.285963 32.103724
18.881386 17.189106 4.204332
7.086531 23.949670 27.698250
14.466455 6.847760 22.806549
1.634211 40.585459 13.775503
21.637851 30.927671 6.944382
19.327038 35.191440 29.847336
35.586452 29.973725 17.954695
28.600237 18.958885 40.701447
14.459364 11.945574 17.026925
33.262496 2.009804 20.619438
25.477138 24.875954 27.336622
29.788448 17.370867 25.422134
28.386456 32.227935 15.359112
30.525748 33.694013 30.674047
28.430683 4.691477 23.756609
0.546455 13.592172 29.469838
35.586452 17.617703 16.568005
7.746455 28.729900 35.018014
21.666456 22.330765 7.142644
4.493521 41.440901 27.376408
30.350502 20.784979 27.760047
35.586452 27.953203 16.927578
35.586452 9.159940 13.958956
20.390099 17.232355 5.762651
4.632200 15.975650 8.875319
5.885678 14.601303 9.802673
2.435768 22.659091 37.064528
15.962372 32.222733 33.625710
7.690388 19.080036 39.568047
33.197168 36.751176 29.645316
17.855385 38.271842 18.545610
1.927114 28.236155 22.051031
19.129659 9.043756 15.843756
7.942703 12.320097 17.053766
21.666456 18.880433 5.935299
5.076651 33.552928 4.979724
19.186499 27.605381 24.618298
35.586452 36.182646 20.858103
28.478266 7.958461 25.474286
28.386456 35.181857 14.165189
14.466455 9.852154 11.371286
14.466455 37.246509 17.425839
30.963535 23.297887 36.598269
28.386456 35.004504 29.766084
35.586452 32.819039 21.343198
35.586452 17.310189 30.652666
0.546455 14.691971 25.111355
28.386456 26.030141 9.736926
16.138173 37.372220 24.465033
29.614195 0.094837 21.844793
30.529603 25.801762 36.017995
28.386456 18.259549 9.064968
35.177885 38.380290 18.458014
7.885360 17.056034 31.811318
12.484150 11.975928 25.681009
35.579667 8.956327 11.601147
14.293553 31.421290 28.227705
18.663747 25.695446 7.916181
35.586452 19.244255 33.103099
28.832927 31.520559 39.717556
28.075702 21.588008 32.933823
16.346205 16.505877 35.689280
35.586452 14.533594 10.389662
13.465195 20.393508 27.658117
17.572826 32.753038 31.844345
32.093440 26.970378 25.633155
15.276920 33.634438 4.115369
11.257819 16.903457 19.242149
21.322892 41.039170 16.863965
20.080286 38.349543 25.444027
0.546455 30.426740 20.911792
27.008366 11.337969 21.336173
28.386456 17.265302 33.190288
35.586452 31.564667 27.279981
33.012157 10.606579 9.445713
14.466455 31.438646 13.867101
3.138539 16.261928 22.279489
34.163676 33.152321 2.570220
1.039659 7.329176 19.028337
17.437388 33.652827 3.164235
20.017997 8.758927 26.767371
0.687396 12.147988 10.057368
3.998077 20.161805 16.360195
10.263409 15.686337 30.704157
14.466455 12.858202 33.507356
28.386456 11.600281 10.167200
14.815219 11.815321 9.987956
21.587239 28.894513 6.234815
7.746455 10.715171 11.368826
30.839117 33.415281 12.970599
0.609401 26.114097 26.539529
29.527417 18.105168 43.530851
32.945136 36.625188 21.233474
29.221923 18.164467 17.577247
7.746455 17.867578 34.016235
31.513860 41.847420 16.200223
0.546455 23.592762 36.406326
5.271819 40.721286 13.777274
30.891956 3.264213 20.209085
17.474475 8.743220 17.193744
34.831771 7.888434 25.399752
17.095914 17.379485 41.497307
27.926693 33.146270 22.881093
19.678102 33.016943 36.753615
0.546455 31.268639 17.012502
7.746455 29.536892 31.776228
4.114040 7.054114 36.171924
0.546455 36.725442 26.736713
11.626403 26.794720 18.079862
16.454436 37.383645 29.727093
17.595719 21.444747 27.895014
15.757212 17.945803 17.803523
35.135631 10.106067 34.803371
32.893966 39.784817 26.243476
32.845413 7.074550 24.707603
3.440136 25.523032 7.928022
7.622602 16.825329 24.486194
21.666456 28.078293 8.550203
33.186051 7.038802 11.709175
14.121430 16.343793 20.985391
14.524989 4.404292 23.559698
0.546455 26.079923 30.552606
1.247149 5.441813 19.833710
14.845343 23.864959 27.720307
2.919576 37.574320 29.765391
25.667733 27.284159 25.208894
0.546455 11.145436 16.767007
4.960685 20.194245 41.898831
35.586452 29.637909 25.921881
28.386456 10.111790 28.319686
35.586452 35.099841 25.412801
14.490099 17.578426 5.312912
21.666456 34.418901 15.629199
35.586452 28.539117 19.518736
19.425965 8.237786 30.855096
28.491218 32.938352 36.823715
7.746455 36.293729 23.394170
34.888884 41.823176 29.081204
19.026282 32.355770 8.894559
35.586452 37.009886 24.167260
18.078398 34.856868 13.968920
22.007256 27.072508 18.395490
32.613833 21.031021 3.821017
14.466455 31.888184 11.317319
14.466455 35.620826 15.852607
4.679952 16.279199 35.386117
19.374230 7.807983 35.932682
0.546455 19.604571 37.710498
17.242537 8.688896 35.581144
21.666456 20.729766 8.940476
21.666456 8.164045 25.591159
15.270061 7.086370 11.766376
7.285181 40.669245 30.011636
5.513253 18.351464 26.509096
4.661493 23.889950 27.713800
29.724988 8.808338 26.886437
17.416869 33.230282 37.424680
7.824042 19.407760 11.105992
31.721365 0.002009 22.245625
35.586452 11.052909 14.736578
0.546455 15.518365 10.970862
5.454351 39.678604 30.123649
19.241579 5.501260 24.102202
2.988987 9.019240 28.916184
30.756830 5.870848 33.961085
1.187761 31.768975 3.612904
0.546455 9.258675 23.164586
3.240551 33.572618 39.095220
14.466455 13.921569 10.339430
1.076956 8.544366 30.350679
30.752441 33.415344 5.757011
23.117899 21.620917 32.859886
31.553926 18.156217 43.832027
30.989621 2.138371 23.356137
24.846872 18.534877 32.232629
35.557263 38.533818 15.957459
14.708823 33.104943 37.762913
6.206292 16.865461 19.326025
9.815647 21.926700 32.876465
14.516627 8.711984 33.552022
20.099422 27.577869 7.376652
0.546455 9.418317 19.300303
33.475756 32.981405 31.486960
28.386456 28.970920 10.600971
3.934890 18.030056 0.222195
17.777182 17.122429 37.074230
1.530057 33.241440 12.794577
28.492205 32.233133 34.403046
33.562632 9.055727 28.195660
21.355609 32.233716 9.518316
4.919762 26.311620 17.560106
21.577828 19.729720 39.906361
0.546455 32.614604 29.680004
7.710797 4.745509 23.834605
4.702987 7.511180 12.251854
28.386456 33.479950 28.389723
7.746455 15.173094 32.539474
21.666456 34.080070 18.692030
21.895226 30.869692 28.873107
2.985226 29.542616 38.529913
24.463771 25.418972 11.511559
31.317052 32.463410 32.486978
0.546821 17.584103 5.904214
1.654100 23.952414 16.224838
35.586452 34.823271 22.357414
33.404829 32.284034 10.766801
0.546455 29.764585 9.154945
15.274495 39.147295 30.067692
14.469448 37.445812 29.241348
31.593197 27.905481 23.908365
17.447192 15.360311 9.384965
5.361484 40.134383 17.479517
7.746455 27.467780 32.432719
33.024795 1.474512 23.080272
11.958288 23.742764 11.138722
32.809291 16.654836 35.930338
11.608849 16.292737 21.307669
32.507550 19.919746 42.353526
5.253257 22.982285 36.804906
31.322589 16.327486 21.061057
35.474706 37.329496 14.210660
6.735578 16.814328 36.236717
4.554851 12.900672 33.793428
28.478460 39.545123 27.445396
34.788610 21.655387 38.354358
11.790724 26.879158 25.756493
28.386456 10.811780 26.384321
22.486585 27.080132 25.484757
3.594186 9.057624 15.692106
21.280950 11.194568 34.162822
24.508702 29.019412 30.532688
34.852062 39.404126 13.831035
16.029373 17.229677 3.490567
5.571599 38.221178 18.586532
28.428125 19.247310 4.586556
28.424162 20.625863 39.414039
34.713514 17.233580 38.112537
31.034955 35.454142 14.162370
4.768972 21.602271 5.476413
35.586452 16.949274 24.936825
0.546455 10.955672 31.015770
30.420406 8.924420 14.582986
0.546455 16.389108 34.811302
28.558052 6.921567 32.810719
8.000961 32.324600 17.486531
25.230476 23.604393 11.120251
33.701308 37.681181 24.837544
35.586452 20.120667 6.850899
34.790787 38.305915 29.934917
21.600253 25.801168 7.908921
33.812385 28.020428 20.367832
17.400431 15.117493 34.374135
26.226840 28.145450 22.981834
8.425911 28.210150 21.438856
28.176805 16.292772 31.288968
26.023954 27.693955 31.434668
19.386959 22.982277 27.900997
2.581683 28.133202 36.919836
34.034157 32.425149 8.655558
33.583443 27.734528 24.362150
28.715020 7.823086 18.596677
2.643543 6.092249 24.255790
18.595408 8.458971 13.434475
13.736447 17.655521 18.133347
0.546455 36.378410 24.611451
35.586452 26.173684 12.059991
14.466455 30.573717 31.047664
16.737729 12.721921 33.801232
16.787719 8.992701 27.603115
14.466455 36.129418 26.944263
33.107126 43.099807 29.722772
0.546455 18.693525 35.102215
12.694605 18.743166 26.809970
0.546455 32.397722 32.657727
12.523244 12.581869 16.861929
28.409488 16.046492 8.807077
3.099440 39.863414 30.132552
33.566104 23.161402 36.687631
2.676651 22.438936 27.947243
35.391523 26.868708 36.228277
14.526073 15.901328 34.979965
2.712814 15.836358 34.917381
3.927884 5.919681 19.730265
6.509725 18.456381 43.809998
27.220391 23.825154 27.730672
7.746455 10.210387 32.153065
33.329953 17.113924 25.058590
19.304647 7.438075 18.944776
7.718944 8.138849 31.975830
16.168903 25.914746 26.701424
18.845236 29.134115 5.923366
5.379006 17.344442 2.614184
35.586452 10.335094 25.408875
0.807215 3.055520 23.521474
19.775541 20.289813 16.314967
7.746455 9.789296 29.879375
0.546455 14.683590 19.957713
21.666456 22.719212 36.942618
15.849667 8.330540 13.221332
33.423400 5.232858 19.865472
7.840139 21.676235 27.914717
18.170837 18.139749 17.597205
0.546455 27.736023 32.403606
30.489321 7.800870 25.306552
5.136892 17.132940 6.785737
35.586452 10.203566 19.311603
0.546455 14.743138 17.853694
28.032039 20.311916 11.165864
35.586452 25.591282 16.474746
2.212035 22.008317 15.973648
2.312564 13.855228 33.883819
5.388815 21.312663 39.231106
14.884235 31.036946 4.089463
5.839970 21.572109 27.905855
16.207888 36.609362 22.573536
15.996209 36.204521 14.286644
21.666456 8.996678 23.230684
35.586452 19.386598 14.133356
7.746455 23.834722 10.046929
18.841750 0.000083 21.975094
21.041241 33.410561 39.311586
14.466455 27.054659 11.347993
0.546455 19.388612 9.060525
27.388203 26.322730 26.339571
19.606099 13.838425 33.878978
31.819222 11.578968 34.014715
33.061964 8.708347 8.354874
1.168595 1.983200 20.629521
6.623110 9.001022 27.681344
35.586452 35.383244 18.168831
28.061744 21.763063 27.922107
35.586452 31.075982 29.511568
28.525200 39.053402 29.820535
14.472743 37.709115 15.264970
17.093646 7.118216 32.122198
20.782671 0.892155 21.693176
13.107976 24.466439 32.663319
11.187118 33.003446 23.875819
7.193965 26.098125 26.554837
27.727689 31.573638 27.635542
19.430169 17.188260 39.530549
32.761221 33.648955 40.942782
12.855975 27.980195 23.664399
7.465550 20.643621 2.880657
14.288462 28.076455 20.627801
2.776623 16.775213 7.765297
16.953432 13.133328 10.138998
14.466455 10.700309 32.397730
11.831484 24.960229 16.630231
20.848617 42.321589 15.181749
25.372390 24.693048 16.486521
32.944070 8.957701 14.733108
25.907306 11.918955 25.523297
35.586452 32.079536 11.641101
1.307487 38.310716 25.412666
12.080186 30.335652 29.304146
28.386456 34.837119 26.872930
15.373627 10.337620 34.651587
25.268924 17.680790 18.104637
33.604895 40.496178 30.152537
4.989789 28.363883 37.120870
6.028584 12.400248 10.110002
31.366031 31.650504 40.499816
14.466455 9.929823 29.824787
20.717966 26.435164 26.231812
20.572268 24.549137 27.484352
21.314503 32.161045 5.027076
28.386456 15.924519 10.919773
21.666456 18.219670 9.451195
1.548018 24.224140 7.736545
35.586452 30.540854 34.602860
20.275254 18.450565 17.346238
35.586452 19.692770 38.295161
35.381120 16.746712 36.106828
15.275512 41.566448 13.822025
30.197352 22.441517 6.662977
21.666456 34.167806 25.742043
0.546455 12.016834 33.859287
18.803429 37.684045 29.789772
26.976844 16.275899 21.704070
10.012491 18.925386 11.553136
30.339897 43.193126 14.459504
7.362898 36.622209 21.245487
0.546455 31.449660 27.373241
30.262514 27.704952 36.628974
0.546455 24.928604 28.479972
11.030961 33.174447 21.790259
1.174630 7.245057 31.969683
14.466455 28.762652 34.857019
4.391262 5.185481 7.686116
20.288127 18.026092 26.197253
35.586452 14.681173 25.270471
16.575477 33.196270 12.742741
21.054398 6.781202 35.524691
0.546455 16.930060 16.891758
33.913569 17.214068 5.271556
30.708880 33.650488 40.871409
31.876792 35.000559 29.907520
5.986419 6.789121 32.534679
21.645354 33.656634 13.214980
31.195725 6.993844 32.271749
28.386456 10.191797 30.624122
14.466455 21.822401 6.268836
7.746455 10.888382 14.310794
6.163762 43.246452 14.609325
28.386456 37.738968 25.243800
6.400611 34.896857 29.940217
5.364734 8.554724 30.333489
15.089905 17.390315 41.554378
17.430872 38.514705 25.565604
16.640429 5.881639 9.985048
0.546455 21.667345 8.633197
28.386456 33.490834 25.084278
21.795664 19.625468 16.580858
7.692505 31.234681 6.514691
21.666456 34.988488 23.889858
14.513859 30.871552 37.485008
19.355295 16.347458 35.477408
3.076330 18.179986 26.344747
21.573087 9.693971 8.870987
19.674975 1.708385 23.185590
7.945280 26.151119 11.601727
35.586452 16.872786 11.007894
3.793179 32.285618 33.148040
14.466455 34.340294 30.076077
21.666456 31.649325 11.444420
21.521583 18.335659 3.849242
35.217335 22.631936 6.837464
35.586452 24.920265 30.081166
30.793613 13.684301 33.853438
8.826227 16.885676 19.275718
28.386456 15.813955 34.708396
30.070327 32.872908 7.570894
29.038998 41.542517 27.463958
35.586452 16.867585 27.345022
2.231178 32.327943 10.990804
14.466455 15.822281 9.492927
33.508830 41.515726 16.486001
33.432361 20.766128 40.767741
4.262802 28.240822 22.160897
18.907519 28.057859 20.541512
30.814340 36.573919 21.789765
0.996910 16.666121 19.822104
9.358013 12.512387 26.931277
21.238725 29.075198 37.924645
0.546455 28.370282 35.761056
0.546455 9.086078 17.078238
14.090797 26.651329 17.916938
34.961878 8.130493 8.111481
23.588065 26.471867 32.029654
2.317521 33.012242 41.340959
11.875736 22.971653 16.021774
22.344469 32.156684 17.374089
21.666456 8.385555 30.844007
28.386456 37.239766 16.712413
16.033096 18.909639 26.922486
31.817405 28.082958 20.657971
31.233663 8.352693 30.668779
13.516828 32.785469 24.866095
21.617633 33.663307 30.705139
17.395167 16.289474 22.494606
0.546455 29.965755 34.321840
28.386456 9.399916 22.958499
20.339516 23.833161 7.592886
6.384386 28.236553 22.060390
21.628068 21.040126 4.430010
14.466455 33.268305 15.645602
8.182183 20.186987 16.351298
35.586452 15.932515 22.682949
0.546455 34.239992 26.194381
34.860024 17.447755 2.069901
28.386456 6.845964 23.530003
16.902551 20.217694 2.067467
30.317304 16.380389 35.521450
14.466455 32.386415 31.921050
16.905931 24.396258 36.145361
4.273906 7.354929 7.839821
35.586452 9.324443 27.742987
9.044026 26.941812 18.246991
0.546455 29.732664 18.337848
4.662365 33.080667 41.378529
35.586452 8.507942 22.642847
22.960441 17.067467 18.975780
26.679627 11.825995 18.675916
14.466455 14.871021 32.936080
21.666456 11.470594 10.058247
0.546455 29.028027 26.536804
24.213168 24.175339 32.718359
28.386456 6.823451 21.468757
19.557323 10.781291 9.552177
35.586452 30.377413 12.819118
14.528051 17.882976 39.363605
21.666456 29.932568 9.311046
7.391867 30.624167 4.260166
23.454976 18.378664 17.404294
21.542019 6.976276 32.351465
14.906010 28.457686 37.202617
28.386456 30.572242 13.619567
22.166267 28.181266 22.702140
18.296289 40.839657 30.148055
17.206449 28.241369 22.173763
35.567119 38.665001 26.882133
30.293394 31.624986 3.445432
21.854265 29.497199 13.583298
5.935403 18.482921 0.036276
28.386456 28.731939 8.457316
18.927964 33.604397 39.410466
32.625424 38.946986 13.881867
3.698544 33.654766 3.254648
14.339122 19.518610 16.640552
0.546455 20.518585 13.980769
22.673580 12.734188 16.606267
16.515109 22.470873 6.689877
9.789875 27.886425 31.327634
9.657296 16.258145 22.122030
34.836822 33.402216 38.111883
34.225968 15.422725 34.585038
21.024949 7.151544 7.825492
2.741259 39.992444 26.364557
33.938244 5.155676 36.204722
17.357388 24.510472 27.501830
0.546455 28.428691 11.134906
7.269247 33.455691 5.576634
10.225111 28.001897 23.593532
23.373021 14.525064 14.229141
0.546455 17.532715 10.142996
5.047723 30.075660 4.797689
5.782025 29.652611 38.659833
28.386456 23.651621 33.580121
14.466455 29.697669 9.054243
9.022405 18.299932 17.467866
35.253318 8.116537 35.464176
0.546455 19.701775 33.090992
2.719843 17.229847 5.656775
23.573744 12.407703 26.700908
7.808306 14.460692 30.100851
28.386456 9.631606 17.535489
30.368664 28.239896 22.139092
14.844256 40.988615 15.793998
28.386456 37.288994 27.942847
0.546455 17.790876 32.390564
16.312607 0.001429 22.164184
33.318457 20.970242 16.117010
30.970734 29.987233 4.890076
32.558367 21.647059 27.912234
21.946150 19.098890 27.050398
7.313265 22.655674 37.067659
21.618843 9.017991 16.085991
0.546455 12.958826 11.962569
32.920422 25.554123 26.945163
28.923820 33.504307 38.933109
9.190826 33.107626 20.848332
14.463878 28.592602 31.533146
26.163402 22.813342 32.863304
14.466455 9.022715 27.023149
16.882444 16.959237 19.151557
18.045269 16.793017 7.731096
32.734586 30.993436 3.936253
14.545157 19.878637 39.854003
3.626410 34.652518 30.061116
16.949274 28.199891 36.977954
35.586452 6.395767 19.965017
14.466455 12.088525 29.222794
21.439992 16.852589 36.310217
28.351523 19.642520 27.346187
4.924672 26.858758 7.702720
28.386456 35.598087 24.783844
30.488337 9.027349 28.773864
21.666456 31.431349 32.183851
21.666456 14.480053 13.154410
31.068627 37.664599 14.141678
19.501359 12.698119 10.124605
35.586452 20.333889 29.973342
21.610787 39.559981 26.488820
21.532782 31.686556 37.820365
33.413268 29.265722 5.747143
7.746455 34.491936 13.871133
20.301539 33.649241 2.997388
33.869720 11.648028 33.988107
28.430937 30.763112 37.469558
4.229534 41.812725 16.230110
30.733270 17.257169 18.667686
21.666456 31.722490 34.215034
27.225098 23.888130 16.202125
14.466455 29.824154 11.897478
3.391839 3.170785 20.231938
27.821427 27.693725 24.443079
19.838895 6.869362 11.501614
35.586452 11.574408 28.182843
23.345491 27.988078 20.217726
5.980415 35.981912 14.254509
17.118796 26.972992 18.282419
21.411452 37.228206 24.238978
19.953560 35.718338 14.216460
30.767972 9.527968 35.150759
35.586452 20.333766 11.345399
16.893085 27.665877 24.498313
0.546455 36.009118 22.182133
35.586452 13.117855 13.880579
35.586452 14.756811 15.458433
30.799817 37.181343 24.165417
35.586452 31.294271 19.543189
9.360462 31.591477 27.605893
5.137130 36.904799 20.312141
12.168289 18.610434 11.664142
35.586452 9.613737 16.889333
14.781200 8.325722 35.609885
35.562325 30.548806 37.073095
21.622134 4.647119 20.444179
14.466455 10.444826 13.455366
7.746455 34.541283 21.731094
15.578386 29.683477 38.696302
9.597120 24.468097 32.663005
32.734975 38.052572 18.722720
0.546455 33.692910 22.872426
1.439282 19.550004 1.033495
35.586452 12.249360 19.085321
29.651206 17.188967 39.098763
35.350395 6.730436 10.768290
11.523752 31.559989 27.658225
17.656738 6.669697 24.490393
35.586452 14.232356 20.830491
5.069621 31.145935 40.115228
17.226857 7.304023 19.047638
7.680883 38.443272 14.155770
8.910600 11.655357 24.609461
15.547087 7.750863 25.253327
33.163356 7.522983 18.879624
15.310934 16.859839 7.602732
28.386456 31.219886 10.092309
16.645121 2.494016 20.438263
33.484317 23.033490 16.032377
4.695982 34.505780 13.791683
16.676380 5.003325 19.895894
34.416725 34.924903 29.931375
9.925815 25.616499 11.565251
9.777115 21.507803 16.024837
0.546455 31.151192 11.028641
11.529787 14.520265 14.233812
33.365130 35.133200 14.061177
29.531147 23.201355 27.882351
35.586452 17.917072 6.180188
17.453885 4.241853 23.927603
28.071317 17.933544 11.855336
2.974549 17.310080 41.104207
14.899205 19.252302 2.219988
28.386456 21.187427 37.049844
3.722796 32.230486 9.608728
15.063443 1.731168 22.760796
14.469139 38.646843 25.790990
10.735562 16.604558 23.949910
0.546455 17.878129 29.551834
4.834062 17.236670 37.982069
17.187807 10.698100 9.501483
0.546455 11.558600 19.147301
4.402870 18.266541 17.494827
30.888753 21.351344 16.051664
34.346427 20.082644 1.840439
35.586452 29.057322 15.178416
21.666456 13.938193 11.084838
15.822337 26.677743 36.170723
0.546455 28.822287 6.880256
14.466455 22.797338 8.424945
2.559942 28.152490 6.990231
17.250968 40.820435 26.896631
19.779248 28.072729 36.867135
29.568344 11.739110 33.954823
5.199147 20.085931 1.845973
35.259588 16.945406 19.174019
15.053320 31.563212 40.242457
35.454029 28.164765 6.979534
35.586452 14.085702 33.946562
21.666456 21.211463 35.540272
28.520805 36.574697 22.146690
35.586452 25.626232 9.947775
21.666456 18.416391 37.950549
15.880755 33.164409 6.728127
33.314909 17.734355 18.043775
14.466455 6.651868 20.013656
3.702563 20.775986 3.181544
7.746455 35.953331 25.556952
29.860442 29.262309 38.175127
14.004584 32.489694 18.119147
24.921796 11.419236 23.357244
33.687094 0.147516 21.558570
0.546455 14.174386 22.414460
0.953924 27.393865 25.037814
12.323204 17.190618 25.178421
7.619706 17.235008 4.166766
21.666456 11.711832 12.665871
35.586452 10.261109 21.606666
21.658863 7.955052 12.617765
14.466455 34.106096 27.799015
18.040119 18.563918 43.904288
10.869057 11.953057 18.309178
18.903463 41.205465 13.795239
35.586452 35.621413 15.978357
11.061234 20.662399 11.151024
22.727159 23.373287 27.848328
14.608681 24.700471 36.065877
35.586452 26.264619 8.028141
7.826330 31.134083 15.115231
14.477899 29.176491 6.267235
16.716791 9.034262 15.276109
4.538884 9.708324 8.879189
28.386456 25.103401 7.944864
19.034277 5.105655 35.719289
31.335061 17.287470 40.926270
35.586452 32.450779 25.376868
28.493478 25.399375 16.875553
29.429497 41.469205 13.814808
23.240851 20.757272 27.752833
31.446446 32.254452 9.412349
32.212147 29.092928 37.948373
18.686655 9.024173 28.830423
21.744996 25.880687 32.594279
7.354058 17.920741 41.279118
17.993297 6.783025 7.678466
2.944079 40.082103 17.510009
19.850488 23.589174 36.442255
7.095045 31.714848 40.380676
14.632398 6.883624 32.697709
12.787055 23.249005 27.878295
13.950849 11.530785 24.074374
35.586452 25.663143 32.374393
14.554090 39.375639 27.860275
1.461240 6.775495 36.250537
30.176477 32.502722 35.469697
18.584025 37.282248 24.323807
7.746455 36.806179 15.601223
0.552133 8.190666 12.438556
21.162669 36.287041 29.636635
4.213287 22.406618 15.970148
11.171895 18.374284 17.407831
1.378214 42.319115 15.061276
4.594177 7.570342 25.083592
0.546455 10.138336 12.922669
35.586452 21.303189 13.313759
19.427230 17.405140 41.632462
25.883440 16.988873 24.810564
35.580216 32.385600 35.623511
31.918886 5.121045 36.162849
14.703056 27.050425 25.524923
20.517162 16.821129 19.436350
35.586452 23.613293 32.395756
20.866496 40.078288 13.783972
19.439957 40.563127 26.724374
18.888527 19.742788 27.391511
21.666456 33.844961 28.484489
4.885047 36.609294 22.572698
0.546455 24.899592 14.198395
27.341400 32.684778 18.720612
21.666456 10.132641 26.126636
7.445874 25.809495 17.154669
7.746455 31.005948 33.841198
13.305136 28.317344 12.884649
17.066935 17.521089 1.778839
21.707963 33.547819 22.229753
3.775221 12.839009 10.130756
7.746455 9.479672 16.044389
0.546455 9.671151 15.090992
2.897793 16.968230 19.136951
4.039413 18.775359 43.838132
7.746455 21.411718 35.538668
7.746455 37.196231 18.625079
9.998157 27.893794 19.977887
35.266172 2.787368 23.549438
35.395574 5.988489 24.220208
27.814594 21.912018 15.980259
5.317680 26.127538 36.041529
14.466455 31.520316 34.958458
25.973944 19.193439 11.480273
21.666456 10.094582 31.972708
0.779664 35.996514 29.670260
35.586452 21.326955 31.887587
6.959143 7.290222 24.868648
6.701679 5.226543 19.866432
21.666456 27.547972 34.054193
2.430312 6.396244 7.592734
0.688005 38.847926 30.027992
35.586452 27.464412 25.905781
0.546455 12.191913 23.317376
32.959890 24.917700 16.606473
1.000521 6.221446 34.036206
30.493311 37.219306 19.701868
0.546455 6.816134 24.442281
35.586452 33.168109 29.712609
7.746455 34.148084 24.634179
14.658024 8.060514 9.514028
24.969121 22.517521 27.940554
14.691773 17.052298 36.859208
2.213045 7.818467 25.325282
35.586452 10.444373 30.434530
32.334812 32.908672 7.474942
4.082389 32.432321 35.289659
17.370573 43.216741 14.525849
12.326995 21.154022 32.834571
0.546455 33.869245 20.779086
6.450929 5.236739 7.625226
31.657599 8.140155 12.945316
28.537173 32.317701 6.351738
29.004301 32.602277 32.152475
35.586452 8.297250 30.850779
35.586452 17.299582 13.961466
29.402487 19.905076 16.450903
5.727494 3.608529 23.802015
32.919648 30.569617 39.616271
0.914972 17.409725 41.089404
14.466455 20.349510 9.280971
35.138659 20.028487 41.883795
35.586452 34.302976 28.016843
7.587498 9.649692 8.845682
4.987749 33.013512 7.182804
4.833939 28.566623 6.627398
14.466455 12.864417 15.100739
30.191744 16.888924 7.546860
6.442789 8.070975 8.086513
34.590617 23.486679 27.818803
16.824664 17.047945 24.927727
25.538628 20.569634 32.763468
34.561374 15.777164 9.066517
6.781011 23.243680 7.293115
10.436806 19.915138 27.469418
9.028329 11.646878 19.355939
10.302111 19.065378 32.411793
6.100637 0.001622 21.735596
26.220098 33.162591 21.366793
33.010978 12.653786 10.122669
35.586452 11.791684 32.373960
14.466455 31.933057 9.182345
13.607341 14.539756 14.214842
26.684205 19.995904 16.418812
14.466455 33.629330 13.500917
5.786211 32.159585 3.082008
29.043074 6.040575 9.077066
10.877919 13.489197 28.494410
5.262998 26.626306 26.048617
14.292945 18.348864 11.576666
17.388488 43.233147 29.354933
0.546455 27.547962 9.163398
6.825330 32.693679 7.988270
24.027024 16.515533 23.659214
34.071832 24.917146 7.886895
27.182427 26.578660 17.834371
35.586452 21.421210 8.596224
23.468868 16.311541 31.129370
10.300705 31.622540 16.372610
0.546455 24.006175 30.892534
21.666456 13.459322 33.691433
6.022374 20.003311 16.416195
29.198352 38.499946 18.370962
2.772300 26.649327 26.026553
17.015768 40.324609 13.772106
7.746455 19.661460 5.559590
21.261529 20.387051 2.373714
26.063677 32.715095 25.105590
32.537278 26.582891 17.839178
1.853501 37.004637 14.269594
6.678391 40.728234 26.834675
26.734997 25.842593 32.280379
14.466455 19.594625 7.182294
32.579181 17.703497 1.130709
14.466455 9.644959 19.360510
8.008626 20.637067 32.866130
3.850242 36.287684 14.290229
7.746455 21.686071 8.169777
15.339358 41.391979 27.334258
31.145698 24.119993 7.709333
7.839232 14.910575 13.505413
20.682294 30.327837 39.392658
35.586452 15.723740 32.740900
35.586452 24.784761 34.836053
35.210428 7.968002 18.442434
16.463791 33.857354 30.553214
30.782713 11.347011 9.822789
2.989614 5.725194 9.690168
18.659713 38.880837 13.893230
21.666456 16.700268 11.146598
21.666456 25.749480 35.130379
0.546455 36.609023 16.564612
14.466455 18.034272 9.394981
32.501476 22.392095 6.617690
17.588985 24.324006 16.356130
35.586452 15.254670 17.472166
0.546455 10.796530 29.008366
6.292002 41.827995 16.216954
18.569703 31.814647 40.618009
14.659644 39.386316 13.994158
2.970592 6.053244 33.635433
19.412580 16.281618 21.569443
3.338475 0.801486 21.179385
7.631060 3.924929 22.009730
28.769478 8.064026 31.068043
15.296082 16.348794 22.957847
14.466455 36.897965 19.577209
25.501671 12.759235 27.362238
0.546455 22.625971 28.656061
31.516439 40.056597 17.524898
6.574664 17.188414 39.107963
0.546455 11.102720 26.851181
35.586452 27.143278 13.912705
16.555524 39.937252 17.594502
4.381869 2.026605 23.313802
29.203197 21.450022 5.108707
28.398023 30.474958 7.129716
7.746455 35.197252 17.067601
28.386456 17.896328 6.492008
21.657579 37.654353 14.689367
0.546455 14.926830 32.311024
25.185080 31.760863 16.602504
21.666456 12.812849 14.746365
28.814208 19.371058 2.225040
22.401146 33.046365 20.270489
0.592291 8.632965 33.314532
2.628765 27.531594 19.141026
4.710113 27.793109 19.727325
28.386456 34.179260 20.681015
35.586452 28.495254 34.933301
35.586452 28.596022 32.724596
29.075594 27.033026 7.630536
32.392755 24.914571 36.040223
34.680420 32.644213 40.684318
21.380890 39.097781 18.039977
32.090884 8.662138 26.556382
30.819302 8.682684 17.325707
21.397967 21.703100 15.991350
18.189165 33.126141 6.859377
7.522664 40.230882 15.635706
29.596664 17.186944 4.694857
5.253223 38.292955 13.994183
14.466455 15.105529 12.312193
15.510253 22.883923 36.869307
21.666456 17.029200 7.709761
23.448569 32.728538 25.060946
21.666456 37.111137 26.931819
7.511209 7.419884 34.019325
33.553816 7.954123 31.192891
7.746455 10.611631 26.924142
19.712715 20.970951 40.268613
16.485769 37.211312 19.714418
7.746455 29.877571 8.311789
7.746455 19.387787 8.951638
26.154975 13.878993 28.990243
0.546887 5.551725 22.738407
7.746455 38.078129 25.558649
34.521067 6.743744 32.596555
7.746455 33.020365 31.029313
22.015479 13.039832 27.938070
28.514234 32.669564 11.911925
11.137166 29.105203 13.467060
17.518953 19.895624 42.388958
21.666456 29.548469 33.598391
7.082264 1.782905 23.219149
26.752595 14.905231 13.880620
1.865750 32.230037 34.303755
7.746455 30.175004 10.399534
31.699990 33.574522 39.114045
13.883823 22.600732 15.978394
28.064423 27.306156 31.713375
7.650351 39.172265 28.589256
35.586422 31.344374 7.948756
5.796426 8.935924 16.575886
0.546455 27.284706 17.666648
21.666456 8.427109 18.037956
0.745293 18.493085 3.411244
21.119382 20.128236 42.009794
19.654015 27.106720 18.450989
12.603432 32.936037 19.744818
14.466455 18.715411 35.061254
33.235187 40.902985 13.779649
0.546455 25.486918 8.983069
13.992644 26.221631 32.145639
35.586452 27.701632 9.661356
14.466455 35.566320 22.614813
32.188339 27.090117 36.319987
23.078999 25.795584 17.143436
14.466455 12.365820 31.225105
16.255013 7.824912 8.000107
3.360123 7.709817 31.463789
8.245481 11.340640 22.698359
2.117603 9.900027 8.988745
35.586452 28.124140 30.778150
23.096800 28.141533 12.768206
2.927446 38.885121 13.892490
7.746455 9.211287 23.096204
0.546455 20.660731 30.970870
0.877129 7.877618 8.745203
10.946903 13.273001 15.727708
30.883272 5.999506 24.223986
14.466455 24.980726 9.984375
6.160895 23.824046 16.179483
35.550289 8.630611 32.964605
28.118347 23.121722 10.978437
6.334231 33.639361 39.844793
14.523994 20.828499 4.110544
28.738877 40.867621 15.779737
35.586452 18.574049 28.951094
13.047547 33.121509 22.947591
7.075803 7.805019 18.615907
13.679352 25.491549 26.987457
27.806574 12.628062 27.147293
21.666456 30.584784 36.091606
15.351485 8.055597 18.349202
21.666456 11.016791 29.942464
28.386456 31.807218 30.087464
7.746455 9.927122 18.390522
18.920683 33.594115 4.618434
0.546455 7.889029 21.100584
22.231578 18.838177 32.350463
28.071743 27.754365 12.446057
19.319725 4.894225 19.908823
32.946251 4.796706 24.006512
21.982215 14.797649 30.050064
7.632883 26.020746 36.033033
17.248540 20.897279 40.468275
35.480033 18.315068 4.142033
11.751440 21.400284 27.891230
0.546455 30.991621 13.291645
28.386456 22.936013 7.548373
6.726819 27.564617 19.194660
30.436488 15.421141 9.342934
0.546455 34.230244 16.635464
19.365541 25.922314 36.026274
31.551567 17.222864 5.426755
35.546195 20.588467 4.457663
19.070609 6.583785 32.814675
10.704123 27.336477 12.293914
31.477041 6.438674 19.552285
14.466455 21.754236 35.445021
16.871428 27.959074 20.140342
21.666456 18.834220 35.710848
30.539382 21.754394 38.175217
11.591613 20.199550 16.346859
22.816777 11.705172 24.835773
9.986809 32.700736 18.773605
27.983687 11.527409 24.187338
14.466455 26.621758 34.494365
15.993921 18.442077 0.043179
2.717082 30.955221 39.959397
3.326831 8.735207 26.715665
32.334087 32.945801 36.555455
30.616442 8.713945 8.357635
35.586452 24.535892 13.974771
18.709446 29.331964 38.268399
18.808825 42.183374 28.049744
17.317822 30.402998 39.462205
29.216683 25.136244 27.218964
0.546455 16.209606 22.217871
35.586452 23.417099 36.352798
28.386456 12.127347 13.868901
14.314113 21.635495 10.863075
22.735172 18.520815 11.699850
28.386456 12.434459 29.595946
24.890106 18.289259 26.449477
34.038267 18.441225 43.883553
9.003695 25.341098 27.089143
15.834145 21.285343 16.062981
14.532115 4.311294 21.277200
3.629538 24.982776 36.033827
21.666456 24.953793 9.932676
21.666456 37.257011 18.854570
28.386456 26.826136 33.885238
26.218738 16.892678 12.442663
20.356579 23.938886 16.220058
35.586452 28.025211 23.965445
15.382884 5.772635 8.261065
0.546455 27.554085 14.258287
2.790622 29.767319 5.131548
19.468928 17.487754 1.910162
2.940375 24.909249 27.321572
28.386456 28.869249 34.740019
0.546455 15.879097 29.682400
29.949390 27.220673 25.294733
4.444328 17.187772 4.502256
35.586452 12.000707 10.099363
7.746455 35.641831 28.046613
31.311832 26.563478 7.782983
6.098264 32.483513 35.420573
0.952125 20.156347 16.362123
7.746455 33.156673 15.589852
0.546455 25.128080 32.645720
6.664070 16.286624 21.451579
35.586452 30.767879 23.767116
19.080059 36.602555 22.489718
32.052710 15.157737 34.401942
0.546455 20.564648 35.813242
7.746455 7.370140 20.666697
2.742969 7.199942 11.902981
23.695487 27.855974 24.070022
27.923732 13.623878 15.244533
35.586452 17.763371 8.228316
28.386456 13.354336 11.469912
2.842985 20.248292 41.807976
0.546455 28.821597 16.148679
2.262381 32.875770 7.564314
1.533011 33.468537 5.497776
0.546455 36.282173 20.117820
3.067911 27.859637 24.058062
33.452703 32.290994 34.701282
21.666456 10.366215 19.741197
35.420639 40.338664 17.066973
7.734285 21.136447 39.131679
5.568406 3.525926 20.145066
26.168595 26.954441 12.099656
22.051844 11.292805 21.556432
25.993110 16.254800 31.091789
35.456870 18.462238 39.989579
15.385856 42.269316 29.654908
10.286014 16.563122 12.630880
31.275245 6.098011 10.371372
31.975413 20.149717 1.953193
7.145858 17.199642 6.361170
2.126852 18.136312 17.599980
11.885646 28.689762 30.794248
21.666456 17.130610 33.904294
16.536182 5.256306 36.324635
26.189690 21.580207 11.069199
0.557462 30.984195 36.488419
28.386456 30.434711 33.171517
34.140684 18.795578 26.845394
18.008082 27.779505 7.251702
15.099408 10.007821 9.059141
28.290570 28.228675 21.874942
35.586452 23.524286 9.509134
35.586452 27.945926 27.892034
9.003044 32.680466 25.220583
31.795436 24.008894 27.682830
7.746455 31.266905 35.938916
7.746455 28.849083 37.102867
29.324249 16.425534 20.606113
6.916455 6.812739 36.240028
23.856721 21.139441 11.093097
0.634340 38.196727 18.606282
31.027278 17.164542 37.342288
28.980721 16.368280 23.110017
11.414246 17.126518 31.613925
34.740601 30.758949 4.135538
28.386456 21.626973 35.092514
7.746455 30.152160 12.632366
18.433208 23.116706 7.209980
21.666456 13.173185 31.589402
22.334384 16.294282 21.271299
0.546455 15.672547 27.533373
35.586452 15.313813 12.800922
35.586452 13.497383 23.614088
25.726329 20.189948 27.593639
0.546455 12.805599 20.753020
16.771930 21.252270 4.495224
25.122012 27.172894 18.558463
35.586452 33.379456 18.148294
7.521179 33.161144 37.619228
0.546455 25.375980 35.153150
7.052655 1.925656 20.651320
27.083850 18.264306 17.496632
7.746455 12.209983 28.316441
35.384691 32.976522 6.336271
0.546455 13.237454 26.595109
35.586452 29.203600 22.130795
30.374446 39.874906 26.296020
24.575438 29.511639 13.812290
8.466949 28.195135 12.803707
0.546455 30.447158 31.425198
29.984387 13.466856 10.099311
35.586452 22.722590 11.742354
29.493063 27.942551 20.099224
28.386456 10.140406 32.745892
0.546455 21.817766 32.691606
21.604999 36.590448 22.340636
35.586452 33.112420 14.228727
1.061803 9.183536 35.337618
35.305840 30.481974 39.474681
5.329719 37.006263 29.657474
29.596517 5.145617 35.983386
0.587829 39.039564 16.620042
35.586452 11.798450 17.082598
19.704173 37.660775 19.112167
28.386456 20.208447 6.912995
29.293578 26.919726 18.221897
11.357334 25.224890 27.167686
0.546455 28.988423 23.674991
2.613242 17.411809 2.259258
20.729283 32.866334 7.586273
28.504732 37.086614 19.910153
27.448075 27.714366 19.531365
29.293597 5.816711 19.764943
6.290473 8.878587 14.376248
21.666456 6.465836 21.338407
18.909686 5.592174 9.414466
24.887269 32.615472 18.506316
0.546455 10.339932 21.337464
6.482713 18.065642 17.667361
7.487435 6.724852 11.304561
35.586452 36.814651 28.849150
2.278577 8.407621 17.853999
30.326751 20.811525 3.262328
1.368797 20.601070 2.789404
25.331080 13.854195 14.968177
35.586452 23.441783 15.950980
16.521997 17.199368 38.915093
28.906215 29.787676 5.107514
22.486334 29.120759 30.446603
3.176828 4.050951 23.893083
31.118025 6.669212 7.652085
34.617682 6.190911 7.559397
21.243657 41.235280 28.009400
7.746455 23.947820 35.549818
21.722812 26.478210 11.524157
21.666456 15.562027 32.568604
14.466455 8.865679 21.325228
21.666456 35.190829 20.894257
13.543695 18.574398 32.248375
35.426157 20.822425 27.769797
12.637525 16.379202 23.195314
9.901394 30.389653 29.245569
35.586452 6.457679 22.071514
14.466455 10.182705 15.441171
21.763886 32.202869 27.096177
0.669298 3.891663 21.265026
32.744763 16.373217 23.148574
15.861140 27.703008 7.299106
2.545839 36.664170 22.850584
21.666456 9.886586 13.936460
25.842833 31.208033 28.222359
0.546455 32.071592 25.271433
0.575048 38.491489 28.039225
30.332898 19.279480 0.683937
26.597473 28.972684 13.354498
30.986734 43.173124 29.523568
21.406536 17.466814 40.606761
7.060178 17.915942 1.614650
5.089216 17.611491 42.504152
28.807906 7.001455 34.796973
28.386456 19.065175 35.975801
28.386456 12.066706 32.134209
34.411380 18.395383 0.274323
25.519048 28.159991 21.015408
11.846113 32.314795 17.723256
33.711711 27.297786 7.520868
5.052704 6.222366 10.568972
23.544894 16.129876 12.917827
31.582279 38.436565 25.514303
7.746455 25.124087 33.735062
14.466455 9.683806 23.469205
8.308069 21.607619 11.064692
0.546455 25.791087 16.014976
21.666456 28.069690 31.985686
35.586452 19.459015 9.365959
21.666456 28.508307 11.369290
35.540813 30.128565 6.089116
20.439575 5.185251 7.836873
7.746455 30.725546 30.127284
0.717510 31.353985 5.599394
34.249391 17.338009 41.278799
9.777681 23.063120 11.077116
7.536380 39.850493 17.645095
20.478206 42.181667 30.029129
5.333640 5.210237 36.270519
21.666456 22.430949 10.022663
35.586452 11.426605 23.384979
17.984845 19.072651 0.427966
20.580354 18.548815 43.471496
19.813455 18.277513 0.072570
20.662208 31.884398 40.668234
30.794751 7.470425 36.050578
35.018877 41.416730 14.893024
12.654806 16.556517 12.635255
7.746455 9.944005 21.000712
3.133301 36.854092 20.430370
28.386456 29.334365 31.201423
17.673177 5.706498 34.275455
4.763711 17.209798 40.132642
35.586452 32.935140 23.371913
27.465451 24.973676 11.390517
0.870781 40.628341 26.767941
35.586452 21.863395 34.545992
26.802872 18.997833 32.393433
33.940147 33.579492 4.763468
14.466455 11.455996 27.023636
7.134736 5.984192 9.354739
14.444497 33.606046 21.330493
34.982400 6.109828 34.682952
21.065510 5.844139 9.918103
23.816838 33.173894 21.769821
35.586452 31.610358 16.461357
32.207847 17.191463 39.054680
21.666456 10.674080 17.347575
28.386456 19.472810 33.996446
32.963243 5.027611 7.877000
23.086347 17.620341 25.759446
33.984259 5.705041 9.648410
0.967595 40.958913 28.821350
14.449456 16.607783 31.853101
9.355116 14.050632 14.743170
35.586452 12.213706 21.158876
1.182903 32.992437 39.591168
14.791086 17.097961 25.026928
0.733364 31.307425 38.484328
0.546455 31.102002 23.098312
33.313353 8.887490 16.752240
7.752352 22.817223 33.388172
4.949858 33.388305 38.050448
28.386456 35.234526 18.014240
2.811282 38.006199 18.760176
25.231238 33.087400 23.269322
0.828623 21.090291 39.945247
18.366825 36.869943 20.393412
11.443005 32.465670 25.835246
4.023370 24.714572 16.494127
28.386456 10.008858 20.131366
6.452722 5.644306 34.404353
35.586452 12.755165 25.829638
0.546455 34.673650 18.789797
9.873470 23.293538 27.869093
0.546455 23.411828 33.949935
13.274014 31.413055 16.024444
0.964890 19.525388 41.682842
7.641268 31.054235 37.939382
