0.02713900 0.01567950 -0.00657400 255 255 255
0.02803700 0.01650750 -0.00657900 255 255 255
0.02917400 0.01722850 -0.00656300 255 255 255
0.03026700 0.01798150 -0.00656300 255 255 255
0.03124300 0.01874050 -0.00656700 255 255 255
0.03211600 0.01954250 -0.00656700 255 255 255
0.03277600 0.02039050 -0.00657100 255 255 255
0.03326900 0.02127950 -0.00657100 255 255 255
0.03368300 0.02219550 -0.00657900 255 255 255
0.03399000 0.02314550 -0.00658200 255 255 255
0.03419400 0.02412650 -0.00659000 255 255 255
0.03430100 0.02514450 -0.00659300 255 255 255
0.03432600 0.02617550 -0.00659400 255 255 255
0.03426900 0.02711850 -0.00659800 255 255 255
0.03411700 0.02811750 -0.00660600 255 255 255
0.03407000 0.02838450 -0.00660900 255 255 255
0.03385200 0.02936450 -0.00661000 255 255 255
0.03357400 0.03031750 -0.00661000 255 255 255
0.03345500 0.03066250 -0.00661400 255 255 255
0.03309200 0.03160350 -0.00662000 255 255 255
0.03267600 0.03251350 -0.00663600 255 255 255
0.03228100 0.03343450 -0.00664500 255 255 255
0.03190000 0.03437150 -0.00665600 255 255 255
0.03140300 0.03522350 -0.00666000 255 255 255
0.03073600 0.03598350 -0.00666700 255 255 255
0.02971700 0.03669250 -0.00667200 255 255 255
0.02918900 0.03692950 -0.00667200 255 255 255
0.02823900 0.03718850 -0.00667800 255 255 255
0.02717800 0.03733750 -0.00668300 255 255 255
0.02610100 0.03750750 -0.00669000 255 255 255
0.02513200 0.03781150 -0.00670300 255 255 255
0.02431500 0.03864250 -0.00671700 255 255 255
0.02354800 0.03958450 -0.00673000 255 255 255
0.02277300 0.04043850 -0.00674000 255 255 255
0.02191400 0.04118450 -0.00674900 255 255 255
0.02100700 0.04165550 -0.00674900 255 255 255
0.02003600 0.04189150 -0.00674900 255 255 255
0.01903900 0.04188450 -0.00674100 255 255 255
0.01810100 0.04170550 -0.00674800 255 255 255
0.01687000 0.04152650 -0.00674900 255 255 255
0.01579800 0.04138450 -0.00674900 255 255 255
0.01509000 0.04128350 -0.00676100 255 255 255
0.01470700 0.04122550 -0.00676800 255 255 255
0.01367500 0.04110850 -0.00676800 255 255 255
0.01263000 0.04097750 -0.00677200 255 255 255
0.01153500 0.04087050 -0.00678300 255 255 255
0.01053200 0.04077150 -0.00679200 255 255 255
0.00952000 0.04068650 -0.00679600 255 255 255
0.00849500 0.04063750 -0.00680300 255 255 255
0.00746000 0.04059950 -0.00680700 255 255 255
0.00642000 0.04069750 -0.00681500 255 255 255
0.00612600 0.04074550 -0.00681500 255 255 255
0.00512500 0.04089950 -0.00682200 255 255 255
0.00423800 0.04102850 -0.00682700 255 255 255
0.00317200 0.04115650 -0.00683400 255 255 255
0.00209900 0.04128350 -0.00684200 255 255 255
0.00104900 0.04137950 -0.00684600 255 255 255
0.00001600 0.04137550 -0.00685000 255 255 255
-0.00092500 0.04107950 -0.00685800 255 255 255
-0.00177100 0.04041950 -0.00685400 255 255 255
-0.00266200 0.03961150 -0.00684900 255 255 255
-0.00336600 0.03883050 -0.00684600 255 255 255
-0.00411200 0.03802450 -0.00686500 255 255 255
-0.00498000 0.03758350 -0.00687300 255 255 255
-0.00594500 0.03725050 -0.00687700 255 255 255
-0.00686000 0.03688150 -0.00688100 255 255 255
-0.00740300 0.03657850 -0.00688500 255 255 255
-0.01016800 0.03190450 -0.00686900 255 255 255
-0.01056500 0.03096050 -0.00685800 255 255 255
-0.01080500 0.02999850 -0.00685800 255 255 255
-0.01088900 0.02912550 -0.00685800 255 255 255
-0.01089700 0.02811750 -0.00685300 255 255 255
-0.01081800 0.02713750 -0.00684600 255 255 255
-0.01075100 0.02673050 -0.00684600 255 255 255
-0.01051700 0.02576150 -0.00683800 255 255 255
-0.01017700 0.02480450 -0.00683300 255 255 255
-0.00988300 0.02408350 -0.00682700 255 255 255
-0.00945700 0.02317150 -0.00681800 255 255 255
-0.00896900 0.02231050 -0.00681000 255 255 255
-0.00842600 0.02146250 -0.00680600 255 255 255
-0.00785900 0.02064950 -0.00679900 255 255 255
-0.00719300 0.01986950 -0.00678800 255 255 255
-0.00231700 0.00814950 -0.00669800 255 255 255
-0.00279600 0.00712750 -0.00669500 255 255 255
-0.00328300 0.00612050 -0.00667900 255 255 255
-0.00369400 0.00529150 -0.00667200 255 255 255
-0.00426600 0.00411550 -0.00667200 255 255 255
-0.00456700 0.00346550 -0.00666800 255 255 255
-0.00500300 0.00254850 -0.00667900 255 255 255
-0.00539000 0.00160750 -0.00665600 255 255 255
-0.00577800 0.00067750 -0.00664100 255 255 255
-0.00611800 -0.00026750 -0.00661000 255 255 255
-0.00653700 -0.00118150 -0.00665200 255 255 255
-0.00594600 -0.05255750 -0.00626800 255 255 255
-0.00678500 -0.05316850 -0.00630300 255 255 255
-0.00839600 -0.05581850 -0.00633500 255 255 255
-0.00855800 -0.05649550 -0.00633400 255 255 255
-0.00865200 -0.05686050 -0.00633100 255 255 255
-0.00883700 -0.05791950 -0.00631500 255 255 255
-0.00898500 -0.05901250 -0.00630700 255 255 255
-0.00903800 -0.05947850 -0.00630700 255 255 255
-0.00910100 -0.06050550 -0.00629600 255 255 255
-0.00910900 -0.06082950 -0.00629200 255 255 255
-0.00912400 -0.06181850 -0.00628700 255 255 255
-0.00907800 -0.06281750 -0.00628400 255 255 255
-0.00895400 -0.06380950 -0.00628700 255 255 255
-0.00878300 -0.06480850 -0.00628000 255 255 255
-0.00852000 -0.06580550 -0.00627200 255 255 255
-0.00823200 -0.06676050 -0.00626500 255 255 255
-0.00806300 -0.06721550 -0.00625700 255 255 255
-0.00767600 -0.06812550 -0.00625700 255 255 255
-0.00720300 -0.06898650 -0.00624600 255 255 255
-0.00663800 -0.06979850 -0.00624100 255 255 255
-0.00641000 -0.07006950 -0.00624200 255 255 255
-0.00570800 -0.07078850 -0.00623400 255 255 255
-0.00541400 -0.07104650 -0.00623000 255 255 255
-0.00459700 -0.07161150 -0.00622500 255 255 255
-0.00370200 -0.07204950 -0.00621800 255 255 255
-0.00326800 -0.07219850 -0.00621500 255 255 255
-0.00231300 -0.07242350 -0.00620300 255 255 255
-0.00188700 -0.07249950 -0.00620200 255 255 255
-0.00089400 -0.07264150 -0.00619800 255 255 255
0.00013100 -0.07282150 -0.00618700 255 255 255
0.00057400 -0.07283550 -0.00618300 255 255 255
0.00519500 -0.06944050 -0.00616800 255 255 255
0.02640300 -0.06007550 -0.00609500 255 255 255
0.02725900 -0.06041150 -0.00608300 255 255 255
0.02827700 -0.06087050 -0.00606000 255 255 255
0.02868400 -0.06104950 -0.00605600 255 255 255
0.02961300 -0.06133150 -0.00605600 255 255 255
0.03059800 -0.06149550 -0.00605600 255 255 255
0.03109300 -0.06154850 -0.00605500 255 255 255
0.03208400 -0.06154050 -0.00605100 255 255 255
0.03271900 -0.06147450 -0.00604000 255 255 255
0.03369800 -0.06128850 -0.00603200 255 255 255
0.03465900 -0.06102950 -0.00603200 255 255 255
0.03555500 -0.06063850 -0.00602500 255 255 255
0.03631500 -0.06000750 -0.00602500 255 255 255
0.03702200 -0.05924450 -0.00602900 255 255 255
0.03720800 -0.05898950 -0.00603600 255 255 255
0.03766900 -0.05804350 -0.00605200 255 255 255
0.03795600 -0.05694550 -0.00606000 255 255 255
0.03475200 -0.04019450 -0.00614000 255 255 255
0.03413200 -0.03939350 -0.00620300 255 255 255
0.03386000 -0.03904050 -0.00609500 255 255 255
0.03328500 -0.03800750 -0.00633100 255 255 255
0.03194000 -0.03637550 -0.00618400 255 255 255
0.03127200 -0.03549650 -0.00622500 255 255 255
-0.00344600 -0.05925350 -0.00627300 255 255 255
0.00352400 -0.05712050 -0.00625300 255 255 255
0.00420600 -0.05714850 -0.00627600 255 255 255
-0.00905400 -0.05664750 -0.00560600 255 255 255
-0.00922400 -0.05771250 -0.00561000 255 255 255
-0.00932600 -0.05885650 -0.00561700 255 255 255
-0.00937200 -0.05940350 -0.00560900 255 255 255
-0.00942400 -0.06044150 -0.00559900 255 255 255
-0.00942600 -0.06082250 -0.00559800 255 255 255
-0.00944100 -0.06182550 -0.00558300 255 255 255
-0.00932400 -0.06281550 -0.00558300 255 255 255
-0.00914700 -0.06380950 -0.00558700 255 255 255
-0.00894600 -0.06479550 -0.00558600 255 255 255
-0.00868900 -0.06584650 -0.00557900 255 255 255
-0.00836500 -0.06678350 -0.00556800 255 255 255
-0.00819200 -0.06727050 -0.00556400 255 255 255
-0.00778900 -0.06818650 -0.00556000 255 255 255
-0.00730400 -0.06903850 -0.00555200 255 255 255
-0.00709900 -0.06935550 -0.00554700 255 255 255
-0.00647300 -0.07012550 -0.00554100 255 255 255
-0.00576000 -0.07082550 -0.00553600 255 255 255
-0.00544500 -0.07108550 -0.00552900 255 255 255
-0.00462300 -0.07164550 -0.00552500 255 255 255
-0.00374600 -0.07209750 -0.00551700 255 255 255
-0.00330500 -0.07226750 -0.00551000 255 255 255
-0.00234000 -0.07252750 -0.00550600 255 255 255
-0.00189100 -0.07260250 -0.00549800 255 255 255
-0.00089400 -0.07274050 -0.00549400 255 255 255
0.02700700 -0.06071450 -0.00537400 255 255 255
0.02792500 -0.06116650 -0.00536600 255 255 255
0.02857000 -0.06139650 -0.00535900 255 255 255
0.02952000 -0.06165350 -0.00535900 255 255 255
0.03049900 -0.06183250 -0.00535100 255 255 255
0.03108500 -0.06191250 -0.00534700 255 255 255
0.03207100 -0.06196350 -0.00533900 255 255 255
0.03282300 -0.06188550 -0.00533500 255 255 255
0.03380700 -0.06168850 -0.00533400 255 255 255
0.03476400 -0.06140750 -0.00533900 255 255 255
0.03571800 -0.06094450 -0.00533100 255 255 255
0.03648500 -0.06030750 -0.00533100 255 255 255
0.03717500 -0.05954050 -0.00533900 255 255 255
0.03772400 -0.05850950 -0.00535400 255 255 255
0.03594500 -0.04044250 -0.00548500 255 255 255
0.03528600 -0.03965950 -0.00546700 255 255 255
0.03469800 -0.03885950 -0.00544300 255 255 255
0.03393700 -0.03789350 -0.00540800 255 255 255
0.03338000 -0.03698750 -0.00551000 255 255 255
0.03279900 -0.03609550 -0.00554800 255 255 255
0.03234300 -0.03552350 -0.00554500 255 255 255
0.03209500 -0.03523350 -0.00555600 255 255 255
0.03132000 -0.03440650 -0.00553300 255 255 255
0.03515500 -0.01542850 -0.00564100 255 255 255
0.03530100 -0.01444050 -0.00564800 255 255 255
0.03538400 -0.01341150 -0.00565600 255 255 255
0.03542400 -0.01240650 -0.00565700 255 255 255
0.03539300 -0.01135950 -0.00566800 255 255 255
0.03537000 -0.01084850 -0.00566800 255 255 255
0.03529200 -0.00985350 -0.00566500 255 255 255
0.03516000 -0.00885550 -0.00568000 255 255 255
0.03496600 -0.00785250 -0.00569200 255 255 255
0.03476500 -0.00686450 -0.00570300 255 255 255
0.03453300 -0.00585950 -0.00571100 255 255 255
0.03429300 -0.00485950 -0.00571400 255 255 255
0.03400600 -0.00386250 -0.00571900 255 255 255
0.03368100 -0.00277450 -0.00573000 255 255 255
0.03336300 -0.00181250 -0.00573700 255 255 255
0.03300700 -0.00087550 -0.00574600 255 255 255
0.03263500 0.00005850 -0.00575400 255 255 255
0.03224000 0.00097950 -0.00576500 255 255 255
0.03179100 0.00190150 -0.00576900 255 255 255
0.03130300 0.00286650 -0.00578400 255 255 255
0.03084600 0.00375350 -0.00579600 255 255 255
0.03036500 0.00462550 -0.00580400 255 255 255
0.02983900 0.00553050 -0.00581500 255 255 255
0.02931200 0.00639750 -0.00582600 255 255 255
0.02877700 0.00730450 -0.00583100 255 255 255
0.02824200 0.00819650 -0.00584700 255 255 255
0.02780100 0.00911750 -0.00586200 255 255 255
0.02739700 0.01004050 -0.00587300 255 255 255
0.02715000 0.01059650 -0.00588500 255 255 255
0.02679400 0.01163750 -0.00587300 255 255 255
0.02646000 0.01277350 -0.00588400 255 255 255
0.02633300 0.01382050 -0.00588100 255 255 255
0.02675400 0.01473450 -0.00587000 255 255 255
0.02735100 0.01561150 -0.00588900 255 255 255
0.02846000 0.01636050 -0.00588500 255 255 255
0.02956100 0.01709750 -0.00587400 255 255 255
0.03062900 0.01785650 -0.00586500 255 255 255
0.03155100 0.01863750 -0.00586200 255 255 255
0.03236500 0.01949050 -0.00586200 255 255 255
0.03297000 0.02032550 -0.00586500 255 255 255
0.03346500 0.02121650 -0.00587000 255 255 255
0.03387500 0.02214450 -0.00587300 255 255 255
0.03418500 0.02310050 -0.00587700 255 255 255
0.03440200 0.02408050 -0.00588500 255 255 255
0.03451200 0.02509350 -0.00588900 255 255 255
0.03454300 0.02612650 -0.00589300 255 255 255
0.03451100 0.02712550 -0.00589700 255 255 255
0.03440000 0.02812650 -0.00590500 255 255 255
0.03434600 0.02846250 -0.00590500 255 255 255
0.03413900 0.02943850 -0.00590800 255 255 255
0.03387600 0.03040950 -0.00590800 255 255 255
0.03372900 0.03082950 -0.00590900 255 255 255
0.03335000 0.03175050 -0.00591900 255 255 255
0.03290000 0.03265150 -0.00592300 255 255 255
0.03239600 0.03350550 -0.00594600 255 255 255
0.03194000 0.03440350 -0.00595100 255 255 255
0.03145200 0.03526650 -0.00596200 255 255 255
0.03061500 0.03622150 -0.00597100 255 255 255
0.02983300 0.03681950 -0.00597000 255 255 255
0.02928100 0.03711950 -0.00597400 255 255 255
0.02835500 0.03741350 -0.00597700 255 255 255
0.02730900 0.03759350 -0.00598100 255 255 255
0.02623600 0.03775650 -0.00598600 255 255 255
0.02521400 0.03805650 -0.00599400 255 255 255
0.02435700 0.03880050 -0.00602000 255 255 255
0.02373400 0.03952250 -0.00602800 255 255 255
0.02302900 0.04030450 -0.00603900 255 255 255
0.02229200 0.04100750 -0.00604700 255 255 255
0.02194400 0.04130650 -0.00604700 255 255 255
0.02103000 0.04184550 -0.00605100 255 255 255
0.02007900 0.04217650 -0.00604800 255 255 255
0.01910300 0.04222450 -0.00604800 255 255 255
0.01809600 0.04210050 -0.00604700 255 255 255
0.01709200 0.04191450 -0.00606000 255 255 255
0.01609600 0.04176750 -0.00606000 255 255 255
0.01509000 0.04162750 -0.00606400 255 255 255
0.01411000 0.04150350 -0.00607100 255 255 255
0.01312300 0.04138250 -0.00607400 255 255 255
0.01213300 0.04126450 -0.00607500 255 255 255
0.01113600 0.04115250 -0.00608700 255 255 255
0.01013400 0.04104950 -0.00609100 255 255 255
0.00943700 0.04099150 -0.00609500 255 255 255
0.00839800 0.04095250 -0.00610200 255 255 255
0.00812900 0.04094550 -0.00610100 255 255 255
0.00711800 0.04093150 -0.00611300 255 255 255
0.00611600 0.04105850 -0.00611700 255 255 255
0.00511900 0.04120950 -0.00612500 255 255 255
0.00411700 0.04136350 -0.00612900 255 255 255
0.00308300 0.04149950 -0.00613700 255 255 255
0.00200600 0.04163250 -0.00614100 255 255 255
0.00095700 0.04172150 -0.00614100 255 255 255
-0.00007400 0.04170150 -0.00615300 255 255 255
-0.00103800 0.04144150 -0.00615700 255 255 255
-0.00191300 0.04091650 -0.00614900 255 255 255
-0.00216600 0.04073650 -0.00614800 255 255 255
-0.00296500 0.04012850 -0.00614500 255 255 255
-0.00369400 0.03941850 -0.00614400 255 255 255
-0.00431400 0.03850450 -0.00614100 255 255 255
-0.00507800 0.03774050 -0.00616800 255 255 255
-0.00598600 0.03734050 -0.00618300 255 255 255
-0.00655900 0.03712250 -0.00618300 255 255 255
-0.00747400 0.03665850 -0.00618700 255 255 255
-0.00827200 0.03604250 -0.00618400 255 255 255
-0.01044000 0.03194850 -0.00616000 255 255 255
-0.01079700 0.03102250 -0.00616000 255 255 255
-0.01102100 0.03005550 -0.00615900 255 255 255
-0.01108300 0.02912850 -0.00615900 255 255 255
-0.01106100 0.02812650 -0.00615600 255 255 255
-0.01095100 0.02713750 -0.00614800 255 255 255
-0.01086700 0.02669650 -0.00614800 255 255 255
-0.01060300 0.02573150 -0.00614000 255 255 255
-0.01026900 0.02477850 -0.00613200 255 255 255
-0.00997600 0.02402350 -0.00612500 255 255 255
-0.00954200 0.02314550 -0.00611700 255 255 255
-0.00907000 0.02225450 -0.00611300 255 255 255
-0.00852800 0.02141050 -0.00610600 255 255 255
-0.00797000 0.02057450 -0.00610100 255 255 255
-0.00738900 0.01977050 -0.00608300 255 255 255
-0.00280400 0.00815850 -0.00600200 255 255 255
-0.00329100 0.00711250 -0.00599000 255 255 255
-0.00377900 0.00609850 -0.00598500 255 255 255
-0.00425900 0.00512850 -0.00597800 255 255 255
-0.00456000 0.00449550 -0.00597800 255 255 255
-0.00497900 0.00357950 -0.00598200 255 255 255
-0.00542900 0.00248550 -0.00595500 255 255 255
-0.00580900 0.00155650 -0.00593600 255 255 255
-0.00613200 0.00077750 -0.00593600 255 255 255
-0.00652100 -0.00015450 -0.00594000 255 255 255
-0.00690100 -0.00107750 -0.00595800 255 255 255
0.00336200 -0.05751950 -0.00549300 255 255 255
-0.00164300 -0.04557350 -0.00326700 255 255 255
-0.00965100 -0.05748050 -0.00490500 255 255 255
-0.00977500 -0.05823650 -0.00489800 255 255 255
-0.00991400 -0.05925150 -0.00488600 255 255 255
-0.01001200 -0.06030750 -0.00488100 255 255 255
-0.01004300 -0.06083150 -0.00487100 255 255 255
-0.00997400 -0.06181850 -0.00487000 255 255 255
-0.00974900 -0.06282250 -0.00485900 255 255 255
-0.00936300 -0.06383750 -0.00487800 255 255 255
-0.00902800 -0.06480250 -0.00488200 255 255 255
-0.00873700 -0.06585550 -0.00487800 255 255 255
-0.00844200 -0.06680250 -0.00487100 255 255 255
-0.00826400 -0.06730050 -0.00487000 255 255 255
-0.00786100 -0.06821450 -0.00486300 255 255 255
-0.00736400 -0.06906650 -0.00485500 255 255 255
-0.00714100 -0.06939250 -0.00485100 255 255 255
-0.00650600 -0.07014550 -0.00484300 255 255 255
-0.00578500 -0.07084850 -0.00483500 255 255 255
-0.00547600 -0.07110850 -0.00483200 255 255 255
-0.00464500 -0.07167950 -0.00482400 255 255 255
-0.00376300 -0.07214550 -0.00481600 255 255 255
-0.00283600 -0.07249450 -0.00480900 255 255 255
-0.00237000 -0.07263250 -0.00480400 255 255 255
-0.00189500 -0.07273350 -0.00479700 255 255 255
0.02569000 -0.06060850 -0.00474700 255 255 255
0.02660800 -0.06099950 -0.00470700 255 255 255
0.02754900 -0.06135750 -0.00467700 255 255 255
0.02815700 -0.06157550 -0.00466800 255 255 255
0.02870100 -0.06176850 -0.00466500 255 255 255
0.02943600 -0.06197250 -0.00465400 255 255 255
0.03040500 -0.06218650 -0.00464600 255 255 255
0.03137400 -0.06232650 -0.00463700 255 255 255
0.03207700 -0.06235450 -0.00463400 255 255 255
0.03293900 -0.06229150 -0.00463300 255 255 255
0.03390000 -0.06207650 -0.00462600 255 255 255
0.03483700 -0.06175050 -0.00462700 255 255 255
0.03585200 -0.06119850 -0.00463300 255 255 255
0.03631700 -0.06081750 -0.00463000 255 255 255
0.03661100 -0.06054950 -0.00464200 255 255 255
0.03728500 -0.05975850 -0.00464600 255 255 255
0.03781200 -0.05867250 -0.00466100 255 255 255
0.03730700 -0.04188150 -0.00476600 255 255 255
0.03684900 -0.04096150 -0.00478500 255 255 255
0.03632300 -0.04001650 -0.00477800 255 255 255
0.03598900 -0.03941950 -0.00479700 255 255 255
0.03537900 -0.03861250 -0.00479200 255 255 255
0.03467400 -0.03763750 -0.00480500 255 255 255
0.03409300 -0.03677050 -0.00482000 255 255 255
0.03348600 -0.03589450 -0.00482000 255 255 255
0.03281500 -0.03503950 -0.00482800 255 255 255
0.03215600 -0.03428350 -0.00482700 255 255 255
0.03173100 -0.03380050 -0.00484600 255 255 255
0.03101500 -0.03305950 -0.00483100 255 255 255
0.02971600 -0.03151850 -0.00492900 255 255 255
0.03567900 -0.01557050 -0.00494800 255 255 255
0.03581800 -0.01456550 -0.00494300 255 255 255
0.03589700 -0.01356050 -0.00495200 255 255 255
0.03593700 -0.01253650 -0.00495200 255 255 255
0.03590600 -0.01149550 -0.00496300 255 255 255
0.03585200 -0.01084150 -0.00496700 255 255 255
0.03573500 -0.00983450 -0.00497900 255 255 255
0.03562600 -0.00885350 -0.00497400 255 255 255
0.03542400 -0.00784650 -0.00499100 255 255 255
0.03521700 -0.00685650 -0.00499700 255 255 255
0.03498400 -0.00586150 -0.00501000 255 255 255
0.03472600 -0.00485950 -0.00501400 255 255 255
0.03463600 -0.00457350 -0.00501700 255 255 255
0.03436200 -0.00361450 -0.00502500 255 255 255
0.03408400 -0.00265750 -0.00502500 255 255 255
0.03375100 -0.00170450 -0.00504100 255 255 255
0.03342400 -0.00075950 -0.00504500 255 255 255
0.03304500 0.00017050 -0.00505600 255 255 255
0.03254200 0.00127450 -0.00506400 255 255 255
0.03221900 0.00201450 -0.00507100 255 255 255
0.03169800 0.00309850 -0.00507600 255 255 255
0.03130200 0.00385050 -0.00509100 255 255 255
0.03076200 0.00486550 -0.00510600 255 255 255
0.03033400 0.00565750 -0.00511100 255 255 255
0.02981400 0.00655350 -0.00512200 255 255 255
0.02928100 0.00743150 -0.00513000 255 255 255
0.02877800 0.00832050 -0.00514900 255 255 255
0.02832400 0.00925050 -0.00514600 255 255 255
0.02790900 0.01018750 -0.00515200 255 255 255
0.02741800 0.01147450 -0.00516400 255 255 255
0.02705300 0.01259650 -0.00516500 255 255 255
0.02674800 0.01371950 -0.00519100 255 255 255
0.02707300 0.01465750 -0.00517300 255 255 255
0.02777000 0.01546450 -0.00520300 255 255 255
0.02895400 0.01624450 -0.00517200 255 255 255
0.03004700 0.01698850 -0.00517200 255 255 255
0.03095400 0.01777050 -0.00516900 255 255 255
0.03183700 0.01859250 -0.00516400 255 255 255
0.03254900 0.01941550 -0.00516000 255 255 255
0.03313800 0.02029350 -0.00516100 255 255 255
0.03361900 0.02118950 -0.00516400 255 255 255
0.03400600 0.02211550 -0.00516900 255 255 255
0.03433900 0.02306350 -0.00517200 255 255 255
0.03455600 0.02403950 -0.00517900 255 255 255
0.03472700 0.02503650 -0.00518700 255 255 255
0.03477300 0.02607650 -0.00518400 255 255 255
0.03474200 0.02712850 -0.00519200 255 255 255
0.03463400 0.02813350 -0.00520400 255 255 255
0.03458000 0.02853150 -0.00520700 255 255 255
0.03440000 0.02951850 -0.00520800 255 255 255
0.03414000 0.03047650 -0.00520700 255 255 255
0.03397500 0.03097950 -0.00521000 255 255 255
0.03358800 0.03190050 -0.00521800 255 255 255
0.03313900 0.03278450 -0.00522300 255 255 255
0.03258100 0.03362050 -0.00523500 255 255 255
0.03203100 0.03445650 -0.00524600 255 255 255
0.03149700 0.03530350 -0.00525800 255 255 255
0.03066700 0.03628150 -0.00526900 255 255 255
0.02992400 0.03692950 -0.00527300 255 255 255
0.02935900 0.03728350 -0.00527600 255 255 255
0.02846200 0.03765250 -0.00527000 255 255 255
0.02746000 0.03785750 -0.00527300 255 255 255
0.02639100 0.03802950 -0.00527700 255 255 255
0.02536100 0.03831650 -0.00528500 255 255 255
0.02450800 0.03886550 -0.00531500 255 255 255
0.02379200 0.03961850 -0.00532700 255 255 255
0.02307600 0.04037850 -0.00533800 255 255 255
0.02232800 0.04106550 -0.00534700 255 255 255
0.02153000 0.04167650 -0.00535400 255 255 255
0.02067800 0.04214250 -0.00535400 255 255 255
0.01975900 0.04245650 -0.00535100 255 255 255
0.01912800 0.04252150 -0.00535500 255 255 255
0.01809600 0.04241750 -0.00535900 255 255 255
0.01709400 0.04222050 -0.00536900 255 255 255
0.01609600 0.04207550 -0.00536900 255 255 255
0.01509100 0.04193050 -0.00537300 255 255 255
0.01410300 0.04180450 -0.00537800 255 255 255
0.01312000 0.04168350 -0.00538200 255 255 255
0.01212600 0.04155850 -0.00538600 255 255 255
0.01113600 0.04145150 -0.00538600 255 255 255
0.01036000 0.04136150 -0.00539600 255 255 255
0.00912500 0.04124450 -0.00540400 255 255 255
0.00813400 0.04122650 -0.00540900 255 255 255
0.00712000 0.04122850 -0.00541300 255 255 255
0.00611600 0.04134750 -0.00542400 255 255 255
0.00510200 0.04149950 -0.00542700 255 255 255
0.00410500 0.04164650 -0.00543600 255 255 255
0.00297100 0.04182250 -0.00543500 255 255 255
0.00192100 0.04193750 -0.00544700 255 255 255
0.00085600 0.04203250 -0.00544800 255 255 255
-0.00016600 0.04199950 -0.00545500 255 255 255
-0.00113100 0.04176350 -0.00546300 255 255 255
-0.00204200 0.04138650 -0.00544800 255 255 255
-0.00242500 0.04116650 -0.00545100 255 255 255
-0.00323600 0.04059650 -0.00544800 255 255 255
-0.00396500 0.03988050 -0.00545500 255 255 255
-0.00460000 0.03907450 -0.00543900 255 255 255
-0.00523500 0.03802750 -0.00546300 255 255 255
-0.00565900 0.03768750 -0.00547100 255 255 255
-0.00604900 0.03745550 -0.00548200 255 255 255
-0.00696300 0.03701850 -0.00548600 255 255 255
-0.00753600 0.03669550 -0.00548500 255 255 255
-0.00831800 0.03610050 -0.00548500 255 255 255
-0.00896000 0.03533350 -0.00548600 255 255 255
-0.01017000 0.03293150 -0.00547000 255 255 255
-0.01065500 0.03202150 -0.00546700 255 255 255
-0.01099100 0.03107750 -0.00546300 255 255 255
-0.01117700 0.03009550 -0.00546200 255 255 255
-0.01123900 0.02907350 -0.00545900 255 255 255
-0.01118500 0.02813350 -0.00545500 255 255 255
-0.01106100 0.02713750 -0.00544700 255 255 255
-0.01096500 0.02668050 -0.00544400 255 255 255
-0.01068900 0.02570850 -0.00543900 255 255 255
-0.01034700 0.02477250 -0.00543100 255 255 255
-0.01003800 0.02402150 -0.00542800 255 255 255
-0.00961200 0.02310050 -0.00541700 255 255 255
-0.00913200 0.02222250 -0.00540900 255 255 255
-0.00864200 0.02135450 -0.00540100 255 255 255
-0.00810200 0.02050550 -0.00539300 255 255 255
-0.00753300 0.01968550 -0.00538200 255 255 255
-0.00283200 0.00914150 -0.00531200 255 255 255
-0.00326800 0.00814050 -0.00530300 255 255 255
-0.00373300 0.00711350 -0.00529700 255 255 255
-0.00422700 0.00613750 -0.00529600 255 255 255
-0.00471500 0.00513050 -0.00529600 255 255 255
-0.00495500 0.00460350 -0.00528900 255 255 255
-0.00538700 0.00368350 -0.00528100 255 255 255
-0.00579300 0.00269550 -0.00527600 255 255 255
-0.00611600 0.00181650 -0.00526100 255 255 255
-0.00653700 0.00083250 -0.00525700 255 255 255
-0.00687800 -0.00005050 -0.00526500 255 255 255
-0.01041000 -0.05806450 -0.00420000 255 255 255
-0.01053400 -0.05907050 -0.00418900 255 255 255
-0.01062500 -0.06007550 -0.00418500 255 255 255
-0.01064100 -0.06080850 -0.00418100 255 255 255
-0.01055700 -0.06181650 -0.00417600 255 255 255
-0.01033900 -0.06280650 -0.00415800 255 255 255
-0.00985200 -0.06384250 -0.00415400 255 255 255
-0.00917100 -0.06490750 -0.00416900 255 255 255
-0.00874200 -0.06585150 -0.00418100 255 255 255
-0.00859000 -0.06631550 -0.00417600 255 255 255
-0.00827100 -0.06729150 -0.00417300 255 255 255
-0.00787700 -0.06820950 -0.00416200 255 255 255
-0.00737300 -0.06906650 -0.00415400 255 255 255
-0.00714900 -0.06939750 -0.00415300 255 255 255
-0.00651400 -0.07014850 -0.00414500 255 255 255
-0.00579200 -0.07084850 -0.00413400 255 255 255
-0.00548300 -0.07110850 -0.00413100 255 255 255
-0.00466200 -0.07168950 -0.00412300 255 255 255
-0.00378700 -0.07217150 -0.00411500 255 255 255
-0.00288000 -0.07256450 -0.00410700 255 255 255
0.02540700 -0.06091650 -0.00403400 255 255 255
0.02637200 -0.06132550 -0.00399500 255 255 255
0.02748700 -0.06165850 -0.00398400 255 255 255
0.02840600 -0.06201850 -0.00396000 255 255 255
0.02891700 -0.06217450 -0.00394900 255 255 255
0.02934200 -0.06229650 -0.00394900 255 255 255
0.03030500 -0.06253950 -0.00394400 255 255 255
0.03108700 -0.06269850 -0.00393700 255 255 255
0.03207200 -0.06277150 -0.00393200 255 255 255
0.03305500 -0.06267050 -0.00393300 255 255 255
0.03400600 -0.06244350 -0.00392900 255 255 255
0.03492700 -0.06209650 -0.00393600 255 255 255
0.03532500 -0.06186250 -0.00393300 255 255 255
0.03597600 -0.06142850 -0.00394500 255 255 255
0.03671800 -0.06073250 -0.00394500 255 255 255
0.03736800 -0.05990650 -0.00394900 255 255 255
0.03788100 -0.05878250 -0.00396000 255 255 255
0.03805000 -0.04253350 -0.00404800 255 255 255
0.03766500 -0.04155050 -0.00406800 255 255 255
0.03722000 -0.04058150 -0.00407300 255 255 255
0.03696700 -0.04013850 -0.00408400 255 255 255
0.03644700 -0.03924950 -0.00408400 255 255 255
0.03587500 -0.03837350 -0.00409900 255 255 255
0.03522900 -0.03750350 -0.00411400 255 255 255
0.03463600 -0.03664650 -0.00411100 255 255 255
0.03404700 -0.03575550 -0.00412300 255 255 255
0.03341900 -0.03490950 -0.00411500 255 255 255
0.03320000 -0.03464550 -0.00412700 255 255 255
0.03255000 -0.03386450 -0.00413100 255 255 255
0.03225700 -0.03350750 -0.00414200 255 255 255
0.03150600 -0.03277150 -0.00416900 255 255 255
0.03083900 -0.03199050 -0.00418400 255 255 255
0.03634500 -0.01471550 -0.00423500 255 255 255
0.03640000 -0.01369750 -0.00424600 255 255 255
0.03642200 -0.01266350 -0.00424300 255 255 255
0.03637900 -0.01162850 -0.00424700 255 255 255
0.03632200 -0.01084150 -0.00425800 255 255 255
0.03621400 -0.00983550 -0.00426600 255 255 255
0.03604600 -0.00884850 -0.00427700 255 255 255
0.03587300 -0.00783850 -0.00428600 255 255 255
0.03567300 -0.00686650 -0.00428500 255 255 255
0.03555500 -0.00639750 -0.00429000 255 255 255
0.03531000 -0.00542350 -0.00429700 255 255 255
0.03505100 -0.00446450 -0.00430400 255 255 255
0.03487300 -0.00385850 -0.00431200 255 255 255
0.03457400 -0.00285550 -0.00431300 255 255 255
0.03448100 -0.00254850 -0.00431300 255 255 255
0.03415500 -0.00159950 -0.00432700 255 255 255
0.03380700 -0.00065850 -0.00434000 255 255 255
0.03342700 0.00027850 -0.00435100 255 255 255
0.03330900 0.00056950 -0.00435500 255 255 255
0.03291300 0.00148750 -0.00435900 255 255 255
0.03249000 0.00241750 -0.00436300 255 255 255
0.03206200 0.00331150 -0.00437400 255 255 255
0.03163000 0.00422150 -0.00437900 255 255 255
0.03117900 0.00510750 -0.00438500 255 255 255
0.03081700 0.00578050 -0.00439400 255 255 255
0.03029800 0.00669550 -0.00441300 255 255 255
0.02978400 0.00759850 -0.00441600 255 255 255
0.02929000 0.00848450 -0.00443300 255 255 255
0.02882600 0.00938950 -0.00444000 255 255 255
0.02843800 0.01021150 -0.00444000 255 255 255
0.02798300 0.01133550 -0.00446300 255 255 255
0.02761400 0.01245650 -0.00445900 255 255 255
0.02734000 0.01355650 -0.00446700 255 255 255
0.02742500 0.01456450 -0.00449000 255 255 255
0.02825400 0.01537050 -0.00447900 255 255 255
0.02941900 0.01612050 -0.00445900 255 255 255
0.03037300 0.01685850 -0.00447100 255 255 255
0.03127300 0.01769550 -0.00446000 255 255 255
0.03207000 0.01853950 -0.00445200 255 255 255
0.03273000 0.01937650 -0.00445900 255 255 255
0.03328600 0.02024550 -0.00445900 255 255 255
0.03375200 0.02115450 -0.00446400 255 255 255
0.03413200 0.02207850 -0.00446800 255 255 255
0.03445500 0.02303150 -0.00447100 255 255 255
0.03468700 0.02401150 -0.00448200 255 255 255
0.03488100 0.02499750 -0.00448300 255 255 255
0.03495100 0.02601150 -0.00448600 255 255 255
0.03494300 0.02704750 -0.00449100 255 255 255
0.03485700 0.02813350 -0.00449800 255 255 255
0.03470300 0.02914150 -0.00450200 255 255 255
0.03460500 0.02957350 -0.00450600 255 255 255
0.03436400 0.03053850 -0.00451400 255 255 255
0.03418400 0.03111450 -0.00451300 255 255 255
0.03379700 0.03201450 -0.00451800 255 255 255
0.03334800 0.03291550 -0.00452500 255 255 255
0.03281200 0.03375150 -0.00453300 255 255 255
0.03217700 0.03454550 -0.00454500 255 255 255
0.03135900 0.03558550 -0.00456100 255 255 255
0.03071400 0.03634650 -0.00457200 255 255 255
0.02998800 0.03701850 -0.00457600 255 255 255
0.02917200 0.03758350 -0.00457200 255 255 255
0.02857800 0.03786650 -0.00457500 255 255 255
0.02758800 0.03813450 -0.00457600 255 255 255
0.02656600 0.03834650 -0.00457900 255 255 255
0.02554300 0.03862450 -0.00458400 255 255 255
0.02463600 0.03909750 -0.00459600 255 255 255
0.02386200 0.03974750 -0.00462200 255 255 255
0.02312600 0.04048150 -0.00463300 255 255 255
0.02237100 0.04113150 -0.00464600 255 255 255
0.02156500 0.04173750 -0.00465700 255 255 255
0.02072500 0.04226150 -0.00466100 255 255 255
0.01983300 0.04264550 -0.00466400 255 255 255
0.01880800 0.04278050 -0.00466000 255 255 255
0.01809800 0.04272050 -0.00466100 255 255 255
0.01708900 0.04251250 -0.00466800 255 255 255
0.01608600 0.04234250 -0.00467600 255 255 255
0.01508700 0.04221750 -0.00468100 255 255 255
0.01409800 0.04210050 -0.00468400 255 255 255
0.01311200 0.04196950 -0.00468800 255 255 255
0.01212500 0.04183650 -0.00469100 255 255 255
0.01130400 0.04173850 -0.00469600 255 255 255
0.01028700 0.04162050 -0.00470300 255 255 255
0.00912500 0.04150350 -0.00470800 255 255 255
0.00810900 0.04147450 -0.00471600 255 255 255
0.00711200 0.04150350 -0.00472200 255 255 255
0.00610900 0.04162050 -0.00472200 255 255 255
0.00510000 0.04177250 -0.00473400 255 255 255
0.00410600 0.04193350 -0.00473800 255 255 255
0.00289700 0.04211750 -0.00473900 255 255 255
0.00184000 0.04224350 -0.00474700 255 255 255
0.00076300 0.04233750 -0.00475000 255 255 255
-0.00024000 0.04227050 -0.00476200 255 255 255
-0.00120900 0.04207050 -0.00476600 255 255 255
-0.00214600 0.04175150 -0.00476600 255 255 255
-0.00304200 0.04127150 -0.00476100 255 255 255
-0.00346000 0.04097750 -0.00476200 255 255 255
-0.00419700 0.04029550 -0.00475800 255 255 255
-0.00485300 0.03943950 -0.00476600 255 255 255
-0.00542100 0.03849050 -0.00476200 255 255 255
-0.00586200 0.03784350 -0.00476900 255 255 255
-0.00668100 0.03727150 -0.00478900 255 255 255
-0.00759000 0.03674750 -0.00478800 255 255 255
-0.00837300 0.03615350 -0.00478800 255 255 255
-0.00900800 0.03537250 -0.00478500 255 255 255
-0.00937000 0.03478650 -0.00478500 255 255 255
-0.00984400 0.03390050 -0.00477700 255 255 255
-0.01034800 0.03303950 -0.00477300 255 255 255
-0.01082700 0.03206950 -0.00477300 255 255 255
-0.01114600 0.03111250 -0.00477000 255 255 255
-0.01132400 0.03014050 -0.00476200 255 255 255
-0.01134700 0.02910250 -0.00475800 255 255 255
-0.01129300 0.02813650 -0.00475400 255 255 255
-0.01113600 0.02714450 -0.00475000 255 255 255
-0.01102200 0.02667350 -0.00474700 255 255 255
-0.01074200 0.02570450 -0.00473900 255 255 255
-0.01040200 0.02476450 -0.00473100 255 255 255
-0.01008500 0.02400450 -0.00472600 255 255 255
-0.00965900 0.02307950 -0.00471600 255 255 255
-0.00920900 0.02218350 -0.00471200 255 255 255
-0.00872900 0.02130850 -0.00469900 255 255 255
-0.00819500 0.02046350 -0.00469500 255 255 255
-0.00762900 0.01963750 -0.00468800 255 255 255
-0.00288800 0.01015650 -0.00461000 255 255 255
-0.00329100 0.00915850 -0.00460700 255 255 255
-0.00374000 0.00814950 -0.00459900 255 255 255
-0.00422000 0.00713650 -0.00459600 255 255 255
-0.00449900 0.00656150 -0.00459600 255 255 255
-0.00493300 0.00564150 -0.00458800 255 255 255
-0.00536700 0.00471950 -0.00458700 255 255 255
-0.00578500 0.00380750 -0.00457500 255 255 255
-0.00615600 0.00287050 -0.00457600 255 255 255
-0.00652900 0.00192850 -0.00456100 255 255 255
-0.00690100 0.00099550 -0.00456500 255 255 255
-0.01098300 -0.05895050 -0.00350300 255 255 255
-0.01105100 -0.05981450 -0.00348800 255 255 255
-0.01108100 -0.06080150 -0.00349200 255 255 255
-0.01098000 -0.06179650 -0.00348700 255 255 255
-0.01075100 -0.06281750 -0.00347600 255 255 255
-0.01061200 -0.06321750 -0.00346500 255 255 255
-0.01017800 -0.06408750 -0.00346100 255 255 255
-0.00953500 -0.06496450 -0.00346400 255 255 255
-0.00876500 -0.06586050 -0.00347600 255 255 255
-0.00856400 -0.06627850 -0.00348000 255 255 255
-0.00821700 -0.06724550 -0.00347200 255 255 255
-0.00782800 -0.06818250 -0.00346400 255 255 255
-0.00733500 -0.06903650 -0.00345700 255 255 255
-0.00712300 -0.06935350 -0.00345600 255 255 255
-0.00649500 -0.07011650 -0.00344800 255 255 255
-0.00578300 -0.07082150 -0.00343700 255 255 255
-0.00547600 -0.07108750 -0.00343300 255 255 255
-0.00466000 -0.07167350 -0.00342600 255 255 255
0.02546200 -0.06136650 -0.00331300 255 255 255
0.02614700 -0.06159850 -0.00329400 255 255 255
0.02719300 -0.06196550 -0.00327900 255 255 255
0.02830500 -0.06233750 -0.00325400 255 255 255
0.02925000 -0.06265450 -0.00324400 255 255 255
0.03020400 -0.06293250 -0.00323200 255 255 255
0.03107900 -0.06314350 -0.00322800 255 255 255
0.03207200 -0.06317850 -0.00323100 255 255 255
0.03305300 -0.06305250 -0.00323600 255 255 255
0.03408600 -0.06279250 -0.00323500 255 255 255
0.03501500 -0.06239750 -0.00323600 255 255 255
0.03583500 -0.06184850 -0.00324000 255 255 255
0.03609800 -0.06163250 -0.00324400 255 255 255
0.03681100 -0.06091450 -0.00324700 255 255 255
0.03743000 -0.06003450 -0.00325900 255 255 255
0.03771100 -0.05944250 -0.00326200 255 255 255
0.03878700 -0.04355750 -0.00334000 255 255 255
0.03871000 -0.04328150 -0.00334100 255 255 255
0.03839100 -0.04220650 -0.00335200 255 255 255
0.03800300 -0.04117750 -0.00336400 255 255 255
0.03778900 -0.04066650 -0.00335900 255 255 255
0.03735300 -0.03976050 -0.00337500 255 255 255
0.03698000 -0.03911550 -0.00338700 255 255 255
0.03638500 -0.03821850 -0.00339900 255 255 255
0.03578200 -0.03735850 -0.00338700 255 255 255
0.03514700 -0.03651450 -0.00340900 255 255 255
0.03453200 -0.03563150 -0.00341800 255 255 255
0.03415500 -0.03510150 -0.00342100 255 255 255
0.03355100 -0.03428350 -0.00342600 255 255 255
0.03333400 -0.03401250 -0.00343600 255 255 255
0.03266800 -0.03324550 -0.00345300 255 255 255
0.03199900 -0.03247850 -0.00346800 255 255 255
0.03130500 -0.03169650 -0.00348400 255 255 255
0.03685800 -0.01277850 -0.00354200 255 255 255
0.03682600 -0.01182250 -0.00354600 255 255 255
0.03673500 -0.01084050 -0.00355300 255 255 255
0.03662400 -0.00985150 -0.00356000 255 255 255
0.03645500 -0.00884850 -0.00357200 255 255 255
0.03624700 -0.00785250 -0.00357300 255 255 255
0.03604600 -0.00686450 -0.00358400 255 255 255
0.03579800 -0.00585750 -0.00358500 255 255 255
0.03565800 -0.00532650 -0.00360000 255 255 255
0.03537900 -0.00436950 -0.00360400 255 255 255
0.03510800 -0.00340550 -0.00361500 255 255 255
0.03481400 -0.00244850 -0.00361500 255 255 255
0.03461200 -0.00187050 -0.00361900 255 255 255
0.03424100 -0.00085550 -0.00363000 255 255 255
0.03413200 -0.00056550 -0.00363000 255 255 255
0.03377600 0.00037550 -0.00364300 255 255 255
0.03339300 0.00130150 -0.00365300 255 255 255
0.03297800 0.00222650 -0.00366200 255 255 255
0.03255200 0.00315250 -0.00366900 255 255 255
0.03213200 0.00407450 -0.00367400 255 255 255
0.03196900 0.00442350 -0.00367800 255 255 255
0.03153500 0.00532150 -0.00368400 255 255 255
0.03121200 0.00591750 -0.00369600 255 255 255
0.03072300 0.00681850 -0.00370900 255 255 255
0.03022500 0.00770250 -0.00370900 255 255 255
0.02972400 0.00860650 -0.00372700 255 255 255
0.02956000 0.00891050 -0.00373100 255 255 255
0.02905600 0.01002450 -0.00373200 255 255 255
0.02856200 0.01117750 -0.00374200 255 255 255
0.02817300 0.01230950 -0.00375900 255 255 255
0.02784300 0.01343350 -0.00377800 255 255 255
0.02787800 0.01443950 -0.00378100 255 255 255
0.02872300 0.01523650 -0.00377800 255 255 255
0.02976900 0.01602050 -0.00376300 255 255 255
0.03075900 0.01682550 -0.00375000 255 255 255
0.03152900 0.01763150 -0.00375100 255 255 255
0.03223900 0.01847550 -0.00375800 255 255 255
0.03291400 0.01933450 -0.00375800 255 255 255
0.03340400 0.02021850 -0.00376300 255 255 255
0.03385300 0.02112550 -0.00377000 255 255 255
0.03423900 0.02205950 -0.00376700 255 255 255
0.03453500 0.02301750 -0.00377100 255 255 255
0.03480300 0.02397550 -0.00377800 255 255 255
0.03499700 0.02496950 -0.00378100 255 255 255
0.03507500 0.02596350 -0.00378500 255 255 255
0.03509800 0.02701350 -0.00379300 255 255 255
0.03504300 0.02813150 -0.00379400 255 255 255
0.03490400 0.02913550 -0.00380400 255 255 255
0.03480300 0.02963150 -0.00380900 255 255 255
0.03456600 0.03060450 -0.00381700 255 255 255
0.03438600 0.03122250 -0.00381600 255 255 255
0.03400800 0.03215750 -0.00381300 255 255 255
0.03355600 0.03304850 -0.00382100 255 255 255
0.03301500 0.03388150 -0.00383200 255 255 255
0.03236400 0.03465850 -0.00384300 255 255 255
0.03165800 0.03540450 -0.00385600 255 255 255
0.03142700 0.03565750 -0.00385900 255 255 255
0.03076200 0.03640750 -0.00387100 255 255 255
0.03006500 0.03711050 -0.00387500 255 255 255
0.02928800 0.03773050 -0.00387500 255 255 255
0.02868600 0.03809150 -0.00387800 255 255 255
0.02776600 0.03845650 -0.00387000 255 255 255
0.02676700 0.03872750 -0.00387000 255 255 255
0.02581000 0.03905150 -0.00386700 255 255 255
0.02487300 0.03948550 -0.00387800 255 255 255
0.02400900 0.04000850 -0.00389800 255 255 255
0.02321900 0.04062850 -0.00392500 255 255 255
0.02242100 0.04124150 -0.00394100 255 255 255
0.02160300 0.04182050 -0.00395200 255 255 255
0.02077100 0.04234850 -0.00396400 255 255 255
0.01988900 0.04278950 -0.00396700 255 255 255
0.01890900 0.04302650 -0.00396700 255 255 255
0.01807600 0.04299150 -0.00396800 255 255 255
0.01708100 0.04278550 -0.00397100 255 255 255
0.01608700 0.04262650 -0.00398000 255 255 255
0.01508700 0.04249850 -0.00397600 255 255 255
0.01409800 0.04238750 -0.00397900 255 255 255
0.01310900 0.04225050 -0.00398700 255 255 255
0.01212700 0.04211050 -0.00399500 255 255 255
0.01112000 0.04197950 -0.00400200 255 255 255
0.01022300 0.04188450 -0.00400600 255 255 255
0.00918700 0.04177050 -0.00401000 255 255 255
0.00819400 0.04174450 -0.00401700 255 255 255
0.00711800 0.04177750 -0.00402100 255 255 255
0.00610700 0.04189150 -0.00402600 255 255 255
0.00510500 0.04204150 -0.00403400 255 255 255
0.00410100 0.04221150 -0.00404100 255 255 255
0.00283200 0.04238750 -0.00404800 255 255 255
0.00175000 0.04253750 -0.00405600 255 255 255
0.00069300 0.04262250 -0.00405300 255 255 255
-0.00029000 0.04254850 -0.00406400 255 255 255
-0.00129300 0.04236050 -0.00406900 255 255 255
-0.00223500 0.04207850 -0.00407300 255 255 255
-0.00315200 0.04165350 -0.00406900 255 255 255
-0.00367100 0.04131350 -0.00406500 255 255 255
-0.00440600 0.04062850 -0.00407200 255 255 255
-0.00507200 0.03983150 -0.00406500 255 255 255
-0.00566900 0.03885650 -0.00406100 255 255 255
-0.00609500 0.03812150 -0.00407300 255 255 255
-0.00678500 0.03737450 -0.00408400 255 255 255
-0.00764500 0.03680350 -0.00409100 255 255 255
-0.00842700 0.03618550 -0.00409200 255 255 255
-0.00906900 0.03544550 -0.00408800 255 255 255
-0.00962000 0.03459350 -0.00408000 255 255 255
-0.00999200 0.03398550 -0.00407900 255 255 255
-0.01052400 0.03313150 -0.00407300 255 255 255
-0.01099800 0.03211650 -0.00407300 255 255 255
-0.01127000 0.03114950 -0.00407200 255 255 255
-0.01143300 0.03017050 -0.00406900 255 255 255
-0.01145600 0.02914650 -0.00406100 255 255 255
-0.01137800 0.02815050 -0.00405700 255 255 255
-0.01119800 0.02714850 -0.00405200 255 255 255
-0.01106900 0.02665550 -0.00404600 255 255 255
-0.01078000 0.02569950 -0.00403400 255 255 255
-0.01045600 0.02475550 -0.00403300 255 255 255
-0.01013100 0.02397450 -0.00402900 255 255 255
-0.00970500 0.02305850 -0.00401800 255 255 255
-0.00926100 0.02216750 -0.00401100 255 255 255
-0.00880700 0.02126550 -0.00400300 255 255 255
-0.00829200 0.02041350 -0.00399400 255 255 255
-0.00772200 0.01959350 -0.00398300 255 255 255
-0.00286700 0.01125650 -0.00390200 255 255 255
-0.00330600 0.01017250 -0.00390200 255 255 255
-0.00372500 0.00914350 -0.00389700 255 255 255
-0.00418200 0.00814050 -0.00389700 255 255 255
-0.00466000 0.00714350 -0.00389100 255 255 255
-0.00516600 0.00612850 -0.00388300 255 255 255
-0.00533600 0.00575550 -0.00388300 255 255 255
-0.00574500 0.00483550 -0.00388600 255 255 255
-0.00614200 0.00390350 -0.00388600 255 255 255
-0.00647400 0.00309750 -0.00387800 255 255 255
-0.00683800 0.00214950 -0.00387900 255 255 255
-0.01137100 -0.05980550 -0.00280900 255 255 255
-0.01139200 -0.06079050 -0.00280500 255 255 255
-0.01128500 -0.06179150 -0.00280200 255 255 255
-0.01116200 -0.06234950 -0.00279100 255 255 255
-0.01088900 -0.06328850 -0.00278700 255 255 255
-0.01046400 -0.06418850 -0.00277900 255 255 255
-0.00985900 -0.06504050 -0.00277400 255 255 255
-0.00903700 -0.06586250 -0.00276700 255 255 255
-0.00861300 -0.06632450 -0.00277500 255 255 255
-0.00809400 -0.06714150 -0.00277000 255 255 255
-0.00770600 -0.06810650 -0.00275900 255 255 255
-0.00724800 -0.06897450 -0.00275200 255 255 255
-0.00705500 -0.06927050 -0.00274800 255 255 255
-0.00643600 -0.07005150 -0.00274000 255 255 255
-0.00573900 -0.07077050 -0.00273600 255 255 255
-0.00544400 -0.07103650 -0.00273200 255 255 255
0.00564800 -0.07178550 -0.00265500 255 255 255
0.00624400 -0.07117950 -0.00264200 255 255 255
0.00636800 -0.07083650 -0.00258400 255 255 255
0.00663500 -0.06982450 -0.00276300 255 255 255
0.02438900 -0.06143050 -0.00262800 255 255 255
0.02523200 -0.06174750 -0.00258500 255 255 255
0.02629800 -0.06206450 -0.00256600 255 255 255
0.02725000 -0.06235850 -0.00255700 255 255 255
0.02794000 -0.06262450 -0.00254300 255 255 255
0.02820000 -0.06272350 -0.00253900 255 255 255
0.02912600 -0.06307950 -0.00253900 255 255 255
0.03008100 -0.06335350 -0.00253500 255 255 255
0.03105700 -0.06354350 -0.00252700 255 255 255
0.03205500 -0.06359650 -0.00252600 255 255 255
0.03305300 -0.06345350 -0.00253500 255 255 255
0.03417900 -0.06315050 -0.00252700 255 255 255
0.03489000 -0.06279450 -0.00253100 255 255 255
0.03542500 -0.06246150 -0.00253400 255 255 255
0.03619300 -0.06181450 -0.00254700 255 255 255
0.03688800 -0.06103350 -0.00255400 255 255 255
0.03748400 -0.06010350 -0.00255800 255 255 255
0.03773400 -0.05949250 -0.00255800 255 255 255
0.03807500 -0.05841050 -0.00256500 255 255 255
0.03912600 -0.04333450 -0.00264700 255 255 255
0.03902800 -0.04300350 -0.00264700 255 255 255
0.03870800 -0.04186650 -0.00265000 255 255 255
0.03833900 -0.04081150 -0.00265900 255 255 255
0.03791700 -0.03987650 -0.00268200 255 255 255
0.03745300 -0.03899350 -0.00269000 255 255 255
0.03687300 -0.03807850 -0.00269700 255 255 255
0.03626100 -0.03722750 -0.00270100 255 255 255
0.03562600 -0.03635950 -0.00270500 255 255 255
0.03506000 -0.03559250 -0.00271700 255 255 255
0.03434100 -0.03458450 -0.00273900 255 255 255
0.03372900 -0.03377250 -0.00274000 255 255 255
0.03307900 -0.03300350 -0.00275600 255 255 255
0.03240500 -0.03223050 -0.00276300 255 255 255
0.03722100 -0.01181650 -0.00284400 255 255 255
0.03712800 -0.01083450 -0.00284800 255 255 255
0.03699800 -0.00983450 -0.00286400 255 255 255
0.03683400 -0.00884950 -0.00286400 255 255 255
0.03663100 -0.00785250 -0.00287200 255 255 255
0.03647600 -0.00717250 -0.00288400 255 255 255
0.03639400 -0.00684650 -0.00288000 255 255 255
0.03615300 -0.00585950 -0.00288600 255 255 255
0.03598100 -0.00523150 -0.00289500 255 255 255
0.03570200 -0.00427550 -0.00290600 255 255 255
0.03540800 -0.00331650 -0.00291500 255 255 255
0.03512300 -0.00236350 -0.00291700 255 255 255
0.03479000 -0.00141750 -0.00292900 255 255 255
0.03444800 -0.00047250 -0.00293300 255 255 255
0.03408600 0.00046850 -0.00294600 255 255 255
0.03389700 0.00091850 -0.00294600 255 255 255
0.03350500 0.00185550 -0.00295700 255 255 255
0.03330100 0.00233150 -0.00296100 255 255 255
0.03310800 0.00277350 -0.00296100 255 255 255
0.03269700 0.00369150 -0.00297200 255 255 255
0.03227300 0.00461050 -0.00298300 255 255 255
0.03205300 0.00509150 -0.00298700 255 255 255
0.03160700 0.00601350 -0.00299200 255 255 255
0.03140300 0.00640650 -0.00299600 255 255 255
0.03092500 0.00728350 -0.00300400 255 255 255
0.03062300 0.00782550 -0.00301400 255 255 255
0.03015000 0.00873150 -0.00302700 255 255 255
0.02961300 0.00986150 -0.00302700 255 255 255
0.02906600 0.01106350 -0.00303100 255 255 255
0.02861500 0.01224150 -0.00306900 255 255 255
0.02835500 0.01329550 -0.00306200 255 255 255
0.02839800 0.01429450 -0.00305700 255 255 255
0.02910200 0.01514350 -0.00307200 255 255 255
0.03008800 0.01595950 -0.00305700 255 255 255
0.03100900 0.01674250 -0.00305300 255 255 255
0.03174600 0.01757150 -0.00305300 255 255 255
0.03241900 0.01842350 -0.00305400 255 255 255
0.03303200 0.01929050 -0.00305700 255 255 255
0.03352500 0.02018650 -0.00306100 255 255 255
0.03395900 0.02109950 -0.00306500 255 255 255
0.03429300 0.02204650 -0.00306900 255 255 255
0.03462000 0.02299250 -0.00306900 255 255 255
0.03488900 0.02395850 -0.00307700 255 255 255
0.03507700 0.02494150 -0.00308100 255 255 255
0.03519100 0.02594350 -0.00308100 255 255 255
0.03524000 0.02697150 -0.00309200 255 255 255
0.03520100 0.02813150 -0.00309600 255 255 255
0.03506700 0.02913950 -0.00310400 255 255 255
0.03496600 0.02968450 -0.00310700 255 255 255
0.03475200 0.03066250 -0.00311200 255 255 255
0.03446500 0.03161350 -0.00311100 255 255 255
0.03420700 0.03227250 -0.00311600 255 255 255
0.03375900 0.03316750 -0.00312400 255 255 255
0.03321600 0.03400650 -0.00313400 255 255 255
0.03254100 0.03477950 -0.00314200 255 255 255
0.03179800 0.03549150 -0.00315400 255 255 255
0.03108000 0.03623350 -0.00316600 255 255 255
0.03084000 0.03649350 -0.00317000 255 255 255
0.03015500 0.03722350 -0.00317000 255 255 255
0.02943000 0.03788650 -0.00317300 255 255 255
0.02881500 0.03832150 -0.00317300 255 255 255
0.02794700 0.03880350 -0.00316200 255 255 255
0.02703000 0.03918650 -0.00315400 255 255 255
0.02609600 0.03958450 -0.00316100 255 255 255
0.02517900 0.03999250 -0.00316600 255 255 255
0.02426400 0.04042950 -0.00317800 255 255 255
0.02380300 0.04068450 -0.00319300 255 255 255
0.02339700 0.04091850 -0.00320800 255 255 255
0.02253300 0.04142550 -0.00323100 255 255 255
0.02166600 0.04192450 -0.00325100 255 255 255
0.02079400 0.04242450 -0.00326300 255 255 255
0.01992600 0.04289750 -0.00327100 255 255 255
0.01903700 0.04324250 -0.00327000 255 255 255
0.01831300 0.04327650 -0.00326700 255 255 255
0.01707900 0.04307950 -0.00327100 255 255 255
0.01609300 0.04289750 -0.00327900 255 255 255
0.01508400 0.04276250 -0.00327900 255 255 255
0.01408800 0.04265150 -0.00328300 255 255 255
0.01310800 0.04252750 -0.00328500 255 255 255
0.01211200 0.04239050 -0.00329400 255 255 255
0.01115100 0.04226450 -0.00329800 255 255 255
0.01011700 0.04213550 -0.00330500 255 255 255
0.00910900 0.04203850 -0.00330900 255 255 255
0.00810900 0.04201550 -0.00332000 255 255 255
0.00710400 0.04203250 -0.00332100 255 255 255
0.00609900 0.04213750 -0.00332900 255 255 255
0.00510200 0.04229350 -0.00334000 255 255 255
0.00410100 0.04246550 -0.00334700 255 255 255
0.00310300 0.04261950 -0.00334800 255 255 255
0.00276200 0.04267250 -0.00335500 255 255 255
0.00168000 0.04282450 -0.00335600 255 255 255
0.00059600 0.04291350 -0.00335600 255 255 255
