48.109893 0.057981 24.182944 1.000000
20.567795 24.868002 7.689246 0.000000
11.137739 8.480123 45.009092 0.000000
28.699996 0.000000 5.946909 0.000000
2.483765 14.005715 41.010993 0.000000
15.542346 4.370351 12.706825 0.000000
33.552281 0.000000 21.114145 0.000000
25.741551 0.481905 0.000000 1.000000
12.842187 5.929289 8.101073 0.000000
46.201533 9.540290 10.645752 0.000000
9.694989 21.019937 40.906925 0.000000
46.903768 7.676424 5.906062 0.000000
28.512578 24.405850 18.644502 0.000000
16.986304 3.536682 28.918243 0.000000
36.821058 18.188748 46.266033 0.000000
41.834162 0.000000 4.403785 0.000000
2.756269 14.506042 32.956728 0.000000
18.836312 2.468579 28.967295 0.000000
39.554319 0.000000 3.493735 0.000000
25.743633 23.411707 0.000000 1.000000
35.343276 21.789341 1.851438 0.000000
45.059155 9.071467 0.000000 0.000000
26.348722 24.764295 20.977705 0.000000
14.289782 23.287957 41.224649 0.000000
34.003739 22.492668 35.173638 0.000000
38.804351 17.164403 45.597391 0.000000
5.316112 10.274470 28.254441 0.000000
4.609008 16.806747 30.347610 0.000000
8.445045 20.243386 38.479746 0.000000
18.003723 2.949275 3.224081 0.000000
47.888956 3.267643 21.122465 0.000000
22.027134 24.951656 10.651021 0.000000
35.154990 21.890050 6.824177 0.000000
47.567350 5.188636 19.215275 0.000000
46.983196 7.388168 9.836445 0.000000
31.292550 0.064550 40.898726 0.000000
47.895506 3.167784 9.966335 0.000000
24.896781 24.907761 1.712206 0.000000
22.371245 24.985669 33.143277 0.000000
9.547119 17.552564 46.928943 0.000000
27.809742 21.307353 47.283213 0.000000
39.528698 8.853977 49.290387 0.000000
15.409443 22.651839 0.000000 1.000000
13.685100 23.135435 26.029040 0.000000
6.725149 9.460962 38.568747 0.000000
16.310063 3.927110 4.596982 0.000000
43.792394 14.001646 4.979174 0.000000
23.531256 0.000000 8.592341 1.000000
26.919187 18.249611 0.000000 0.000000
46.998126 7.336002 11.770018 0.000000
41.147178 17.279522 7.455252 0.000000
20.844928 1.308904 16.355499 0.000000
30.815830 23.782722 6.122424 0.000000
3.629688 15.634657 32.701952 0.000000
31.726749 21.400113 45.865724 0.000000
44.525870 0.000000 25.104673 0.000000
29.481789 0.000000 1.619946 0.000000
8.883309 8.214948 38.654589 0.000000
23.416368 24.960040 40.571785 0.000000
13.568595 23.092357 30.362403 0.000000
23.127015 0.000000 4.670292 1.000000
29.786773 8.330401 49.856864 0.000000
44.663438 0.000000 16.638605 0.000000
9.713522 21.071834 18.922525 0.000000
38.505618 12.716231 0.000000 0.000000
43.320335 1.081006 44.521986 0.000000
27.078892 24.648647 7.133609 0.000000
21.165811 1.123642 3.580611 0.000000
6.543678 18.714927 6.843024 0.000000
28.538169 23.661428 43.659465 0.000000
23.365965 15.556405 0.000000 0.000000
43.378600 0.000000 33.405702 0.000000
23.610104 24.991415 35.424009 0.000000
46.140340 9.676961 1.128663 0.000000
39.603878 18.783040 33.951046 0.000000
23.034156 0.044953 36.916856 1.000000
14.680334 5.392895 0.000000 1.000000
13.267688 9.635500 47.512072 0.000000
35.128961 10.230113 0.000000 0.000000
6.178559 9.776536 25.892730 0.000000
45.930625 10.212212 22.077667 0.000000
23.993507 0.000000 18.036950 0.000000
48.106100 0.161625 7.452989 1.000000
42.821961 15.331196 1.867365 0.000000
39.750862 18.655942 30.901353 0.000000
45.017562 12.026981 33.159691 0.000000
10.610138 20.944615 43.393087 0.000000
15.263991 4.531060 20.996665 0.000000
5.608355 10.105744 14.032476 0.000000
46.971274 7.442360 13.277694 0.000000
21.022806 1.206206 26.806163 0.000000
41.821026 16.567247 12.916706 0.000000
9.748418 20.205328 43.780627 0.000000
29.581440 2.430963 46.493094 0.000000
38.131460 16.821692 46.517002 0.000000
41.085744 9.737673 0.000000 0.000000
42.395096 15.858330 8.742704 0.000000
13.661613 5.456193 19.408443 0.000000
2.520056 11.888774 27.030770 1.000000
9.136637 12.218677 47.666401 0.000000
15.133654 4.606310 33.444689 0.000000
11.379032 22.063311 23.087120 0.000000
10.759977 7.131453 34.723465 0.000000
33.755274 22.611513 27.151486 0.000000
30.739464 23.805017 7.362011 0.000000
37.838940 20.200331 7.460117 0.000000
24.197934 1.524881 45.251287 0.000000
30.176265 0.038653 40.559009 0.000000
43.310595 0.000000 24.456124 0.000000
48.104682 0.200362 30.533252 1.000000
12.877349 14.106978 0.000000 0.000000
16.954265 16.453762 0.000000 0.000000
30.151107 3.217984 47.330301 0.000000
42.629050 3.044042 0.000000 0.000000
48.096021 0.437048 34.315693 1.000000
34.882020 22.048022 28.689070 0.000000
42.288571 0.000000 35.424334 0.000000
31.814951 1.537816 45.290524 0.000000
33.319796 22.819809 23.393913 0.000000
25.115521 3.302238 0.000000 0.000000
14.378154 6.544139 0.000000 1.000000
5.233919 17.455369 39.456592 0.000000
4.121318 16.051923 0.000000 1.000000
31.259430 0.867026 44.012316 0.000000
8.844832 8.237163 23.119106 0.000000
47.108941 0.000000 31.155869 1.000000
22.424510 14.199092 0.000000 0.000000
27.407375 24.599956 16.529670 0.000000
11.338054 6.797700 21.177907 0.000000
20.885601 14.159652 0.000000 0.000000
3.374181 15.321009 29.070888 0.000000
4.935984 17.137199 5.715375 0.000000
28.069611 8.338905 0.000000 0.000000
14.978838 4.695693 36.243748 0.000000
42.659422 15.531915 11.132768 0.000000
41.877717 16.497239 29.485812 0.000000
15.398359 4.915423 42.761682 0.000000
41.275557 0.000000 16.437746 0.000000
4.827880 17.027913 4.650645 0.000000
5.501244 17.705470 8.427250 0.000000
6.678781 9.487733 10.268956 0.000000
39.508207 18.865767 27.881020 0.000000
42.510087 15.722103 23.202830 0.000000
21.647228 0.845696 22.087728 0.000000
48.075295 1.003405 31.221174 1.000000
9.023876 20.619284 27.746820 0.000000
43.493599 14.469669 39.728331 0.000000
46.960147 7.496341 37.493200 0.000000
22.709396 24.991862 16.219091 0.000000
14.933196 4.722044 14.847217 0.000000
18.393781 5.509398 0.000000 0.000000
35.118907 21.919068 35.313990 0.000000
29.066996 0.000000 8.893295 0.000000
17.967161 14.040802 49.985797 0.000000
3.920066 15.974344 12.469382 0.000000
28.288394 0.000000 0.992054 1.000000
7.119112 19.195065 21.095870 0.000000
45.993587 10.064656 27.429520 0.000000
13.108702 5.775416 30.512908 0.000000
32.691114 12.133485 0.000000 0.000000
39.578524 0.000000 17.208959 0.000000
35.209829 21.859636 4.248411 0.000000
47.560851 5.220073 35.804173 0.000000
18.769381 2.507222 39.238721 0.000000
10.635111 21.663270 22.488048 0.000000
11.643618 22.180578 4.556736 0.000000
12.258639 22.500522 11.500745 0.000000
46.039509 9.953677 23.233610 0.000000
43.593872 14.301559 1.180098 0.000000
18.433284 12.721262 49.908453 0.000000
18.662705 24.580765 20.126619 0.000000
45.430672 11.227268 36.975262 0.000000
5.609207 10.105252 6.178728 0.000000
42.310285 0.000000 16.388379 0.000000
41.693983 0.000000 39.229553 0.000000
43.207850 0.000000 9.149913 0.000000
39.312117 19.035325 38.333564 0.000000
35.769849 15.991182 0.000000 0.000000
15.493643 4.398470 1.901544 0.000000
34.980834 21.994231 33.585810 0.000000
13.496454 5.551547 31.482423 0.000000
42.377291 0.000000 15.332014 0.000000
13.095915 22.905142 18.740375 0.000000
6.603854 9.530992 14.271364 0.000000
30.626734 1.162516 0.000000 1.000000
10.751052 7.136606 4.623172 0.000000
20.012476 24.797017 39.280829 0.000000
9.484070 20.923492 23.235677 0.000000
20.796291 10.585823 49.773782 0.000000
7.138395 19.206368 16.755936 0.000000
2.853150 14.646238 4.904987 0.000000
29.630838 1.806682 0.000000 0.000000
5.692959 17.903313 13.947555 0.000000
22.439234 0.388431 29.482923 1.000000
17.539642 3.217212 30.388921 0.000000
18.579011 24.576894 31.602182 0.000000
17.051757 3.498893 5.212008 0.000000
12.441536 6.160605 17.517046 0.000000
9.480135 20.936436 38.431322 0.000000
45.605797 1.153278 44.659389 0.000000
35.062506 0.000000 6.573365 0.000000
43.328334 0.000000 21.502869 0.000000
20.584725 1.459132 11.986476 0.000000
26.554317 15.438845 49.953473 0.000000
48.101961 0.228097 2.630160 1.000000
48.003328 2.220953 10.670374 0.000000
46.452881 8.887277 11.387760 0.000000
40.863854 17.574620 18.711726 0.000000
36.059155 21.379379 28.689969 0.000000
6.826290 16.263704 45.941680 0.000000
15.451941 23.795641 27.892524 0.000000
46.968989 7.426125 1.184792 1.000000
38.434488 13.171093 48.524573 0.000000
37.747293 20.268160 39.592850 0.000000
8.169198 20.031723 29.578759 0.000000
45.688394 10.152921 0.000000 1.000000
8.727517 9.535937 0.000000 1.000000
4.521542 16.715026 39.480626 0.000000
32.799529 23.043344 37.483816 0.000000
34.174985 0.000000 3.602852 0.000000
48.110267 0.047772 4.151523 1.000000
34.386798 18.825380 0.000000 0.000000
17.578851 3.194575 23.601432 0.000000
12.341072 22.548875 32.304963 0.000000
46.925580 1.594698 0.000000 1.000000
18.633006 13.362805 0.000000 0.000000
33.986712 5.302163 48.825841 0.000000
8.480172 13.343560 48.173657 0.000000
20.813497 24.885650 26.020204 0.000000
15.428288 23.788682 37.286559 0.000000
17.132698 3.452161 35.678251 0.000000
34.683867 0.000000 20.797231 0.000000
22.744367 24.988543 9.773006 0.000000
36.067774 21.379079 35.204509 0.000000
8.418020 20.225836 25.994511 0.000000
47.084970 7.060972 34.317733 0.000000
19.623692 24.734777 33.827940 0.000000
27.016873 24.658470 18.655603 0.000000
24.798065 8.186487 49.756058 0.000000
40.475922 17.961300 17.514710 0.000000
3.923985 15.939743 40.682286 0.000000
25.633651 24.869430 38.442164 0.000000
15.455905 21.411973 0.000000 0.000000
2.697232 14.420609 16.073762 0.000000
27.956309 18.216299 49.210845 0.000000
48.046580 1.589265 24.717730 1.000000
36.081822 4.739615 48.485238 0.000000
29.912967 0.000000 21.990544 0.000000
4.069483 10.994212 29.033289 0.000000
6.456558 9.616033 26.954614 0.000000
4.632318 10.669259 39.422459 0.000000
7.221548 9.174366 35.742841 0.000000
2.419608 11.946768 10.987508 1.000000
28.694216 0.000000 10.689464 0.000000
30.257407 4.236996 0.000000 0.000000
43.033548 7.931026 47.625509 0.000000
13.060360 10.278282 0.000000 0.000000
30.948838 23.739419 16.220329 0.000000
18.842115 2.465229 10.354434 0.000000
47.160934 6.712565 3.617404 0.000000
43.730474 14.098548 5.998354 0.000000
40.054922 3.725944 47.779197 0.000000
6.179653 18.387852 31.219443 0.000000
47.790389 3.914390 25.780075 0.000000
40.559509 0.000000 3.439475 0.000000
23.652701 24.975201 4.668812 0.000000
25.712073 12.554250 50.000000 0.000000
48.073632 1.048847 38.128788 1.000000
18.937123 24.634741 37.311200 0.000000
46.905758 7.670070 20.968430 0.000000
31.517828 16.084853 49.481805 0.000000
7.469813 13.151725 47.648841 0.000000
13.767743 5.964499 43.101370 0.000000
29.624512 0.000000 12.432173 0.000000
13.603003 5.565598 40.831209 0.000000
6.501905 9.589852 33.187178 0.000000
24.149183 0.000000 25.185354 1.000000
30.267419 18.680622 48.634614 0.000000
14.600633 4.914050 34.339298 0.000000
16.449776 22.646734 0.000000 1.000000
29.260720 0.082377 41.105653 0.000000
27.396518 24.614898 31.045476 0.000000
17.527527 3.224207 20.127713 0.000000
47.821597 3.675274 17.756437 0.000000
33.629333 22.671753 30.822413 0.000000
40.447978 18.009600 36.976487 0.000000
7.888486 19.801055 3.949920 0.000000
16.300261 23.876340 41.678856 0.000000
13.228269 12.581637 49.140147 0.000000
30.518635 11.333925 0.000000 0.000000
4.459209 10.769203 36.849385 0.000000
47.942659 2.870023 34.486787 0.000000
10.889184 20.446199 0.000000 1.000000
20.704190 24.877799 34.299120 0.000000
47.728853 4.290300 24.503577 0.000000
8.765536 8.282944 12.348052 0.000000
24.696309 24.934771 27.266651 0.000000
5.548098 10.362197 0.000000 1.000000
37.582212 13.672310 48.688573 0.000000
18.771325 24.601359 25.904673 0.000000
17.946491 24.460137 13.700925 0.000000
28.022273 24.510514 22.477622 0.000000
37.063504 6.548972 49.381597 0.000000
43.661662 14.227558 35.616859 0.000000
35.177037 0.000000 19.692004 0.000000
11.335839 6.798979 28.650931 0.000000
13.312451 22.577527 42.685275 0.000000
19.485908 2.093535 33.702054 0.000000
47.267289 0.000000 10.847300 1.000000
35.991544 0.000000 36.253995 0.000000
1.677404 12.850512 22.161276 1.000000
15.044995 22.386186 44.708305 0.000000
48.067271 1.222664 39.268447 1.000000
26.373515 24.749841 40.385437 0.000000
44.009226 0.000000 9.893594 0.000000
38.520342 19.670828 38.143036 0.000000
14.517932 4.961797 25.559290 0.000000
14.155789 23.318079 28.913328 0.000000
21.209300 1.098534 18.998485 0.000000
34.485117 8.820007 0.000000 0.000000
15.094763 4.628764 24.538400 0.000000
7.673218 8.913594 11.233990 0.000000
3.702829 15.721233 31.188180 0.000000
12.912525 5.888679 39.121334 0.000000
37.968983 0.000000 4.709837 0.000000
33.773606 22.602745 33.961290 0.000000
21.995143 24.316232 0.000000 1.000000
47.386725 5.897795 27.939073 0.000000
21.344191 24.915007 9.578459 0.000000
43.661070 13.337715 43.071135 0.000000
41.562904 11.025181 0.000000 0.000000
23.526192 24.985139 9.035007 0.000000
38.973276 19.314893 32.803522 0.000000
31.004937 10.048085 50.000000 0.000000
46.739983 7.311224 0.000000 1.000000
1.464816 12.505574 31.605194 1.000000
26.373376 24.769064 37.116835 0.000000
23.751816 24.983270 22.176658 0.000000
12.239172 16.417773 48.807430 0.000000
47.515295 5.387109 1.032674 1.000000
37.634208 20.348367 35.665031 0.000000
15.850089 20.714097 47.175244 0.000000
31.353710 5.971085 49.132890 0.000000
39.857585 18.562517 39.774154 0.000000
20.856593 24.888746 38.574328 0.000000
26.743486 24.150018 43.305855 0.000000
30.284702 5.539313 48.948821 0.000000
28.435093 24.423005 3.328463 0.000000
18.839805 22.923105 45.530027 0.000000
36.356676 21.170311 10.624954 0.000000
30.661746 23.827706 28.872266 0.000000
40.043411 17.062018 44.246592 0.000000
44.591543 12.776326 26.288000 0.000000
20.050001 23.814347 44.310576 0.000000
36.341737 21.195908 32.252733 0.000000
35.958492 21.427527 6.173950 0.000000
45.516128 11.062246 38.375161 0.000000
26.867573 0.195572 41.884111 0.000000
30.676412 23.823425 37.000281 0.000000
24.931827 15.285342 0.000000 0.000000
38.989544 17.942462 0.000000 1.000000
28.882798 0.000000 22.422699 0.000000
24.130599 0.000000 4.149226 0.000000
47.116936 6.944647 36.614381 0.000000
11.872380 13.835374 0.000000 0.000000
40.135838 14.927250 0.000000 0.000000
16.806236 3.640644 26.161247 0.000000
38.204173 19.916516 26.297798 0.000000
26.229605 24.494066 42.381097 0.000000
7.946963 8.755547 8.060714 0.000000
24.809421 0.000000 30.380189 0.000000
28.578045 12.042361 50.000000 0.000000
36.165168 0.000000 19.165160 0.000000
13.819377 5.365108 29.697312 0.000000
12.810740 5.947445 16.153040 0.000000
18.742484 3.320917 0.000000 1.000000
38.671886 16.921683 0.000000 0.000000
37.525105 15.027950 48.110113 0.000000
3.642002 11.241018 17.581435 0.000000
12.847409 5.926274 19.749252 0.000000
5.498986 11.786399 0.000000 1.000000
41.838945 1.143324 0.000000 1.000000
15.244462 10.772501 48.870355 0.000000
5.757047 17.973945 19.841722 0.000000
48.008238 2.241183 21.363161 0.000000
14.303241 10.307238 0.000000 0.000000
17.717890 3.114301 11.008970 0.000000
16.168606 4.008780 21.410968 0.000000
31.287124 6.179587 0.000000 0.000000
23.246522 2.787383 46.546834 0.000000
37.699486 20.301055 19.653655 0.000000
42.804468 0.821367 0.000000 1.000000
30.278900 16.149645 49.619104 0.000000
46.319956 9.264843 24.479789 0.000000
38.616538 13.746713 0.000000 0.000000
27.050932 5.801259 0.000000 0.000000
33.319307 0.000000 37.911054 0.000000
7.183372 19.248208 22.209282 0.000000
14.512328 7.720397 0.000000 0.000000
19.860388 15.651925 49.944146 0.000000
30.997072 17.905910 48.879989 0.000000
43.480047 14.489192 12.261965 0.000000
2.523968 11.886515 12.043577 0.000000
39.812770 18.602411 26.718262 0.000000
23.639656 24.990905 34.135307 0.000000
2.317094 12.694388 43.387051 1.000000
10.720705 7.154127 27.413621 0.000000
47.809266 3.781163 23.101378 0.000000
46.814921 7.933243 19.511478 0.000000
11.354092 22.034189 5.752308 0.000000
47.255525 6.370137 12.850651 0.000000
39.057292 19.222350 9.285987 0.000000
28.684360 1.359255 0.000000 1.000000
10.671242 16.481154 48.225301 0.000000
30.660980 2.338546 0.000000 0.000000
39.688476 9.897593 49.018159 0.000000
8.423365 8.480497 21.953007 0.000000
16.789977 3.650031 31.422506 0.000000
37.659303 0.000000 33.872664 0.000000
10.262715 21.429145 10.799696 0.000000
19.713617 24.203374 43.242577 0.000000
6.447747 9.621120 36.931373 0.000000
37.030491 20.729466 0.000901 1.000000
17.857843 12.620506 0.000000 0.000000
26.246275 0.000000 35.896253 0.000000
3.971639 11.050702 15.203093 0.000000
48.109767 0.000000 14.677541 1.000000
30.419995 0.000000 16.892616 0.000000
44.560660 12.812599 1.025973 1.000000
23.952983 0.000000 10.475088 1.000000
14.405195 23.413652 27.764763 0.000000
20.216798 7.670598 0.000000 0.000000
9.305242 16.567911 47.520179 0.000000
43.375436 6.731398 0.000000 0.000000
12.603765 22.675207 26.081696 0.000000
38.002347 0.000000 16.212912 0.000000
12.100831 22.410925 1.796507 0.000000
15.346818 8.192514 47.329969 0.000000
9.343994 7.948972 4.760464 0.000000
30.713905 23.812479 4.428342 0.000000
5.799466 9.995406 7.567357 0.000000
27.239274 11.310165 50.000000 0.000000
40.775712 3.820862 0.000000 0.000000
27.227514 24.646759 38.994620 0.000000
23.990263 0.000000 5.378153 1.000000
18.809309 24.596722 5.750435 0.000000
44.373573 0.052422 40.941076 0.000000
4.315293 15.835219 42.766825 0.000000
20.154573 1.707481 38.608416 0.000000
4.969162 17.180566 33.233675 0.000000
33.776877 0.000000 34.966041 0.000000
25.517617 11.375665 50.000000 0.000000
18.787901 2.496530 9.189675 0.000000
46.602926 0.408043 42.814501 1.000000
42.181565 7.529671 48.333429 0.000000
20.113192 1.731372 24.159263 0.000000
39.651792 18.741608 10.003957 0.000000
42.695655 15.522023 38.026785 0.000000
36.545385 10.146222 49.814641 0.000000
4.813464 11.329672 43.568584 0.000000
24.997845 0.000000 6.768127 0.000000
11.616569 22.165623 3.318458 0.000000
25.176645 0.000000 17.874083 0.000000
24.673311 0.000000 23.517281 1.000000
2.560626 14.216170 15.073301 0.000000
39.635841 0.000000 38.907564 0.000000
5.757137 14.609733 46.366654 0.000000
19.610123 2.021819 3.027578 0.000000
26.229096 0.000000 28.115098 0.000000
14.626932 11.930261 0.000000 0.000000
23.900242 0.000000 11.650531 1.000000
39.435685 0.000000 27.331840 0.000000
43.879687 13.865663 3.951296 0.000000
24.967783 24.903283 0.713181 1.000000
24.484141 24.949561 31.589213 0.000000
18.025610 16.385458 0.000000 0.000000
18.047815 24.347662 41.444041 0.000000
4.680331 16.880776 38.231439 0.000000
34.851547 0.000000 17.179900 0.000000
32.745301 0.000000 8.329545 0.000000
30.739902 0.000000 34.823883 0.000000
16.992592 3.533051 38.333946 0.000000
15.228250 4.730702 41.735365 0.000000
1.570162 12.673166 3.632139 1.000000
15.065065 4.645910 0.961471 1.000000
3.380948 11.391738 36.018648 0.000000
31.549129 23.516460 29.324095 0.000000
11.099791 21.634688 42.152312 0.000000
11.788642 22.267031 17.820303 0.000000
45.494704 0.128297 41.593884 0.000000
31.795737 0.000000 30.407182 0.000000
25.476674 5.279114 48.800422 0.000000
32.116156 19.322687 0.000000 0.000000
21.966883 24.962497 28.166227 0.000000
44.648592 0.000000 31.541636 0.000000
33.183083 16.975223 48.785373 0.000000
14.536650 13.738108 49.703644 0.000000
30.590989 1.440917 45.129546 0.000000
47.653168 4.711287 30.611264 0.000000
44.400106 13.083623 16.648251 0.000000
47.902894 3.083032 2.700495 0.000000
47.019410 7.284783 23.733598 0.000000
25.238276 1.564269 45.318014 0.000000
40.747210 17.703366 30.905120 0.000000
8.471685 8.452599 36.053134 0.000000
27.765780 24.561204 34.223124 0.000000
44.696813 12.606322 31.351773 0.000000
35.616943 10.768925 49.870498 0.000000
23.726674 0.000000 16.534444 1.000000
42.974097 0.000000 6.057333 0.000000
39.492891 18.861686 1.682844 1.000000
43.895867 13.855107 13.380402 0.000000
29.650990 24.122794 38.480097 0.000000
46.345980 9.205090 27.844766 0.000000
24.853434 24.912214 4.591485 0.000000
15.714232 5.815966 0.000000 1.000000
43.107447 6.932549 47.859348 0.000000
18.064676 24.483753 20.993263 0.000000
13.655537 5.572664 0.000000 1.000000
42.232130 16.059577 2.462425 0.000000
13.641751 5.467660 25.838378 0.000000
46.454426 8.932678 32.071361 0.000000
30.248641 0.000000 3.808849 0.000000
10.360597 7.362035 16.091351 0.000000
19.719186 1.958851 34.757479 0.000000
32.702490 0.000000 6.953037 0.000000
39.749735 0.803905 43.879905 0.000000
47.843119 3.526226 15.245550 0.000000
24.172952 15.450973 49.972051 0.000000
18.462062 24.542689 9.405337 0.000000
43.835085 7.170330 47.185501 0.000000
14.312510 5.080398 23.984904 0.000000
35.545809 9.553589 49.971725 0.000000
11.745668 6.562365 16.536361 0.000000
11.557859 7.838234 44.349193 0.000000
30.187181 23.966254 25.903921 0.000000
20.627798 3.414028 45.559109 0.000000
25.654788 9.957145 49.991699 0.000000
46.946005 7.541514 26.919715 0.000000
6.764046 18.887714 1.143538 1.000000
8.335465 9.452786 43.874656 0.000000
29.140984 0.000000 23.472925 0.000000
15.355353 4.478312 34.906030 0.000000
37.707818 20.292530 9.519557 0.000000
31.022369 23.714919 23.868170 0.000000
12.737791 5.989562 26.474419 0.000000
22.715511 0.228923 5.656169 1.000000
39.884823 1.249598 44.830225 0.000000
4.250430 16.381097 8.119908 0.000000
12.049170 22.405535 23.901465 0.000000
39.861095 18.559250 2.656971 0.000000
37.104519 0.000000 8.729471 0.000000
37.612266 20.358770 23.147492 0.000000
42.069895 0.000000 8.601370 0.000000
47.029726 7.241060 22.016579 0.000000
28.487201 24.411837 27.843968 0.000000
43.600666 14.315429 25.624724 0.000000
18.640381 17.595431 0.000000 0.000000
5.035491 17.249413 19.491510 0.000000
16.660730 4.389178 43.321171 0.000000
36.227992 0.000000 27.424599 0.000000
41.182705 17.249133 12.367767 0.000000
38.274305 0.000000 1.010272 1.000000
26.981316 2.768351 46.885779 0.000000
21.838173 24.959250 38.033418 0.000000
27.622847 24.572711 20.922140 0.000000
18.772586 2.505371 2.143927 0.000000
15.116841 4.616017 29.627797 0.000000
27.940948 0.000000 9.760823 0.000000
33.809907 0.000000 8.844807 0.000000
33.274307 22.841296 10.434162 0.000000
31.197931 15.317346 0.000000 0.000000
37.035429 20.739010 33.127429 0.000000
13.977674 23.247127 23.468538 0.000000
24.957409 0.000000 38.870650 0.000000
40.188443 18.254570 25.558996 0.000000
24.692106 24.935064 33.749702 0.000000
28.760566 9.841482 49.987786 0.000000
16.636305 24.135793 27.785802 0.000000
8.085507 19.966405 27.469252 0.000000
10.468346 21.560820 5.696583 0.000000
24.869648 24.047508 0.000000 1.000000
19.394233 2.146464 30.369253 0.000000
16.407833 24.073595 26.676489 0.000000
45.697531 10.666854 1.419164 0.000000
39.668480 0.000000 1.142030 1.000000
41.160748 17.275944 36.604790 0.000000
28.564065 8.187679 49.824950 0.000000
40.819533 16.958348 42.971173 0.000000
40.489779 8.672328 48.957658 0.000000
43.395557 14.610910 7.023487 0.000000
14.303559 23.369726 17.997706 0.000000
16.277574 7.100756 46.840666 0.000000
38.995031 19.295597 31.191630 0.000000
42.353797 4.052652 0.000000 0.000000
3.141281 15.021234 14.721360 0.000000
22.908722 0.117372 13.720633 1.000000
47.016442 0.000000 34.206940 1.000000
11.809076 20.265835 45.668860 0.000000
46.972367 2.237481 44.396332 1.000000
42.030635 7.378365 0.000000 0.000000
34.058556 0.000000 32.593158 0.000000
46.027008 9.983890 19.756302 0.000000
2.107396 13.542181 30.429965 1.000000
37.792097 0.000000 10.710817 0.000000
23.602141 24.982693 11.060815 0.000000
34.310422 21.491905 0.000000 1.000000
47.935273 2.928554 33.260034 0.000000
2.196148 12.075782 13.873772 1.000000
36.752735 20.923926 31.223766 0.000000
41.516881 8.568999 48.476164 0.000000
37.453552 18.842843 44.907773 0.000000
13.675517 23.123492 7.753286 0.000000
29.784012 24.083958 33.205988 0.000000
4.135706 10.955978 38.524613 0.000000
37.795692 20.233313 18.534160 0.000000
28.064789 17.170576 49.560140 0.000000
6.941446 19.035807 5.609994 0.000000
6.379889 18.575012 12.658117 0.000000
29.217499 17.345068 49.400757 0.000000
3.536920 15.499481 6.312836 0.000000
12.869750 5.913375 4.559805 0.000000
41.003792 7.150645 0.000000 0.000000
25.988379 0.000000 24.353488 0.000000
20.781554 1.345493 19.884653 0.000000
7.641536 19.619901 38.923539 0.000000
8.797738 20.474199 33.504791 0.000000
25.750929 24.858976 18.988407 0.000000
24.220619 6.929740 0.000000 0.000000
15.049989 4.654614 22.137939 0.000000
42.884044 15.159141 0.000000 1.000000
21.340331 1.022883 7.565988 0.000000
43.204443 14.765437 40.902578 0.000000
34.009931 22.487569 21.497788 0.000000
4.758935 15.519883 44.241443 0.000000
5.635114 17.850806 18.755638 0.000000
47.583958 5.096260 23.581057 0.000000
26.372083 24.760595 19.936613 0.000000
24.494540 12.541707 50.000000 0.000000
33.880465 22.551632 37.528817 0.000000
39.409942 18.932880 5.543612 0.000000
24.206183 0.000000 9.454716 1.000000
24.209887 2.115222 46.118800 0.000000
45.749633 10.573740 9.238227 0.000000
28.074710 0.000000 11.685020 0.000000
13.531402 7.487439 0.000000 0.000000
46.190757 2.982748 45.589386 0.000000
46.647217 1.126057 44.608061 1.000000
36.373415 21.163025 17.754813 0.000000
39.133592 19.163150 11.767161 0.000000
2.435389 14.011007 7.167747 1.000000
33.797525 7.764285 0.000000 0.000000
4.289814 10.867004 24.157306 0.000000
16.990331 3.534357 3.012567 0.000000
45.928204 9.560596 42.194637 0.000000
28.562864 0.000000 2.145890 0.000000
40.909999 12.614793 0.000000 0.000000
22.279580 0.480608 36.346303 1.000000
25.768991 8.770771 49.903285 0.000000
16.362996 24.048450 11.796834 0.000000
44.704639 12.523282 40.583359 0.000000
43.072366 2.085710 0.000000 0.000000
33.176298 22.878612 0.002855 1.000000
4.717633 16.919494 34.175694 0.000000
3.707758 11.203054 7.066723 0.000000
2.465584 11.920223 35.902005 1.000000
20.492573 23.276325 45.382054 0.000000
47.400019 5.821667 4.821511 0.000000
39.007296 19.266688 12.981475 0.000000
13.817764 5.366039 36.557237 0.000000
36.662983 20.987103 36.024604 0.000000
34.344872 22.329500 36.178346 0.000000
28.981067 15.334443 49.884359 0.000000
38.975681 19.306810 26.915259 0.000000
29.972563 23.908333 0.000000 1.000000
41.062890 0.000000 8.834382 0.000000
43.782104 14.035294 16.668212 0.000000
14.117933 22.449580 43.883415 0.000000
45.878505 10.326184 36.904816 0.000000
35.215293 21.866598 17.526250 0.000000
10.595883 21.641026 14.912650 0.000000
7.491401 19.198145 42.159095 0.000000
37.208548 20.627884 36.852320 0.000000
4.793274 16.998004 20.464018 0.000000
9.543083 7.834027 31.197469 0.000000
35.857005 21.505410 20.007332 0.000000
5.549600 17.771509 24.356134 0.000000
43.808915 0.000000 5.405299 0.000000
2.606939 14.289946 36.317610 0.000000
44.824153 9.055609 45.188615 0.000000
19.988143 24.784699 11.513827 0.000000
26.311488 0.000000 37.090033 0.000000
16.178061 4.003321 17.588052 0.000000
28.929833 24.307408 23.262031 0.000000
48.027361 1.985924 26.888828 0.000000
30.890097 0.000000 39.392819 0.000000
4.938336 17.148570 16.436980 0.000000
16.858074 3.610715 34.241018 0.000000
40.990701 17.451700 24.668462 0.000000
30.817505 0.000000 2.216928 0.000000
16.754987 24.152663 10.866500 0.000000
33.993966 22.493055 18.737737 0.000000
42.175613 16.129368 20.105411 0.000000
34.529922 21.376032 43.768339 0.000000
26.216078 0.000000 18.106418 0.000000
2.902200 14.215873 42.309014 1.000000
7.329907 9.111805 22.930746 0.000000
27.367766 3.785397 47.809045 0.000000
37.117970 7.273314 0.000000 0.000000
8.993876 20.599802 1.542943 0.000000
34.218520 4.366764 48.256997 0.000000
3.735476 11.187051 32.378799 0.000000
20.105732 1.735679 12.938112 0.000000
10.217210 7.444820 13.435286 0.000000
3.825044 15.857318 13.603099 0.000000
14.294149 22.922558 42.824820 0.000000
35.725859 14.612663 0.000000 0.000000
7.562341 8.977609 23.981927 0.000000
27.534407 14.909012 49.968469 0.000000
8.858592 8.229218 26.320226 0.000000
21.830280 6.984065 48.877807 0.000000
33.866819 22.548883 9.404883 0.000000
41.189731 17.193657 0.000000 1.000000
31.921697 23.362247 3.805333 0.000000
13.744179 23.163554 38.695456 0.000000
20.137356 1.717421 31.093598 0.000000
31.848579 10.624661 50.000000 0.000000
14.840127 23.571647 9.946631 0.000000
10.641756 7.199708 22.422298 0.000000
10.890311 7.056205 5.638036 0.000000
1.541934 12.627444 2.184424 1.000000
45.686717 10.703374 14.501532 0.000000
7.300288 15.274455 47.135419 0.000000
31.497700 22.554984 44.172026 0.000000
22.917368 22.206208 46.902809 0.000000
4.939472 17.149750 18.015097 0.000000
43.460698 0.000000 32.176396 0.000000
25.345746 19.546135 48.822562 0.000000
42.525745 0.000000 13.933585 0.000000
40.516647 0.000000 25.437466 0.000000
47.871625 3.046851 40.781693 0.000000
44.534015 12.869230 39.402180 0.000000
34.008060 22.470005 2.201618 0.000000
9.813874 21.132315 9.798824 0.000000
36.016772 21.401015 21.040947 0.000000
6.024242 9.865631 37.834105 0.000000
9.270300 7.991518 35.197321 0.000000
32.983008 22.956285 6.483952 0.000000
22.445654 0.384725 31.045309 1.000000
29.070201 1.765679 45.655682 0.000000
38.604996 0.000000 13.783170 0.000000
23.480918 0.000000 31.635743 1.000000
19.759615 24.751117 23.392291 0.000000
21.586542 6.108605 48.338519 0.000000
45.805856 0.000000 23.912964 0.000000
18.962604 2.395664 0.532164 1.000000
21.252668 1.073496 12.720075 0.000000
48.072954 1.067362 29.469469 1.000000
10.207532 21.387960 4.622917 0.000000
28.385851 0.000000 19.329831 0.000000
20.813622 24.885659 27.960956 0.000000
5.458677 10.192160 26.756092 0.000000
31.618901 23.480144 6.908012 0.000000
43.351926 0.000000 12.303992 0.000000
46.351311 9.197706 30.566184 0.000000
41.460044 16.966600 35.035003 0.000000
43.459751 14.518432 21.948826 0.000000
24.199478 5.280912 0.000000 0.000000
10.591425 21.638371 19.249615 0.000000
19.934156 17.640354 0.000000 0.000000
18.712762 24.596115 30.568437 0.000000
28.952703 24.259346 40.626970 0.000000
44.820631 12.398229 30.171539 0.000000
6.331610 18.529886 17.365407 0.000000
37.717551 20.284386 3.587578 0.000000
42.537696 9.156210 47.602339 0.000000
48.079424 0.890564 32.773318 1.000000
22.183173 0.536268 16.752444 1.000000
45.585762 10.544645 41.780828 0.000000
3.800556 15.828796 19.766705 0.000000
4.911939 17.115491 7.819702 0.000000
45.335695 0.000000 0.883914 1.000000
48.051875 1.430838 20.553297 1.000000
32.524014 0.000000 1.949407 0.000000
36.566668 21.033578 9.444065 0.000000
20.989551 20.498257 0.000000 0.000000
19.785761 1.920414 22.959286 0.000000
45.565323 10.942755 15.470409 0.000000
12.784227 5.962752 9.298960 0.000000
11.312964 11.885910 48.275488 0.000000
22.840196 16.453863 49.878374 0.000000
43.258744 14.799589 17.089873 0.000000
39.030934 3.954669 47.960291 0.000000
27.676794 18.909796 0.000000 0.000000
10.056456 18.489300 46.433638 0.000000
41.498091 16.927275 25.618146 0.000000
5.610860 15.607447 45.344140 0.000000
41.920493 16.444416 22.637231 0.000000
29.889350 4.087796 48.064042 0.000000
3.706178 11.204315 40.063884 0.000000
31.737478 23.440170 17.243626 0.000000
38.842959 0.000000 34.356459 0.000000
28.435735 24.423980 35.424928 0.000000
18.394647 2.723574 38.276280 0.000000
12.618579 22.677265 4.472839 0.000000
45.151239 0.000000 2.385709 0.000000
47.820738 3.779206 39.838516 0.000000
41.880336 2.362025 0.000000 0.000000
48.112011 0.000108 31.538642 1.000000
10.384245 11.774837 47.850182 0.000000
11.064174 21.891806 11.389353 0.000000
39.811855 18.603203 12.548026 0.000000
37.717159 19.807962 0.000000 1.000000
17.774988 24.420530 25.594301 0.000000
29.418844 5.078753 48.682948 0.000000
24.092974 0.183697 41.821202 0.000000
19.972686 1.812493 7.662284 0.000000
20.994718 24.494041 42.742113 0.000000
14.930066 23.612250 22.035650 0.000000
8.163375 20.021416 1.696578 0.000000
44.761566 12.501750 17.747163 0.000000
27.700585 0.000000 23.202749 0.000000
40.899944 0.000000 15.457832 0.000000
32.118979 23.293145 16.161017 0.000000
19.662666 24.730843 1.036192 1.000000
45.455654 10.234586 42.800690 0.000000
38.671722 0.000000 14.790464 0.000000
13.332839 22.993634 11.762707 0.000000
22.983950 0.073939 9.791341 1.000000
30.152214 10.241241 0.000000 0.000000
31.772036 23.428888 21.996427 0.000000
34.155190 13.246849 49.742879 0.000000
45.699469 10.696792 30.278499 0.000000
10.782143 7.118656 7.968306 0.000000
39.165099 18.003943 44.030134 0.000000
15.122659 4.612658 10.287147 0.000000
30.304720 0.000000 28.865157 0.000000
27.620127 19.353882 48.708399 0.000000
21.508764 15.374708 49.974050 0.000000
43.934227 1.598708 45.418710 0.000000
4.933576 10.495327 29.223219 0.000000
23.102704 24.999820 32.176011 0.000000
36.327813 5.874271 49.100845 0.000000
15.334018 5.696539 44.429699 0.000000
16.761282 21.663698 0.000000 0.000000
42.814827 15.340005 12.221818 0.000000
17.973895 2.966496 12.661155 0.000000
40.879741 17.566385 26.156330 0.000000
41.586782 0.277343 42.296634 0.000000
18.842992 23.531893 44.500260 0.000000
33.414343 1.728472 45.605334 0.000000
15.346194 4.483599 27.732436 0.000000
34.265013 12.252411 49.859110 0.000000
13.590680 14.475986 49.720367 0.000000
3.669736 15.686118 35.099836 0.000000
27.978003 5.811562 49.061210 0.000000
19.794957 21.398774 0.000000 0.000000
16.198335 24.015258 31.138458 0.000000
36.410856 21.151951 34.237260 0.000000
29.400432 0.000000 34.943842 0.000000
12.451997 18.921237 0.000000 0.000000
45.555641 0.000000 15.899861 0.000000
19.800185 24.762157 35.143153 0.000000
45.800438 0.000000 25.283462 0.000000
12.729255 6.596950 43.180780 0.000000
28.535053 24.400548 33.603848 0.000000
3.636029 15.100893 42.573467 0.000000
27.063457 24.651092 13.379820 0.000000
38.736089 10.058018 49.320288 0.000000
8.360126 8.517008 32.082799 0.000000
28.442707 24.213560 41.867874 0.000000
29.991026 24.023521 24.106651 0.000000
38.992986 0.000000 10.146573 0.000000
46.055720 6.372488 44.672039 0.000000
46.671268 8.339373 23.949378 0.000000
13.379281 23.021329 34.964190 0.000000
45.070328 11.917890 23.185830 0.000000
33.154745 14.981666 0.000000 0.000000
6.169653 17.448286 43.587600 0.000000
23.563420 0.000000 24.322236 1.000000
41.588753 13.410645 0.000000 0.000000
43.780719 2.451805 46.548456 0.000000
12.022102 6.402765 9.944340 0.000000
11.690743 22.227631 28.890029 0.000000
37.335646 0.000000 14.919891 0.000000
12.954096 22.843219 15.294176 0.000000
4.796829 10.574278 34.876871 0.000000
38.922775 19.342391 19.946900 0.000000
27.718911 0.000000 5.488837 0.000000
13.932357 23.222641 8.861070 0.000000
22.067431 24.954656 11.761615 0.000000
39.682711 0.000000 24.778250 0.000000
5.581764 17.790912 12.861373 0.000000
7.515667 9.004557 15.177600 0.000000
34.147751 0.000000 2.305216 0.000000
44.080690 13.601319 34.779860 0.000000
7.143836 19.202064 7.990494 0.000000
4.047540 16.131214 10.507664 0.000000
47.322819 6.125745 18.739023 0.000000
31.708994 0.000000 33.647886 0.000000
6.199673 18.406565 35.161887 0.000000
24.365977 24.936958 3.531455 0.000000
35.082124 5.092965 48.699174 0.000000
40.179360 18.256897 16.591477 0.000000
8.226877 8.593939 6.976196 0.000000
41.935825 16.433602 38.210979 0.000000
23.251800 0.000000 27.636396 1.000000
24.371078 11.335627 50.000000 0.000000
47.953704 0.000000 20.977330 1.000000
1.637058 12.398573 12.502499 1.000000
22.498259 0.354353 8.635208 1.000000
45.227451 11.609036 18.181900 0.000000
24.755215 7.031454 49.510920 0.000000
35.638473 21.361095 42.076879 0.000000
7.350600 12.123812 0.000000 0.000000
33.451338 21.693388 44.249583 0.000000
25.139525 0.000000 4.076323 0.000000
13.604099 5.489399 13.917798 0.000000
20.252206 9.861183 0.000000 0.000000
43.322467 14.714602 4.232241 0.000000
13.414375 23.026177 14.404090 0.000000
6.775730 9.431759 11.328026 0.000000
21.475570 0.944803 6.402767 0.000000
42.211827 16.084649 16.559464 0.000000
4.095091 16.199068 33.830833 0.000000
44.691218 0.000000 30.377206 0.000000
41.055434 0.000000 14.128437 0.000000
23.128897 14.971638 50.000000 0.000000
42.556537 15.517287 41.408010 0.000000
19.239019 14.523330 49.998207 0.000000
19.872522 1.870323 20.040920 0.000000
26.952333 24.674445 25.662861 0.000000
15.746627 23.875920 3.439646 0.000000
32.934467 13.217492 0.000000 0.000000
5.760114 17.922514 40.952382 0.000000
34.245987 17.732313 0.000000 0.000000
45.087980 11.877778 14.398524 0.000000
32.681747 9.889994 49.991944 0.000000
12.944858 20.029450 0.000000 0.000000
23.822525 24.982801 26.448711 0.000000
39.638500 0.000000 22.875054 0.000000
14.741846 4.832520 32.458175 0.000000
6.890613 19.018778 38.100289 0.000000
32.844973 23.019949 26.389509 0.000000
20.899597 15.785476 0.000000 0.000000
10.717712 21.705883 1.471673 0.000000
20.220800 24.821092 9.438728 0.000000
30.334343 0.676407 43.550955 0.000000
3.188503 15.082191 17.770552 0.000000
6.148850 9.793689 9.011766 0.000000
30.918264 23.749572 11.576271 0.000000
3.983169 16.057279 28.740246 0.000000
22.301650 0.572103 41.146993 0.000000
27.788313 4.723860 0.000000 0.000000
47.536548 5.331654 29.785430 0.000000
4.391483 10.808305 20.367596 0.000000
5.009796 10.451322 15.168499 0.000000
18.593529 24.572505 22.892615 0.000000
12.575396 22.661564 28.340667 0.000000
10.721843 19.635489 45.659693 0.000000
43.259511 0.000000 11.076190 0.000000
10.155753 21.355439 8.588743 0.000000
37.646940 20.334492 17.418051 0.000000
31.365434 23.584966 25.539979 0.000000
44.491585 12.933968 10.876738 0.000000
29.240474 0.000000 29.006804 0.000000
35.092676 21.924356 9.487065 0.000000
33.714801 22.630872 29.681471 0.000000
2.925325 11.654791 14.847283 0.000000
34.236858 22.351829 0.537229 1.000000
42.140408 0.000000 31.233428 0.000000
46.001072 7.564667 44.068594 0.000000
29.198439 0.426113 42.855391 0.000000
22.137070 24.949699 0.993815 1.000000
11.199669 6.877597 12.501908 0.000000
45.561329 10.946338 11.829700 0.000000
48.035763 1.761850 22.263285 0.000000
35.851954 0.000000 35.185618 0.000000
32.943472 22.969016 1.924588 0.000000
13.364917 23.003244 5.725879 0.000000
13.469004 5.567396 27.480133 0.000000
22.882077 24.995551 37.695323 0.000000
12.247868 22.491480 7.748386 0.000000
39.910654 0.000000 14.560170 0.000000
17.307429 3.351280 32.320488 0.000000
47.893806 3.254246 24.407219 0.000000
37.813940 20.219758 33.887501 0.000000
29.726112 14.240728 49.960003 0.000000
20.029200 1.779865 15.910547 0.000000
10.883679 10.257288 46.883569 0.000000
38.692438 0.000000 28.082614 0.000000
17.726329 15.076272 49.942998 0.000000
35.008788 21.978186 21.039961 0.000000
24.560403 0.000000 35.989265 0.000000
25.807868 24.849958 7.397695 0.000000
31.102415 22.060502 45.305144 0.000000
29.776354 0.000000 36.122765 0.000000
32.635881 0.000000 34.946548 0.000000
20.404404 3.173454 0.000000 1.000000
1.809305 12.299126 17.418897 1.000000
37.674371 20.313932 8.480370 0.000000
39.402499 7.307195 0.000000 0.000000
17.242193 3.388944 0.003340 1.000000
21.309192 24.921255 35.195956 0.000000
35.286670 19.261880 0.000000 0.000000
15.574591 23.831729 5.684894 0.000000
13.208780 20.368036 46.410216 0.000000
10.774602 7.123009 6.787027 0.000000
48.097654 0.344409 5.106557 1.000000
12.717834 22.730064 30.928277 0.000000
38.819789 0.000000 23.593997 0.000000
17.842909 3.042121 34.980206 0.000000
5.843252 9.970126 18.472674 0.000000
2.426210 11.942956 31.671686 1.000000
22.150435 0.555169 14.477403 0.000000
48.000786 2.169278 3.401969 0.000000
46.723616 8.191376 26.143249 0.000000
30.177005 0.000000 23.321362 0.000000
17.515304 3.692241 42.746347 0.000000
17.900604 18.620180 0.000000 0.000000
46.913603 7.645010 35.555600 0.000000
36.867121 0.000000 35.316066 0.000000
44.741008 0.363958 0.000000 1.000000
10.916508 21.817224 24.730518 0.000000
30.198030 22.892186 0.000000 0.000000
38.433295 19.736329 17.612030 0.000000
9.847943 21.154440 1.255695 0.000000
1.863546 13.152540 23.586726 1.000000
6.899748 9.360157 4.452903 0.000000
36.455471 9.621109 0.000000 0.000000
24.200154 24.947169 5.539126 0.000000
25.802617 24.850789 14.124011 0.000000
10.198128 21.402365 26.635203 0.000000
23.027299 24.998361 6.287041 0.000000
47.011429 7.302296 18.574609 0.000000
18.786888 4.362305 0.000000 0.000000
43.310965 0.000000 31.172402 0.000000
35.108224 0.000000 30.534005 0.000000
44.483025 12.951575 28.311398 0.000000
42.674631 15.540730 33.735566 0.000000
38.649138 0.000000 29.362570 0.000000
2.230699 13.734625 32.083560 1.000000
41.520443 6.687227 48.867172 0.000000
22.606534 0.291840 22.299263 1.000000
26.496532 13.739759 0.000000 0.000000
8.634656 8.358508 18.270547 0.000000
3.053044 14.900699 1.847226 0.000000
47.948513 2.823625 12.476882 0.000000
13.196410 18.263246 48.132324 0.000000
21.788735 19.858580 0.000000 0.000000
23.650352 23.824581 44.647059 0.000000
26.912850 16.402646 0.000000 0.000000
25.652508 0.000000 29.713365 0.000000
14.320303 16.108553 0.000000 0.000000
39.807821 13.600471 47.539195 0.000000
9.763701 21.099732 6.551846 0.000000
21.949297 14.176732 50.000000 0.000000
7.171956 9.202998 5.847639 0.000000
42.840305 15.308542 5.860280 0.000000
10.491970 21.579132 13.876398 0.000000
47.010779 7.278774 8.231522 0.000000
8.636702 8.357327 31.048153 0.000000
38.657417 0.000000 2.008788 0.000000
3.570304 11.282413 11.548133 0.000000
12.172445 22.467781 39.871639 0.000000
40.530681 0.000000 17.546145 0.000000
30.651326 0.000000 11.366385 0.000000
31.461084 0.000000 3.897835 0.000000
47.954690 2.774673 35.517584 0.000000
8.925607 20.555467 11.897881 0.000000
3.011914 11.604800 16.755360 0.000000
32.392921 15.282604 49.560495 0.000000
47.979218 0.000000 39.210611 1.000000
19.543871 12.860506 0.000000 0.000000
43.988817 0.629027 43.474113 0.000000
31.377960 12.149689 0.000000 0.000000
35.587624 18.230605 47.036197 0.000000
3.614802 15.604625 23.137028 0.000000
32.390931 20.279559 46.797208 0.000000
41.897281 16.476297 35.880824 0.000000
1.988697 13.331978 12.826898 1.000000
12.103502 15.323609 0.000000 0.000000
40.760041 16.279126 44.315620 0.000000
17.359427 24.321561 38.799533 0.000000
14.851099 4.826010 40.622185 0.000000
43.460936 0.000000 14.417735 0.000000
13.256850 22.975411 39.640258 0.000000
16.973103 3.544303 16.979137 0.000000
4.474060 16.661421 23.053179 0.000000
47.287372 6.296082 37.591101 0.000000
24.239650 24.963585 29.939939 0.000000
29.550826 24.138226 19.688185 0.000000
35.682277 0.000000 0.245921 1.000000
2.528717 11.883773 39.430077 1.000000
46.546267 8.685424 28.723510 0.000000
43.585220 14.337681 29.720992 0.000000
28.869484 0.000000 26.057807 0.000000
6.600058 9.533184 24.271224 0.000000
42.318164 11.240719 46.854543 0.000000
7.946883 8.755594 14.297543 0.000000
35.283365 19.549296 45.928015 0.000000
30.269552 0.000000 33.538448 0.000000
12.589752 8.765186 46.392476 0.000000
4.622260 10.675066 33.007756 0.000000
47.281151 0.000000 17.578108 1.000000
23.541085 24.990737 17.455433 0.000000
25.119629 24.905262 34.707551 0.000000
37.615733 15.710311 0.000000 0.000000
17.531429 17.375875 0.000000 0.000000
5.072801 10.414946 19.364143 0.000000
7.168069 9.205242 17.112592 0.000000
45.801525 0.000000 31.086358 0.000000
3.024624 11.597461 37.187692 0.000000
44.536923 12.864533 37.706205 0.000000
36.614828 0.000441 40.013765 0.000000
35.655361 0.000000 16.167728 0.000000
10.255728 7.422581 1.258616 1.000000
40.495479 17.948412 23.890564 0.000000
40.254710 0.000000 26.610918 0.000000
5.545476 10.142047 32.853722 0.000000
6.576511 9.546779 2.023285 0.000000
42.153582 0.000000 19.722265 0.000000
12.239296 22.493270 14.250214 0.000000
17.959163 2.975001 31.424789 0.000000
18.155440 9.269337 0.000000 0.000000
23.005812 24.997945 23.384249 0.000000
10.518922 21.595186 27.901934 0.000000
44.871038 0.000000 23.512707 0.000000
29.975624 19.589016 48.153028 0.000000
47.018700 7.107614 40.996300 0.000000
48.111345 0.018291 18.249317 1.000000
6.359646 18.556090 8.324102 0.000000
12.823717 5.939952 11.911215 0.000000
40.333680 18.108477 22.232428 0.000000
6.390822 12.246794 46.307409 0.000000
10.188754 21.398529 36.036480 0.000000
37.643374 20.339778 27.082289 0.000000
25.485939 0.000000 18.857999 0.000000
10.625473 21.657998 9.480833 0.000000
6.316397 9.879067 41.757397 0.000000
7.232077 9.168287 12.218286 0.000000
38.713615 19.492128 1.103787 1.000000
45.820746 10.444927 18.435674 0.000000
21.659060 22.915724 46.013409 0.000000
34.959207 0.000000 26.496220 0.000000
24.649673 24.938022 39.901177 0.000000
45.979438 10.098851 38.155112 0.000000
33.353113 6.456448 49.337076 0.000000
19.634758 24.731110 22.339780 0.000000
42.032007 16.306707 11.243338 0.000000
4.733212 16.849029 41.005877 0.000000
32.339475 14.375561 0.000000 0.000000
1.862342 12.268505 20.851087 1.000000
35.399525 17.479157 47.696767 0.000000
17.105228 3.468021 37.153521 0.000000
13.043334 22.882184 36.273200 0.000000
10.011471 7.563603 3.365564 0.000000
26.189218 20.296153 48.310345 0.000000
34.742301 22.124081 37.929907 0.000000
41.906637 16.461526 19.171866 0.000000
42.623440 0.382162 42.726883 0.000000
43.489186 14.476027 15.672466 0.000000
12.653745 20.986936 45.332232 0.000000
5.835026 9.974875 1.431598 1.000000
7.999608 8.725153 4.874360 0.000000
31.708443 13.103451 0.000000 0.000000
38.800738 19.447077 25.572519 0.000000
26.552358 1.566794 45.325261 0.000000
43.450118 4.750257 48.065349 0.000000
1.563262 12.441179 39.294993 1.000000
18.645033 15.594942 49.918215 0.000000
47.736808 2.867991 41.883370 0.000000
21.508500 24.900005 40.632012 0.000000
20.816243 24.787682 0.000000 1.000000
21.302990 24.920809 32.965005 0.000000
17.765952 16.196755 49.776889 0.000000
1.646001 12.393410 1.047763 1.000000
31.594547 23.022630 42.914809 0.000000
12.339263 6.219652 36.155165 0.000000
43.132046 14.968566 18.395112 0.000000
6.497712 18.677585 16.087279 0.000000
47.262860 6.369432 29.525482 0.000000
47.419061 5.755823 9.373982 0.000000
12.042395 22.387847 8.867924 0.000000
1.631586 12.401732 36.655980 1.000000
32.492977 23.160685 38.629121 0.000000
9.346607 20.828868 19.823683 0.000000
2.143642 13.602798 33.513524 1.000000
21.763519 24.939584 12.832728 0.000000
47.468715 5.575472 13.699649 0.000000
7.656801 18.064921 0.000000 1.000000
30.747222 23.802752 32.410914 0.000000
14.583107 23.485355 34.992093 0.000000
17.899650 3.009361 33.311631 0.000000
19.062562 24.650154 32.873113 0.000000
43.161837 14.928833 30.788009 0.000000
40.462409 17.958615 2.027975 0.000000
25.827146 2.548615 46.627546 0.000000
22.095575 0.586843 26.871704 1.000000
34.441538 2.498004 0.000000 0.000000
27.489817 0.000000 17.078652 0.000000
36.607816 7.406093 49.650484 0.000000
10.655293 7.239495 40.668583 0.000000
19.375116 24.685593 2.366585 0.000000
4.908890 17.114018 9.240070 0.000000
38.479078 19.702894 35.284276 0.000000
19.422099 2.130375 39.982563 0.000000
23.764283 19.711232 48.797366 0.000000
14.646397 4.887627 5.934214 0.000000
47.690410 0.000000 9.590036 1.000000
1.759634 12.327804 4.905218 1.000000
13.378868 5.619436 17.285815 0.000000
7.250674 19.292827 12.264641 0.000000
2.043625 12.163841 28.284539 1.000000
35.313251 0.000000 12.738606 0.000000
12.388375 19.738706 46.618450 0.000000
34.083779 1.320443 44.941344 0.000000
35.570477 0.003728 40.116291 0.000000
47.432666 0.000000 5.788673 1.000000
46.563063 8.603076 12.573331 0.000000
19.356247 6.155139 47.518264 0.000000
3.775204 15.797098 18.363383 0.000000
4.993411 10.510670 40.811112 0.000000
10.139173 21.360272 23.859267 0.000000
48.072354 1.083773 28.257265 1.000000
38.340483 15.415746 47.422575 0.000000
47.809055 3.844190 36.104116 0.000000
32.843461 23.011164 8.929446 0.000000
46.101458 9.803966 36.004623 0.000000
28.016633 0.000000 12.917229 0.000000
27.212274 0.000000 38.005992 0.000000
34.070957 0.000000 11.896492 0.000000
41.115006 17.310472 6.287608 0.000000
12.731629 6.735722 0.000000 1.000000
36.370474 20.099523 44.133631 0.000000
29.333589 24.195068 18.111400 0.000000
14.089508 5.209148 38.737120 0.000000
42.579619 11.176338 0.000000 0.000000
16.695356 3.704661 15.302548 0.000000
4.687973 16.885605 2.488102 0.000000
29.006570 24.278351 13.102985 0.000000
42.449266 9.396568 0.000000 0.000000
40.699602 2.329078 0.000000 0.000000
44.074548 0.198293 41.967769 0.000000
23.399006 0.000000 39.618880 1.000000
44.235503 0.000000 39.068726 0.000000
3.637017 15.652201 39.604735 0.000000
26.676604 5.476692 48.918188 0.000000
26.105185 6.285979 49.254356 0.000000
10.031224 21.280032 15.685992 0.000000
7.043539 19.144759 32.058080 0.000000
37.735940 14.464454 0.000000 0.000000
11.835810 9.461893 46.636945 0.000000
28.605252 21.729208 46.683348 0.000000
10.149418 21.361139 18.046751 0.000000
6.913006 19.009453 2.265171 0.000000
35.331199 8.200478 0.000000 0.000000
38.260748 19.872553 30.644036 0.000000
45.105729 11.855071 32.114198 0.000000
