4.733361 0.000000 4.045522
4.481324 0.000000 5.400266
4.303419 0.066116 5.984012
4.357811 0.034713 4.374830
4.244433 0.100171 3.700686
4.226249 0.110670 1.809725
4.441604 0.000000 7.166038
4.305893 0.064687 7.669370
4.395638 0.012873 3.215276
4.770323 0.000000 2.683394
9.381645 0.590929 7.826352
9.414597 0.000000 0.258926
3.135945 4.744878 0.000000
9.398165 0.000000 3.147385
9.406883 0.259168 3.584920
2.411144 4.461127 0.000000
0.419462 2.996184 0.571972
9.414620 0.090570 8.675820
8.929668 0.000000 0.111782
8.757332 2.477319 0.046760
3.555725 0.608930 0.000000
9.413138 0.110187 1.349341
6.457446 4.484300 0.000000
9.393187 0.495974 5.813984
0.621267 2.192007 4.617551
2.997691 0.819978 0.119482
9.417192 0.020295 5.188662
6.824822 4.375809 0.324758
4.173565 4.980037 0.000000
9.019384 1.900542 0.000000
9.324183 0.000000 4.667223
7.290041 4.085385 0.378091
9.400128 0.383934 2.748368
8.789921 0.000000 8.016461
0.134913 2.574730 1.474888
0.211661 2.692757 0.941862
0.356121 2.915453 4.640465
6.652705 0.016953 0.000000
9.374508 0.648425 6.962297
4.491902 4.993435 0.486615
5.032680 0.145971 0.000000
9.415306 0.071818 1.985541
0.479355 2.273940 0.821590
0.160162 2.458226 0.454876
5.953001 4.751916 0.069799
0.092114 2.506987 4.406128
1.632414 4.095127 0.000000
9.411671 0.000000 6.582950
9.417134 0.021880 7.862741
4.753457 4.987159 0.030138
0.309783 2.674101 0.000000
7.658816 0.000000 0.076633
5.673522 0.142679 0.000000
0.115296 2.544601 8.204710
0.569694 2.221783 6.555317
5.388052 4.899185 0.047123
4.522413 4.521884 0.000000
8.462621 0.000000 0.349252
9.378596 0.000000 6.029999
6.290075 0.362105 0.000000
9.358756 0.246344 9.314387
2.343007 1.253539 0.000000
0.325239 2.870571 6.430115
0.751948 2.116559 0.429046
1.866375 1.556937 0.000000
9.412945 0.136347 4.119746
9.285631 0.000000 0.791193
4.422235 0.000000 0.260463
0.089507 2.499019 8.996618
4.082008 0.285323 0.000000
8.930466 0.000000 5.790161
0.994251 1.986318 0.000000
0.564093 3.176580 0.113565
0.199772 2.435358 5.241831
9.387966 0.540011 2.246024
7.215250 0.244540 0.000000
9.394211 0.484218 1.684902
9.409086 0.241799 7.300022
7.691662 3.253248 0.000000
1.501188 2.088663 0.000000
1.045342 2.585666 0.000000
0.088176 2.500598 3.746544
2.095362 2.062910 0.000000
0.156401 2.611296 6.841324
1.078947 3.717800 0.005449
8.843586 1.077632 0.000000
0.103567 2.525570 7.372155
0.303191 2.837042 3.080539
2.920829 1.337381 0.000000
0.152560 2.462615 6.092245
0.140099 2.469810 2.748363
0.102133 2.523243 2.189123
