3.481886 1.341034 0.000000 0.472846
7.564578 3.885064 8.268058 0.104882
5.894551 0.000000 3.010523 0.097504
3.985032 4.978201 8.891322 0.115623
1.849057 4.288885 4.153030 0.155247
7.234647 1.073629 10.000000 0.189979
5.146772 3.674579 10.000000 0.149510
5.787064 0.226754 9.633572 0.235014
5.300445 0.000000 2.619661 0.181049
1.844719 3.280713 9.983899 0.222517
3.112067 4.822094 0.591081 0.651973
9.381645 0.590929 7.826352 0.557675
9.414597 0.000000 0.258926 0.000000
4.582007 0.264792 9.673719 0.105683
3.093251 0.764806 5.178578 0.057319
8.264030 3.191767 0.961599 0.526345
3.135945 4.744878 0.000000 0.738416
7.581241 0.679299 9.947027 0.177161
1.657001 1.594026 2.125824 0.592708
9.398165 0.000000 3.147385 0.496927
6.294069 0.669213 9.943557 0.202606
4.785518 4.985345 2.729681 0.068021
6.977562 4.290116 1.308392 0.522572
3.451175 0.558159 4.391131 0.059959
4.035614 4.982041 8.085299 0.114116
5.542521 4.868235 8.115483 0.134365
5.305060 4.917850 2.668454 0.101976
7.002908 4.279250 8.838196 0.173065
8.303265 3.142167 2.293855 0.214195
4.648877 0.486684 0.000000 0.798316
2.035120 1.375719 1.801008 0.589843
7.182141 0.021677 9.202900 0.255136
2.404035 1.162726 1.127083 0.611007
1.227211 1.842165 4.263740 0.809660
1.499880 1.684740 6.411717 0.688716
9.406883 0.259168 3.584920 0.472375
6.614415 4.490455 3.833993 0.007511
1.246976 1.830754 2.463633 0.777968
1.075297 3.716930 6.380095 0.878752
8.165401 2.462798 9.872071 0.145519
3.043092 0.793766 7.080962 0.088674
3.303787 0.643254 0.572985 0.413188
5.930624 4.763337 8.419846 0.160891
2.630064 4.665056 0.712653 0.751412
8.951465 2.105452 6.290502 0.278791
1.388599 1.748988 5.024800 0.583862
1.138299 3.772311 7.027924 0.816611
3.011472 4.794055 6.049993 0.004023
2.411144 4.461127 0.000000 0.795246
6.692402 3.639954 9.954732 0.126136
6.786769 4.398373 2.721208 0.045702
2.314202 4.535174 4.024107 0.025683
6.233025 2.455878 10.000000 0.125105
1.846833 4.287639 0.630064 0.803859
1.947612 1.426241 0.507300 0.387602
1.897266 4.315895 2.166663 0.240187
1.491313 2.395458 9.919818 0.257336
8.375546 3.055079 8.480704 0.131118
0.419462 2.996184 0.571972 0.397074
6.817488 0.000000 7.684545 0.269270
7.700679 3.766850 5.062252 0.009843
1.073449 1.930940 1.966736 0.767332
3.679793 4.225900 9.955271 0.063097
5.454079 4.887030 6.695017 0.016514
1.632338 1.608265 2.697839 0.500445
3.998279 0.242288 6.404007 0.070789
3.520348 0.518222 8.900595 0.161145
1.319545 1.788856 6.866354 1.000000
5.940855 4.759513 5.522556 0.004160
8.918417 2.164860 0.572958 0.408700
1.808644 1.815009 9.679258 0.226874
6.051986 3.020325 0.000000 0.625475
3.669512 1.308007 9.966636 0.138661
4.934086 4.972329 7.483092 0.050821
5.330810 4.913524 5.289696 0.010833
8.073677 3.407316 6.963721 0.022217
9.414620 0.090570 8.675820 0.502919
4.972361 4.966959 5.906622 0.004353
9.248225 1.277396 7.485888 0.800953
7.213254 3.208395 9.963352 0.089493
8.295565 0.925653 0.000000 0.493745
4.374136 1.278837 0.000000 0.703280
0.668008 2.165021 6.033709 0.435893
9.179580 1.521985 7.921238 0.716636
6.966763 1.359370 0.000000 0.773902
3.672568 4.898829 9.277972 0.085312
4.142834 4.990287 3.007938 0.027606
5.038478 4.958727 4.660415 0.003863
3.123631 1.474712 9.926629 0.344929
1.953886 1.422619 6.342050 0.445975
1.915056 1.445038 7.130936 0.550085
8.930558 2.143352 2.888385 0.310691
8.929668 0.000000 0.111782 0.519006
0.568714 3.186178 5.451217 0.650600
8.757332 2.477319 0.046760 0.361742
3.585582 0.480559 2.813975 0.150419
1.105435 3.743422 7.554067 0.618835
4.733361 0.000000 4.045522 0.147718
0.520356 2.250268 8.898443 0.486930
3.555725 0.608930 0.000000 0.296729
9.413138 0.110187 1.349341 0.275909
1.214016 3.834017 3.996995 0.536578
4.983927 0.000000 4.514259 0.115836
6.457446 4.484300 0.000000 0.854357
3.243214 4.859444 1.250473 0.679201
1.330050 3.930421 4.516077 0.537288
6.882583 0.000000 3.483849 0.156389
5.775948 4.810245 8.968014 0.151097
8.794569 0.050798 9.314416 0.432848
5.648406 4.843714 2.061849 0.279932
8.650981 0.000000 7.492206 0.593014
6.313243 4.626044 8.048669 0.126758
7.252675 4.115439 4.727769 0.006213
3.198012 4.848750 7.329521 0.035418
8.122091 3.351791 1.625281 0.469973
3.290453 4.869677 5.639628 0.004358
9.393187 0.495974 5.813984 0.515640
2.879424 4.753706 5.058685 0.003971
3.685738 0.422734 8.394784 0.130302
1.953887 1.422619 4.124652 0.352955
0.431850 3.017857 8.446615 0.524883
4.481324 0.000000 5.400266 0.098593
4.717575 3.722579 0.000000 0.912681
7.757455 0.028435 9.233522 0.236545
1.145250 3.778377 5.823589 0.738879
0.621267 2.192007 4.617551 0.491805
4.970977 4.963903 9.063111 0.132300
9.316198 1.003357 0.462863 0.385047
9.002608 1.741771 9.420556 0.341016
2.997691 0.819978 0.119482 0.507431
7.681164 3.782971 3.974233 0.009005
1.512540 1.677430 0.914730 0.451970
4.274245 0.742400 9.899174 0.128781
9.417192 0.020295 5.188662 0.481914
1.675174 1.583534 4.538281 0.502052
0.768539 3.413475 8.554774 0.699911
5.020262 4.958117 0.924735 0.902057
2.447942 1.137376 4.092546 0.175117
8.296876 1.050810 9.998471 0.406188
3.593143 4.930293 6.042198 0.003618
2.043874 4.398034 8.105591 0.159310
6.824822 4.375809 0.324758 0.439570
5.076058 4.138548 0.000000 0.860531
4.314958 0.085058 9.204460 0.099716
2.032563 4.391697 8.661724 0.178800
4.173565 4.980037 0.000000 0.662552
3.922231 0.286195 0.730129 0.527065
6.607365 4.493703 5.708777 0.004429
2.341529 4.547499 3.430866 0.018479
7.847164 2.091917 9.998456 0.182049
8.258224 3.192561 9.045381 0.113167
6.746834 0.000000 5.027910 0.108268
8.758922 0.000000 4.484420 0.575957
2.815281 0.925293 8.773789 0.194588
0.642748 2.179605 1.908389 0.821175
7.486665 0.000000 3.480003 0.482844
5.374758 0.000000 4.911657 0.064592
1.945355 4.342838 6.211271 0.129024
6.021854 0.000000 1.709854 0.435219
4.079410 0.195447 2.865656 0.133837
6.881123 4.346335 5.280872 0.005874
9.019384 1.900542 0.000000 0.426537
2.289096 4.523849 1.261522 0.874739
9.381952 0.588456 6.428759 0.769242
2.245297 1.255327 9.018922 0.212492
5.242448 4.931181 1.711324 0.462379
8.735138 0.000000 1.978595 0.378385
7.676880 0.000000 8.640100 0.376579
1.556894 4.094563 3.698531 0.346516
3.305681 0.642160 5.772606 0.061539
9.324183 0.000000 4.667223 0.425270
7.290041 4.085385 0.378091 0.398571
6.583239 3.254005 0.000000 0.589567
3.059876 0.784075 3.871314 0.042443
6.772898 4.406692 4.361228 0.010736
5.552561 0.000000 7.756931 0.105161
2.904400 2.093670 10.000000 0.177081
5.154883 0.000000 1.999380 0.333764
8.846539 2.316096 7.006741 0.273675
5.184350 4.940069 3.316354 0.003272
9.016060 1.963792 8.709180 0.375411
1.015062 1.964650 1.148865 0.525924
7.685482 1.162208 0.000000 0.611282
9.400128 0.383934 2.748368 0.538942
5.568685 4.861166 3.698555 0.004352
2.407236 1.160878 2.179548 0.364951
3.122497 4.316425 9.856916 0.095414
2.822132 0.968653 9.279912 0.265221
5.869873 1.089538 10.000000 0.139970
2.809158 0.928828 4.795761 0.075100
3.719807 2.596593 0.000000 0.638198
7.454262 3.962854 9.075825 0.137290
8.219678 0.000000 1.947065 0.484821
1.329825 1.782921 1.532656 0.711394
3.297236 0.647036 1.236663 0.621158
4.303419 0.066116 5.984012 0.136187
3.614388 4.933067 3.166005 0.023876
4.066852 4.984394 3.539045 0.004299
6.007390 0.005512 9.101116 0.138460
3.895619 1.940260 0.000000 0.660122
1.648864 4.156332 2.810988 0.203226
2.944441 0.850722 8.079985 0.173425
6.862143 0.611125 9.919045 0.356071
0.554010 3.168047 9.000679 0.541283
2.130963 1.320384 8.116399 0.393817
8.789921 0.000000 8.016461 0.479270
7.716030 3.751384 2.223229 0.240782
9.031672 1.925608 7.609515 0.555733
5.433181 4.890359 4.208180 0.003668
5.858016 0.000000 8.593365 0.139275
2.417193 1.155129 0.593046 0.329158
0.134913 2.574730 1.474888 0.429840
3.732132 4.952525 4.856076 0.018940
9.139608 1.637205 4.604673 0.606087
5.678139 4.327080 0.000000 0.767060
0.627676 2.188307 2.769104 0.756718
2.207135 4.482321 1.775399 0.350244
3.152403 0.730655 2.723832 0.240908
1.743742 1.543946 7.843687 0.580240
4.594784 0.000000 8.087720 0.100948
2.717843 3.197412 0.000000 0.731894
9.350136 0.806352 5.321222 0.693794
0.211661 2.692757 0.941862 0.473824
8.263722 3.193697 6.340783 0.007192
1.341140 3.939221 3.264608 0.408200
5.048729 4.958403 8.185650 0.125569
4.805246 4.982364 1.398443 0.886127
6.729861 4.429610 0.851638 0.605970
0.732957 3.376199 6.706663 0.907424
0.356121 2.915453 4.640465 0.654234
4.610912 0.000000 0.733762 0.444898
9.120408 1.686098 2.729689 0.557751
6.652705 0.016953 0.000000 0.760686
7.368327 4.035539 7.779997 0.083022
8.753890 2.486092 7.676087 0.243169
4.581124 0.000000 2.190768 0.296096
5.711942 4.829653 3.042843 0.011029
8.508364 2.677760 9.455799 0.133693
7.949768 3.535585 7.552111 0.052585
2.916892 0.866627 6.539852 0.083556
6.105235 4.605808 9.412860 0.421153
2.377264 3.223914 10.000000 0.137572
8.075824 0.566991 9.900114 0.326941
5.565603 0.000000 5.400447 0.070832
9.374508 0.648425 6.962297 0.482049
1.750436 3.170421 0.000000 0.528277
3.706005 0.814915 9.758592 0.126439
4.491902 4.993435 0.486615 0.681687
8.568447 0.000000 8.790822 0.581834
5.906325 3.984276 9.963792 0.191918
7.698389 3.766155 1.502438 0.524750
5.032680 0.145971 0.000000 0.496327
6.755690 1.226172 10.000000 0.162645
1.584020 4.112195 1.295296 0.685661
3.401712 0.586717 7.495685 0.117354
7.299589 4.079884 1.825679 0.356792
1.198206 3.824587 8.094393 0.563459
2.648684 4.495135 9.547183 0.107229
2.891555 4.757796 6.570504 0.003570
9.266715 0.524528 0.000000 0.269920
1.220528 1.846024 7.895890 0.859790
9.415306 0.071818 1.985541 0.230514
0.479355 2.273940 0.821590 0.361868
2.235784 1.259866 2.673614 0.197777
0.160162 2.458226 0.454876 0.386782
9.179651 1.521781 5.447715 0.666779
5.953001 4.751916 0.069799 0.789578
8.159971 2.631268 0.000000 0.420021
0.669413 2.164210 5.477230 0.467341
8.786964 0.917428 9.883643 0.349583
0.092114 2.506987 4.406128 0.566648
8.985405 2.031536 3.446959 0.384167
9.393504 0.492333 0.746069 0.643831
4.190223 4.993824 4.158167 0.004002
1.353722 1.769124 0.447354 0.297002
2.851914 0.904143 1.280592 0.662302
4.831445 0.033276 9.255239 0.084273
8.585754 1.471029 9.904036 0.276046
5.445557 0.769618 9.970401 0.111513
6.461115 0.000000 6.954654 0.069085
1.632414 4.095127 0.000000 0.675694
5.254365 2.989983 10.000000 0.119926
3.588174 0.479063 6.587785 0.075469
9.411671 0.000000 6.582950 0.524383
9.417134 0.021880 7.862741 0.429581
4.753457 4.987159 0.030138 0.702994
7.040227 4.255871 3.694518 0.007308
0.930488 2.013479 3.223566 0.774177
1.956564 1.421073 1.076930 0.541503
3.317357 4.875505 6.821146 0.013682
3.256923 1.036345 9.725809 0.329732
9.328733 0.932682 8.323704 0.692387
3.842338 4.962416 0.828586 0.778441
8.353178 3.079762 4.593430 0.008119
9.200254 1.456963 3.197710 0.659900
5.731636 4.823684 4.854995 0.004139
2.387507 4.567643 4.956980 0.014941
6.353088 0.000000 3.399199 0.064309
8.287482 3.164413 5.675926 0.019847
7.246096 0.000000 3.930208 0.320589
2.625523 1.606835 9.862752 0.136766
4.253596 4.546820 9.832049 0.064241
1.220766 1.845886 3.692785 0.681040
5.778843 0.000000 2.468710 0.166016
0.309783 2.674101 0.000000 0.460389
8.076296 1.488381 0.000000 0.485987
6.872655 4.351391 6.199343 0.005976
7.698629 0.625145 0.000000 0.604874
4.998295 2.267654 10.000000 0.173740
5.923461 0.000000 3.692028 0.064277
5.521810 4.872392 7.311971 0.047457
2.838289 0.912009 7.591817 0.154213
1.433159 1.723261 7.398150 0.826586
6.832349 4.374477 8.187244 0.131103
7.271909 4.098621 0.905608 0.492836
7.241785 0.000000 5.990329 0.293894
3.786548 4.959441 5.465864 0.003542
9.076839 1.802936 1.869918 0.574816
7.658816 0.000000 0.076633 0.498699
5.673522 0.142679 0.000000 0.629897
7.676030 3.785035 0.801060 0.438326
4.758113 1.770593 0.000000 0.736481
0.115296 2.544601 8.204710 0.502429
7.526638 0.000000 1.564901 0.661449
0.569694 2.221783 6.555317 0.500303
0.632418 2.997907 9.551916 0.447085
1.223125 3.845575 8.693302 0.418194
5.553118 3.204757 0.000000 0.542484
1.151691 3.779735 1.437715 0.744816
5.388052 4.899185 0.047123 0.718336
4.793316 4.113861 9.989542 0.093762
1.385049 3.973408 0.556488 0.724800
8.016942 0.000000 4.414842 0.716866
6.992220 4.284321 6.684288 0.014585
2.459384 4.598383 6.300631 0.005192
4.304088 1.296416 10.000000 0.153090
4.593652 4.993985 3.410037 0.002946
2.212662 2.934748 0.000000 0.519887
1.248387 1.829939 5.932326 0.804986
3.760363 0.379649 2.344075 0.291285
6.196641 0.000000 2.190843 0.220968
7.411079 2.467643 10.000000 0.118636
4.744229 0.937365 9.994527 0.126200
7.095337 4.222540 3.148835 0.011995
2.665495 4.680651 1.988440 0.242921
2.095262 3.554592 0.000000 0.608813
9.283826 1.140054 6.826799 0.933951
4.522413 4.521884 0.000000 0.613489
8.462621 0.000000 0.349252 0.331260
2.701422 0.991029 2.918189 0.091754
2.393678 1.168705 4.974670 0.140146
7.165382 0.000000 7.178988 0.324794
0.993298 3.640448 0.597336 0.742254
4.901887 0.000000 5.109127 0.058261
8.041164 3.436892 0.541110 0.346592
4.189739 4.993734 5.829874 0.003490
5.306095 0.000000 1.367108 0.614892
7.448687 0.000000 4.471206 0.463046
8.014908 3.468124 5.992567 0.005895
7.322144 0.000000 6.544337 0.364927
8.470825 2.925168 7.960272 0.158418
6.592608 1.915645 0.000000 0.600306
6.572771 0.001088 9.024930 0.186287
1.753978 3.762208 9.789150 0.179840
2.556008 4.635746 2.607913 0.097156
3.338068 0.623462 3.226979 0.079533
9.378596 0.000000 6.029999 0.560863
4.385809 4.975186 9.194401 0.101558
9.211386 1.410608 0.158555 0.426053
8.624730 2.698250 8.884239 0.183598
3.194225 4.847784 4.568709 0.006963
6.891248 2.464113 10.000000 0.142200
9.211880 1.235930 9.296843 0.388685
6.290075 0.362105 0.000000 0.790259
9.294611 1.091303 2.735628 0.612296
6.243416 4.654045 4.584534 0.004873
5.280201 0.000000 3.227506 0.100245
8.907333 0.000000 1.377832 0.345182
6.459633 0.000000 5.652954 0.039436
2.670107 4.682683 4.459468 0.014931
4.330896 4.996437 7.597300 0.067858
7.670304 3.793744 5.758530 0.004266
7.677742 2.169168 0.000000 0.561790
9.358756 0.246344 9.314387 0.740914
8.454881 2.946977 6.903916 0.042214
0.664506 3.302151 4.176903 0.767446
2.093614 4.425381 7.469730 0.099839
7.688709 0.000000 7.118790 0.630863
6.988864 4.284168 2.235950 0.188448
3.732667 4.952593 2.292493 0.154507
2.297360 1.224315 3.533076 0.155506
1.548001 4.087984 1.832556 0.443087
7.551631 1.672337 0.000000 0.653420
7.751250 3.721680 3.378938 0.017079
3.675962 0.428378 3.710597 0.076793
6.373022 0.000000 2.744994 0.090219
6.738619 0.000000 2.376423 0.238632
6.543781 4.522997 8.773478 0.161957
6.777782 0.000000 6.427776 0.137182
2.435451 3.935786 0.000000 0.714552
2.941528 3.736200 9.998436 0.111317
4.915207 0.000000 7.618606 0.095184
6.429518 3.015476 10.000000 0.131140
8.306667 3.139717 4.019305 0.023897
4.096318 4.986671 6.411832 0.003237
5.418879 0.000000 0.637678 0.694743
8.636403 2.673139 0.651825 0.429489
8.108862 0.000000 1.417317 0.405592
5.613304 0.713700 0.000000 0.650775
1.942937 4.341483 5.391734 0.107712
2.343007 1.253539 0.000000 0.275543
5.757518 0.000000 6.611914 0.059318
0.325239 2.870571 6.430115 0.500747
1.174621 1.872528 8.694873 0.577532
3.606457 0.468507 4.892457 0.066591
6.052920 4.721969 3.475366 0.004002
0.735678 3.379108 7.657742 0.957199
6.952566 0.000000 5.535139 0.157413
6.552667 4.517761 1.541831 0.457024
9.192556 1.484197 0.660699 0.456833
1.767210 1.530397 5.827858 0.519023
5.215818 2.111348 0.000000 0.523578
8.863711 0.000000 3.923677 0.574036
9.011800 1.973308 8.120964 0.488565
3.775317 0.371016 7.056026 0.080229
2.701125 4.694836 7.117234 0.021291
2.238351 1.258383 5.795005 0.323851
9.160615 1.573896 1.212633 0.504731
2.539800 2.340911 0.000000 0.472812
3.504469 4.915627 8.620830 0.137403
5.913992 0.000000 7.134086 0.079005
5.294484 3.643570 0.000000 0.985486
3.767668 0.375432 7.819204 0.120369
8.456523 1.986009 9.861137 0.201611
5.103787 0.375204 9.779013 0.084767
3.234520 2.820676 0.000000 0.647691
0.808491 3.454211 3.687356 0.812474
6.192260 4.674559 0.681859 0.668010
5.470836 1.298189 0.000000 0.813261
4.596485 3.630666 10.000000 0.111695
3.148070 4.745348 9.401164 0.108436
8.817564 2.372967 5.608127 0.145198
3.632495 4.936765 4.109537 0.004003
4.692592 4.992171 6.373514 0.003675
7.057175 4.246476 7.409397 0.067385
0.570737 3.187911 3.326078 0.778714
1.743248 1.549622 9.094263 0.291870
9.287428 1.122489 4.690139 0.718375
7.622885 2.740649 0.000000 0.456685
5.972326 3.224348 10.000000 0.164114
0.637054 2.182892 7.057061 0.476658
0.549637 2.233363 8.126345 0.522730
0.890279 3.536317 1.901736 0.836741
1.540915 2.686888 0.000000 0.404803
6.004873 0.000000 4.684021 0.057589
8.270772 0.123469 9.480145 0.400433
0.838586 2.066538 7.576649 0.827546
3.844526 4.966462 7.447218 0.045997
8.000138 0.000000 3.060017 0.715048
3.830959 4.961845 1.625362 0.491873
7.054016 0.000000 0.442497 0.598437
2.913266 0.868721 2.217439 0.288131
4.755144 4.783452 9.600062 0.115056
5.206217 0.000000 7.037174 0.076671
2.497930 4.615224 8.945921 0.127568
9.294980 1.087332 1.213659 0.283172
4.993020 1.422950 10.000000 0.122653
1.552395 4.094059 7.592593 0.385797
7.106726 0.000000 2.903173 0.257599
3.244960 0.677217 1.812690 0.498347
2.993780 4.787920 4.020834 0.006606
0.924358 2.017017 5.054438 0.714328
1.910822 1.447483 5.028762 0.435084
0.751948 2.116559 0.429046 0.272573
5.934504 0.000000 0.425564 0.702759
7.027969 0.000000 8.649172 0.297469
1.866375 1.556937 0.000000 0.251280
4.444925 4.996704 8.414630 0.118778
8.579610 2.769309 5.912611 0.079326
4.739829 0.000000 1.237201 0.699196
0.372484 2.937996 3.877005 0.727052
9.412945 0.136347 4.119746 0.829288
3.688597 3.079119 10.000000 0.139104
8.488688 0.000000 2.506390 0.537763
9.285631 0.000000 0.791193 0.257507
8.611682 2.713806 2.288472 0.277113
1.465280 4.034769 6.164152 0.373697
8.683572 2.598072 3.539329 0.118502
8.173957 0.000000 8.201288 0.681719
7.954276 3.530844 4.348158 0.007827
1.445812 2.922021 9.984666 0.292252
8.241766 0.000000 4.873999 0.720101
6.227931 4.660255 6.071593 0.006261
0.896106 3.535518 9.098073 0.475398
1.253613 1.854829 9.214106 0.435609
4.954813 4.969593 6.873792 0.019001
5.828425 4.793794 2.556711 0.104081
4.422235 0.000000 0.260463 0.382533
5.304947 4.920585 8.678931 0.150583
8.480598 2.911800 5.264155 0.055976
4.645602 0.000000 6.346087 0.144279
6.449059 0.000000 8.459850 0.182179
9.172363 0.627840 9.600920 0.663547
3.112317 3.045982 10.000000 0.129416
7.656961 0.000000 0.779742 0.602799
8.926451 0.000000 7.057493 0.529014
2.323918 1.385076 9.529086 0.148678
5.418716 0.000000 8.944996 0.101837
4.426629 2.378010 0.000000 0.513656
4.196579 2.974070 0.000000 0.667939
3.453160 3.462252 0.000000 0.717382
2.542182 4.632256 5.713389 0.008919
3.053050 2.343557 0.000000 0.537283
2.402028 1.163884 8.533617 0.278091
0.906212 3.553531 3.172029 0.824998
8.437781 2.966224 1.738313 0.456992
2.369643 2.046976 9.965230 0.136951
7.796908 0.000000 5.728671 0.542147
5.787105 2.478125 0.000000 0.439356
7.336301 4.054731 2.692391 0.073942
4.110405 3.953969 10.000000 0.086539
0.089507 2.499019 8.996618 0.435695
8.065646 1.639498 9.999914 0.221279
3.604080 4.929102 0.376492 0.727631
0.429863 3.010968 2.462948 0.762885
1.212696 3.831310 2.239944 0.594189
8.783286 2.437355 4.825331 0.105266
9.221348 1.380975 8.557141 0.638729
4.082008 0.285323 0.000000 0.371205
6.454157 1.405241 0.000000 0.776029
0.845538 3.492738 4.651354 0.784295
8.430070 2.980915 7.408067 0.079001
5.278108 0.000000 8.419194 0.105970
1.375578 1.756505 3.159833 0.752256
5.775413 2.750073 10.000000 0.128461
3.613266 3.711822 10.000000 0.084131
1.615077 4.136261 8.329412 0.319882
6.819579 3.825931 0.000000 0.440785
8.963691 2.072737 1.153681 0.589667
4.122036 3.549984 0.000000 0.678075
6.323932 4.618783 2.699701 0.058630
5.558539 4.727782 9.495177 0.121342
7.021127 2.921094 0.000000 0.510935
2.254024 1.249334 7.553794 0.341493
7.714457 3.755255 6.515580 0.014468
7.233147 4.129908 5.737157 0.005470
1.633900 1.607363 8.435959 0.453767
8.800750 2.405971 4.116547 0.156984
5.754840 4.816646 6.248244 0.007040
5.534403 4.867898 0.672307 0.885821
9.096100 1.758179 5.886469 0.561060
2.517451 1.734243 0.000000 0.393275
3.357676 4.883706 3.675756 0.004978
4.357811 0.034713 4.374830 0.078874
5.378286 0.000000 4.179876 0.072506
1.156915 3.785278 2.738689 0.551025
3.812525 4.962742 6.863544 0.012266
3.930164 0.281615 5.379108 0.056597
6.256350 0.000000 6.240693 0.029349
7.987959 3.496073 8.360406 0.111077
0.770437 3.413551 1.257579 0.733750
8.634881 2.676534 2.870451 0.118907
8.820836 2.228439 9.340771 0.257485
3.017203 3.818213 0.000000 0.667550
2.318850 1.211907 6.930461 0.298231
6.642254 1.849344 10.000000 0.153891
2.101529 4.426309 2.853646 0.086574
8.483641 0.000000 3.381719 0.726139
5.178992 0.000000 6.462644 0.072703
8.269958 0.000000 5.566333 0.724465
6.127847 0.000000 8.024738 0.125400
7.316469 0.000000 4.987936 0.297999
6.627135 4.484595 7.506042 0.066992
7.701221 3.762605 0.055676 0.312109
4.457792 4.994487 1.802739 0.456806
6.269401 4.643625 5.100035 0.005080
4.743756 3.004029 10.000000 0.130704
8.930466 0.000000 5.790161 0.448253
8.031849 3.198198 9.558456 0.112014
8.727483 0.560541 0.000000 0.422750
9.058360 1.857323 4.055563 0.422617
4.025785 1.773886 10.000000 0.171580
9.349719 0.800170 3.397847 0.673267
0.994251 1.986318 0.000000 0.293461
4.270372 4.996139 2.458942 0.122142
0.564093 3.176580 0.113565 0.301405
5.261514 2.656960 0.000000 0.441681
7.749155 0.000000 2.551419 0.593096
0.199772 2.435358 5.241831 0.355832
9.387966 0.540011 2.246024 0.321957
6.657311 0.000000 1.774235 0.437775
2.794770 4.727038 1.468497 0.450952
4.244433 0.100171 3.700686 0.085225
9.389682 0.526185 4.561781 0.636073
5.003995 0.947374 0.000000 0.635353
7.215250 0.244540 0.000000 0.910030
1.536716 4.083096 6.774278 0.477715
8.172893 0.000000 6.993846 0.844438
7.456529 3.969573 6.890117 0.019795
7.361957 3.739600 9.642464 0.141064
0.631266 2.186235 4.030641 0.672410
4.226249 0.110670 1.809725 0.481162
5.949056 1.107444 0.000000 0.719786
9.394211 0.484218 1.684902 0.215838
8.346355 2.138437 0.000000 0.470664
1.313506 3.854180 9.307131 0.354990
4.964270 4.966492 3.969286 0.004963
1.001561 3.650365 5.196490 0.715398
4.532623 1.992339 10.000000 0.148940
9.409086 0.241799 7.300022 0.563362
5.785799 0.000000 6.039376 0.052301
2.669715 2.715106 10.000000 0.157892
6.539570 0.000000 0.645533 0.707398
9.065334 1.842366 7.007661 0.475952
4.441604 0.000000 7.166038 0.217135
3.935920 0.278292 4.198531 0.070228
6.623164 0.000000 4.070380 0.112874
6.114291 0.000000 5.177820 0.041334
7.691662 3.253248 0.000000 0.399201
8.909521 0.000000 5.033237 0.630019
7.241059 4.123132 4.142619 0.017591
8.982036 2.036780 2.316475 0.490338
6.146232 4.690928 2.097166 0.219359
5.575139 1.548103 10.000000 0.132649
1.501188 2.088663 0.000000 0.234513
1.943885 4.342014 6.911980 0.118887
1.972550 1.411844 3.092710 0.230696
4.269185 4.068040 0.000000 0.787704
4.747425 0.000000 8.696031 0.093571
6.165524 4.684216 7.516012 0.061341
5.950894 4.755291 4.066573 0.005237
3.890824 0.374416 9.342984 0.217299
0.776260 3.420570 2.687474 0.876716
1.819389 1.500271 3.606682 0.327794
7.749547 3.722669 2.730150 0.072459
2.830781 4.738511 3.472792 0.008779
5.991211 4.744200 6.911230 0.024119
2.089942 4.325358 9.397724 0.136417
4.305893 0.064687 7.669370 0.096200
2.457287 3.976481 9.898502 0.084196
8.060643 3.419678 4.883196 0.012247
8.365121 3.062781 3.361203 0.012289
1.045342 2.585666 0.000000 0.312166
3.534686 4.920680 8.022474 0.122641
0.088176 2.500598 3.746544 0.623415
6.654574 0.721441 0.000000 0.670041
2.477941 1.120056 6.438784 0.264689
9.293481 1.101158 6.013733 0.783844
2.732810 0.972907 5.806348 0.111094
9.252058 1.258398 3.719747 0.809377
6.928454 0.000000 1.249202 0.793473
0.488978 2.268384 3.495540 0.627659
9.251493 1.258143 2.247682 0.607904
1.434733 4.012299 5.285364 0.361307
4.395638 0.012873 3.215276 0.231674
8.010689 0.000000 6.256486 0.842287
0.859065 2.180384 9.450682 0.418075
4.324889 4.996400 6.876188 0.018372
6.486130 0.143101 9.514333 0.134662
3.732092 4.564911 0.000000 0.633553
0.668407 3.306735 6.008064 0.804214
2.465406 4.602341 8.333111 0.140555
6.358004 2.422355 0.000000 0.509835
5.494434 2.157786 10.000000 0.153719
8.825736 2.356920 1.728512 0.561863
8.273222 3.178887 0.177057 0.492229
6.594928 4.142005 9.729574 0.321096
3.392363 1.922324 10.000000 0.157197
0.321153 2.864632 5.831468 0.639643
3.640572 2.363076 10.000000 0.186276
9.012684 0.000000 2.465901 0.294930
1.867610 4.299280 4.809719 0.127118
7.982057 0.000000 3.591097 0.677644
6.560077 4.515489 3.174662 0.007346
0.881143 2.546516 9.825409 0.507064
0.451185 3.037083 1.884339 0.822015
6.017102 0.000000 0.970789 0.672480
2.095362 2.062910 0.000000 0.231354
6.938462 0.000000 4.468187 0.153530
0.156401 2.611296 6.841324 0.452022
1.080527 3.268856 9.735019 0.404432
7.099055 1.971394 0.000000 0.651868
2.604097 4.656820 7.663571 0.076353
4.936236 4.968306 2.120750 0.261773
6.291513 1.455346 10.000000 0.150225
6.772359 4.353290 9.305094 0.120883
3.713772 0.406549 1.431482 0.627042
8.829513 2.349514 8.413942 0.347702
8.500515 0.000000 6.128028 0.752810
3.208522 4.851433 2.546842 0.067816
7.140389 1.743271 10.000000 0.170509
6.150114 4.689089 1.227440 0.729751
8.780052 0.000000 0.814351 0.294524
3.367097 4.884216 1.813626 0.391878
7.256954 0.000000 7.965378 0.400378
2.130203 2.536719 10.000000 0.215377
7.176250 0.000000 2.021613 0.463017
8.999887 1.999924 5.018183 0.289116
5.598233 4.854307 1.204602 0.892519
1.078947 3.717800 0.005449 0.461415
7.857130 3.627657 8.955185 0.115058
4.421538 4.996436 4.742557 0.003823
8.791953 0.000000 6.568250 0.686784
8.843586 1.077632 0.000000 0.375908
4.871486 0.000000 5.873203 0.067040
6.309271 0.000000 7.520520 0.118693
0.523710 3.131613 7.145408 0.790473
8.156195 0.000000 0.827095 0.482938
6.299997 3.872234 0.000000 0.544216
4.173023 4.992620 1.212498 0.884827
0.103567 2.525570 7.372155 0.447090
0.303191 2.837042 3.080539 0.753217
4.076087 2.737964 10.000000 0.211184
9.355549 0.779995 8.907716 0.592718
5.695375 1.858117 0.000000 0.528504
9.185035 1.506262 6.318956 0.798957
9.358205 0.747168 3.990952 0.597249
5.261554 4.390242 9.880056 0.107880
6.461286 4.561003 6.648907 0.013807
2.920829 1.337381 0.000000 0.353388
8.641728 2.668158 6.415487 0.079069
8.149677 0.261260 0.000000 0.514163
8.714875 2.546492 1.265299 0.637390
8.037576 3.442731 3.072111 0.043858
0.152560 2.462615 6.092245 0.436740
3.005618 4.792855 8.169228 0.123854
3.848667 0.328667 5.890967 0.062801
0.140099 2.469810 2.748363 0.707232
4.622180 4.994763 5.388022 0.004406
2.997006 4.790434 8.886949 0.111336
2.940523 4.771484 2.961480 0.018144
4.200391 3.285900 10.000000 0.110982
4.801556 3.002246 0.000000 0.520832
0.415392 2.991843 1.365206 0.730184
9.284772 1.127860 1.714070 0.563929
4.160817 0.148447 8.559763 0.094043
8.764196 0.325961 9.738263 0.404860
6.403968 0.000000 1.299822 0.677636
6.104823 1.932752 10.000000 0.155825
8.869675 0.000000 2.977543 0.499846
4.022801 0.228131 4.737341 0.059276
1.606785 4.131084 8.867532 0.263538
0.389681 2.961130 7.714859 0.451733
0.102133 2.523243 2.189123 0.715276
4.770323 0.000000 2.683394 0.170747
7.871160 0.000000 7.761402 0.637926
3.470401 4.041545 0.000000 0.652615
