-4.866416 -15.830673 -26.411524 -0.265829 -0.964016 -0.002919 
-6.171290 -15.384044 -24.166075 -0.393561 -0.919298 -0.000027 
-6.209809 -15.366081 -19.166763 -0.402352 -0.915478 0.003655 
-6.128559 -15.403971 -14.471070 -0.388317 -0.921521 0.002976 
-5.529852 -15.652906 -8.724497 -0.324430 -0.945868 0.008935 
-7.575352 -14.729319 -10.252517 -0.433196 -0.901297 -0.002211 
-7.085206 -14.957877 -14.381120 -0.422619 -0.906308 -0.000000 
-5.805899 -15.554427 -26.782322 -0.355011 -0.934843 -0.005944 
-7.724445 -14.659794 -16.944363 -0.438624 -0.898668 0.002022 
-7.414578 -14.804289 -26.521595 -0.422867 -0.906192 -0.000087 
-8.451753 -14.286791 -24.117428 -0.514979 -0.857191 -0.004410 
-8.920695 -13.958432 -14.250833 -0.559351 -0.828929 -0.001860 
-9.728723 -13.392644 -14.050604 -0.573576 -0.819152 0.000001 
-9.702209 -13.411213 -9.042898 -0.573576 -0.819152 0.000001 
-8.311272 -14.385156 -26.843552 -0.500895 -0.865505 -0.002218 
-9.928569 -13.252712 -16.826784 -0.573742 -0.819036 0.000073 
-9.699558 -13.413066 -26.733717 -0.573577 -0.819152 -0.000001 
-10.781503 -12.624832 -24.325138 -0.654190 -0.756314 -0.005040 
-11.169868 -12.236466 -18.945621 -0.688701 -0.725043 -0.002094 
-10.421518 -12.907545 -9.347001 -0.614925 -0.788585 -0.000835 
-10.574348 -12.800530 -26.873493 -0.631128 -0.775678 -0.001278 
-12.487590 -10.918746 -16.649519 -0.741126 -0.671365 -0.001265 
-12.190664 -11.215671 -26.278294 -0.716530 -0.697552 -0.002242 
-12.707012 -10.699325 -24.504978 -0.764128 -0.645063 0.001390 
-12.633677 -10.772658 -18.486925 -0.755765 -0.654839 -0.002470 
-13.041741 -10.229860 -19.144512 -0.802381 -0.596811 -0.001072 
-13.377577 -9.750238 -8.849547 -0.819152 -0.573576 -0.000001 
-13.843743 -9.084484 -8.701336 -0.819152 -0.573577 -0.000001 
-13.902723 -9.000252 -14.768688 -0.820768 -0.571261 -0.001208 
-14.316510 -8.409305 -8.891265 -0.859137 -0.511699 0.006954 
-14.419900 -8.238905 -9.845637 -0.869995 -0.493055 -0.002293 
-12.834938 -10.525208 -26.723135 -0.777453 -0.628917 -0.005475 
-14.029527 -8.819159 -16.868309 -0.835845 -0.548960 -0.002407 
-13.809052 -9.134031 -26.473942 -0.819152 -0.573577 0.000000 
-14.248015 -8.507126 -26.815994 -0.850299 -0.526292 -0.003057 
-14.538862 -7.983788 -24.208387 -0.884750 -0.466063 -0.001525 
-14.672023 -7.698222 -19.368404 -0.893785 -0.448488 -0.002604 
-14.723844 -7.587093 -14.299169 -0.902956 -0.429733 0.000288 
-14.859596 -7.295973 -10.169766 -0.906308 -0.422618 -0.000000 
-15.086452 -6.809477 -13.861397 -0.906308 -0.422618 0.000000 
-15.459829 -6.008769 -9.120406 -0.924853 -0.380313 -0.003000 
-14.590012 -7.874096 -26.401577 -0.892538 -0.450967 0.002030 
-15.371225 -6.198778 -17.043381 -0.920166 -0.391460 0.007359 
-15.304751 -6.341334 -26.369448 -0.912719 -0.408584 -0.001792 
-15.554260 -5.806261 -18.746130 -0.934633 -0.355557 -0.006352 
-15.762230 -5.121850 -19.449280 -0.959171 -0.282825 0.000782 
-15.820122 -4.905799 -26.133318 -0.965926 -0.258819 -0.000001 
-15.915928 -4.548243 -26.834084 -0.965926 -0.258819 0.000000 
-16.117130 -3.797342 -26.708448 -0.965926 -0.258819 0.000001 
-16.492859 -1.384629 -26.713478 -0.996195 -0.087155 0.000000 
-16.583847 -0.344635 -17.158764 -0.999024 -0.044134 0.001946 
-16.551315 0.716505 -24.493719 -0.996702 0.081139 0.001513 
-16.516148 1.118454 -18.304657 -0.996195 0.087156 0.000000 
-16.512951 1.155012 -26.060646 -0.996195 0.087156 -0.000000 
-16.369144 2.798732 -16.370174 -0.986500 0.163752 -0.001785 
-16.321712 3.033837 -24.256126 -0.981381 0.192064 -0.001447 
-16.197521 3.497314 -18.823662 -0.969057 0.246820 -0.002990 
-16.094009 3.883631 -8.938065 -0.965926 0.258819 -0.000001 
-15.838983 4.835406 -8.978623 -0.963410 0.268033 -0.000107 
-15.760256 5.129219 -14.686365 -0.957126 0.289669 -0.000753 
-15.706935 5.328218 -9.910286 -0.952838 0.303478 0.001181 
-15.787321 5.028206 -16.879787 -0.963523 0.267594 -0.004163 
-15.755018 5.148762 -26.713974 -0.958305 0.285747 0.000302 
-15.406772 6.122549 -24.844730 -0.919774 0.392448 -0.000511 
-15.429679 6.073428 -19.454960 -0.924414 0.381384 0.002226 
-15.393519 6.150970 -14.482880 -0.920952 0.389675 0.000715 
-15.540250 5.836305 -9.005515 -0.933160 0.359462 0.000340 
-14.683694 7.673195 -8.961332 -0.898103 0.439776 0.002905 
-14.810781 7.400657 -10.063825 -0.904655 0.426141 -0.001850 
-14.956294 7.088601 -14.389379 -0.906308 0.422618 -0.000000 
-14.636327 7.774776 -17.047146 -0.895540 0.444981 -0.000022 
-14.691865 7.655671 -25.876595 -0.895423 0.445217 -0.000120 
-14.566599 7.924308 -26.856380 -0.887710 0.460403 0.000687 
-14.290324 8.446703 -24.362381 -0.856431 0.516248 -0.003737 
-14.037976 8.807095 -19.381859 -0.834635 0.550803 -0.000360 
-13.958652 8.920382 -14.251566 -0.828971 0.559288 -0.001966 
-13.392808 9.728491 -14.050231 -0.819152 0.573577 -0.000000 
-13.552830 9.499954 -9.007796 -0.819152 0.573576 0.000000 
-14.180732 8.603218 -26.436016 -0.847901 0.530152 0.001989 
-13.246279 9.937756 -16.824419 -0.818959 0.573852 0.000121 
-13.138686 10.091414 -26.475864 -0.812254 0.583285 0.004680 
-12.593001 10.813334 -24.395493 -0.753349 0.657589 -0.006498 
-12.217303 11.189032 -18.976761 -0.724037 0.689759 -0.001830 
-12.864832 10.482517 -9.177719 -0.780129 0.625612 0.002957 
-12.718413 10.687923 -26.951542 -0.767231 0.641358 -0.004157 
-10.934227 12.472108 -16.679264 -0.674249 0.738500 -0.002672 
-11.432257 11.974078 -26.787701 -0.705202 0.709006 -0.000064 
-10.671356 12.732604 -24.469034 -0.641889 0.766798 0.000417 
-10.726344 12.679991 -18.526215 -0.648761 0.760992 -0.000489 
-10.116152 13.121364 -19.163626 -0.587469 0.809237 -0.004059 
-9.745979 13.380559 -8.862053 -0.573577 0.819152 -0.000001 
-9.069327 13.854358 -8.721893 -0.573577 0.819152 -0.000000 
-8.660314 14.140752 -14.630850 -0.536509 0.843881 0.004758 
-8.351575 14.356933 -8.949455 -0.504868 0.863190 0.003294 
-8.155890 14.458609 -9.970181 -0.485736 0.874083 -0.006309 
-10.640824 12.753982 -26.683031 -0.640025 0.768338 -0.004972 
-8.830089 14.021873 -16.838356 -0.555030 0.831829 -0.001341 
-9.038172 13.876173 -26.447124 -0.568782 0.822485 -0.002230 
-8.204062 14.436148 -26.811848 -0.489951 0.871735 -0.005208 
-7.884033 14.585379 -24.138271 -0.456249 0.889851 -0.001491 
-7.736034 14.654391 -19.340874 -0.449977 0.893035 -0.002925 
-7.695575 14.673257 -14.729406 -0.443430 0.896302 0.003701 
-7.343401 14.837480 -10.287657 -0.422619 0.906308 0.000000 
-7.038125 14.979832 -14.020010 -0.422619 0.906308 -0.000000 
-6.147342 15.395209 -9.059515 -0.391370 0.920226 -0.003830 
-6.759202 15.109896 -17.181637 -0.422618 0.906308 0.000000 
-5.937266 15.493171 -16.465666 -0.369210 0.929345 0.001182 
-6.599720 15.184264 -26.593224 -0.422618 0.906308 0.000000 
-5.713033 15.597732 -27.002769 -0.344057 0.938921 0.007231 
-5.940679 15.491579 -18.464771 -0.370424 0.928862 -0.000876 
-5.205155 15.739910 -19.002018 -0.291259 0.956644 0.000835 
-5.123735 15.761725 -8.971046 -0.285814 0.958282 -0.002281 
-4.255874 15.994268 -8.842224 -0.258819 0.965926 0.000000 
-3.539643 16.186180 -14.653597 -0.233162 0.972438 -0.000138 
-2.550984 16.390818 -9.732735 -0.142610 0.989779 -0.000741 
-4.959710 15.805676 -26.417418 -0.272533 0.962141 0.003264 
-3.584018 16.174292 -16.859934 -0.251079 0.967960 -0.003416 
-4.259775 15.993223 -25.720125 -0.258819 0.965926 0.000000 
-3.201017 16.276917 -26.940569 -0.212725 0.977106 -0.003338 
-2.705656 16.377283 -24.251787 -0.157433 0.987530 -0.000510 
-2.252113 16.416965 -19.219112 -0.117197 0.993106 0.002471 
-2.405358 16.403557 -14.489523 -0.127932 0.991780 0.002548 
-2.557720 16.390228 -8.741306 -0.145565 0.989347 0.001731 
-1.459574 16.486303 -10.025465 -0.087156 0.996195 0.000001 
-1.357546 16.495230 -14.435541 -0.087157 0.996195 -0.000000 
-2.522405 16.393316 -26.548569 -0.132066 0.991240 0.001482 
-0.619448 16.559805 -17.015778 -0.066907 0.997759 -0.000740 
-0.896751 16.535543 -26.751984 -0.087156 0.996195 0.000000 
-0.008993 16.613213 -26.387871 -0.001824 0.999995 0.002683 
0.878555 16.537138 -19.204163 0.084482 0.996424 -0.001128 
0.494045 16.570778 -14.537276 0.057638 0.998336 0.001550 
1.178554 16.510891 -14.081782 0.087157 0.996195 0.000000 
2.320301 16.410999 -9.050885 0.116503 0.993190 -0.000672 
3.991371 11.631363 34.529964 0.000000 0.000000 1.000000 
2.725075 11.483087 34.529964 0.000000 0.000000 1.000000 
-5.407461 10.859422 34.529964 0.000000 0.000000 1.000000 
-8.800077 11.440347 34.529964 0.000000 0.000000 1.000000 
-7.000941 7.254951 34.529964 0.000000 0.000000 1.000000 
11.578660 8.984901 34.529964 0.000000 0.000000 1.000000 
7.331779 6.920057 34.529964 0.000000 0.000000 1.000000 
-11.632364 3.993493 34.529964 0.000000 0.000000 1.000000 
-11.484089 2.726941 34.529964 0.000000 0.000000 1.000000 
-11.098547 -5.763963 34.529964 0.000000 0.000000 1.000000 
13.802629 -1.573719 34.529964 0.000000 0.000000 1.000000 
-11.466278 -8.739312 34.529964 0.000000 0.000000 1.000000 
-3.989413 -11.623872 34.529964 0.000000 0.000000 1.000000 
-2.724365 -11.465702 34.529964 0.000000 0.000000 1.000000 
-22.681656 2.246875 -5.940035 0.000000 0.000000 -1.000000 
24.918707 -0.520094 -5.940035 0.000000 0.000000 -1.000000 
-20.300827 -16.252939 -5.940035 0.000000 0.000000 -1.000000 
-18.503504 -14.200253 -5.940035 0.000000 0.000000 -1.000000 
-32.418545 2.413371 -5.940035 0.000000 0.000000 -1.000000 
-23.705597 2.115001 -5.940035 0.000000 0.000000 -1.000000 
-24.049442 1.186136 -5.940035 0.000000 0.000000 -1.000000 
-13.986235 19.362925 -5.940035 0.000000 0.000000 -1.000000 
0.506620 24.960018 -5.940035 0.000000 0.000000 -1.000000 
19.370049 13.992098 -5.940035 0.000000 0.000000 -1.000000 
15.309302 -19.377964 -5.940035 0.000000 0.000000 -1.000000 
14.771615 -18.479738 -5.940035 0.000000 0.000000 -1.000000 
14.283716 -19.404102 -5.940035 0.000000 0.000000 -1.000000 
-1.311875 -23.603907 -5.940035 0.000000 0.000000 -1.000000 
-1.467042 -21.772417 -5.940035 0.000000 0.000000 -1.000000 
-23.016941 -26.373684 -5.940035 0.000000 0.000000 -1.000000 
-24.278263 -24.578024 -5.940035 0.000000 0.000000 -1.000000 
-20.362839 -20.976110 -5.940035 0.000000 0.000000 -1.000000 
-15.183438 -13.219478 -5.940035 0.000000 0.000000 -1.000000 
-25.200413 -24.626781 -5.940035 0.000000 0.000000 -1.000000 
-24.033762 -2.145562 -5.940035 0.000000 0.000000 -1.000000 
-26.652689 -2.227081 -5.940035 0.000000 0.000000 -1.000000 
23.356245 5.733215 -5.940035 0.000000 0.000000 -1.000000 
23.033258 3.865068 -5.940035 0.000000 0.000000 -1.000000 
22.591932 5.591374 -5.940035 0.000000 0.000000 -1.000000 
-33.898087 -1.691724 -5.940035 0.000000 0.000000 -1.000000 
-31.146729 -0.969111 -5.940035 0.000000 0.000000 -1.000000 
-34.054596 -0.678795 -5.940035 0.000000 0.000000 -1.000000 
-33.318287 -0.079661 -5.940035 0.000000 0.000000 -1.000000 
-5.732419 23.347157 -5.940035 0.000000 0.000000 -1.000000 
-3.885727 22.988525 -5.940035 0.000000 0.000000 -1.000000 
-5.569894 22.557709 -5.940035 0.000000 0.000000 -1.000000 
27.729134 -4.896803 -5.940035 0.000000 0.000000 -1.000000 
30.883158 4.420603 -5.940035 0.000000 0.000000 -1.000000 
31.157757 2.890777 -5.940035 0.000000 0.000000 -1.000000 
31.595913 3.803809 -5.940035 0.000000 0.000000 -1.000000 
-1.828233 -31.658871 -5.940035 0.000000 0.000000 -1.000000 
-2.160893 -32.650993 -5.940035 0.000000 0.000000 -1.000000 
-19.799110 24.997154 -5.940035 0.000000 0.000000 -1.000000 
-19.721066 23.983429 -5.940035 0.000000 0.000000 -1.000000 
4.896663 27.729095 -5.940035 0.000000 0.000000 -1.000000 
-3.984794 31.223372 -5.940035 0.000000 0.000000 -1.000000 
24.997154 19.799110 -5.940035 0.000000 0.000000 -1.000000 
23.983429 19.721066 -5.940035 0.000000 0.000000 -1.000000 
16.356728 -19.227337 -5.940035 0.000000 0.000000 -1.000000 
19.799366 -24.997208 -5.940035 0.000000 0.000000 -1.000000 
19.721882 -23.984066 -5.940035 0.000000 0.000000 -1.000000 
0.845912 -31.060535 -5.940035 0.000000 0.000000 -1.000000 
1.001975 -34.686531 -5.940035 0.000000 0.000000 -1.000000 
0.822577 -35.428123 -5.940035 0.000000 0.000000 -1.000000 
-4.321968 16.238995 16.145136 -0.982536 0.041362 0.181418 
-2.263648 28.449610 10.261738 -0.491497 0.767893 0.410817 
-2.791362 33.129131 0.263533 -0.511990 0.774475 0.371556 
-2.786250 33.571224 -0.666152 -0.509350 0.780628 0.362192 
-2.594587 35.744240 -5.164166 -0.512704 0.782271 0.353817 
-4.000320 23.656769 11.571100 -0.918794 0.303033 0.252959 
-3.224836 21.006283 17.126049 -0.912790 0.292209 0.285357 
-1.998003 20.008217 21.723835 -0.876726 0.347919 0.332121 
-0.790788 30.901325 5.182076 -0.026745 0.903587 0.427568 
0.127509 26.761658 14.082812 0.004114 0.907939 0.419081 
-21.686422 25.268164 -1.558465 0.249838 0.917231 0.310270 
-14.890440 19.874043 10.970117 0.404189 0.904673 0.134896 
-3.962212 12.184642 32.105984 0.785599 0.594299 -0.172169 
-13.547951 19.912189 6.367906 0.514759 0.846989 0.132789 
-20.170048 23.890705 1.638525 0.271989 0.925176 0.264708 
-15.735946 21.579052 3.838862 0.439964 0.877599 0.190401 
-14.194744 20.748642 3.758080 0.508994 0.844830 0.164884 
-11.532900 19.236374 1.531937 0.642826 0.756596 0.119734 
-14.981855 22.957018 -4.129604 0.539054 0.819757 0.193441 
-14.053266 22.306404 -4.022796 0.575399 0.797413 0.181791 
-12.257801 20.856319 -3.885210 0.643822 0.749776 0.152739 
-11.335033 19.596592 -1.711617 0.666822 0.731466 0.142499 
-10.748057 18.955542 -1.154088 0.690919 0.712092 0.124725 
-23.995481 20.130487 4.329879 -0.905695 0.181056 0.383321 
-12.277443 15.954756 29.096653 -0.563569 0.740369 0.366393 
-23.941435 24.186663 -1.420639 -0.630708 0.644474 0.432274 
-21.457785 22.813131 4.297585 -0.625621 0.653498 0.426073 
-20.108801 21.187353 8.782768 -0.624660 0.655428 0.424516 
-14.535744 8.422741 16.143641 -0.723780 -0.665813 0.181206 
-17.047428 12.470842 17.226439 -0.851467 -0.441261 0.283360 
-15.565723 12.805888 21.789986 -0.867869 -0.368599 0.333074 
-24.582209 3.523935 10.970114 -0.353895 0.925506 0.134896 
-23.659632 4.500209 6.368252 -0.234915 0.962904 0.132782 
-26.379734 4.132039 3.846028 -0.309391 0.931740 0.190098 
-24.698273 4.634988 3.767435 -0.237160 0.957439 0.164517 
-21.746449 5.446929 1.539586 -0.080340 0.989592 0.119383 
-27.700039 5.445126 -4.078774 -0.228524 0.951209 0.207314 
-25.628685 5.838109 -3.973453 -0.154385 0.971343 0.180715 
-24.075344 5.581296 -1.335139 -0.132489 0.977119 0.166389 
-22.794876 6.193617 -4.428311 -0.048563 0.988292 0.144639 
-21.872496 5.838888 -1.692289 -0.045764 0.988769 0.142271 
-20.993961 5.802372 -1.146294 -0.014543 0.992142 0.124267 
-31.036503 -2.709189 4.684657 -0.770084 -0.505564 0.389071 
-19.887806 2.832612 29.209343 -0.920381 0.133664 0.367468 
-33.974434 -0.222589 -1.282633 -0.902113 -0.002620 0.431492 
-31.316950 1.001619 4.268958 -0.904430 0.020006 0.426153 
-29.201124 0.769483 8.781734 -0.905156 0.021768 0.424522 
-16.234097 -4.322546 16.143641 -0.040989 -0.982591 0.181206 
-20.872543 -3.236219 17.226204 -0.290056 -0.914099 0.283357 
-20.061766 -1.951496 21.789984 -0.353038 -0.874314 0.333075 
-19.874043 -14.890440 10.970118 -0.904673 0.404189 0.134897 
-12.158219 -3.944221 32.098396 -0.592079 0.787901 -0.169273 
-19.912006 -13.547750 6.368253 -0.846986 0.514766 0.132783 
-21.575081 -15.731492 3.846030 -0.877612 0.440068 0.190098 
-20.741739 -14.186879 3.767447 -0.844708 0.509316 0.164517 
-19.228577 -11.525519 1.539978 -0.756558 0.642936 0.119385 
-23.436937 -15.736391 -4.078370 -0.834193 0.511019 0.207318 
-22.254065 -13.999245 -3.972181 -0.796140 0.577455 0.180853 
-20.968025 -13.073897 -1.335974 -0.784524 0.597374 0.166335 
-20.575510 -11.812217 -4.486494 -0.734266 0.663129 0.145301 
-19.597864 -11.338914 -1.700630 -0.731550 0.666785 0.142241 
-18.949581 -10.743440 -1.147867 -0.711860 0.691221 0.124376 
-20.030436 -23.861809 4.684657 -0.186992 -0.902075 0.388966 
-15.954756 -12.277443 29.096653 -0.740369 -0.563569 0.366393 
-23.857964 -24.187716 -1.280039 -0.635522 -0.640388 0.431294 
-22.852678 -21.436172 4.268956 -0.653675 -0.625382 0.426153 
-21.192411 -20.104206 8.781739 -0.655434 -0.624650 0.424522 
-8.422741 -14.535744 16.143641 0.665813 -0.723780 0.181206 
-12.470842 -17.047428 17.226439 0.441261 -0.851467 0.283360 
-12.805888 -15.565723 21.789986 0.368599 -0.867869 0.333074 
-16.930666 -24.380711 -4.097586 0.472464 -0.874896 0.106461 
-3.523935 -24.582209 10.970114 -0.925506 -0.353895 0.134896 
-4.500212 -23.659630 6.368237 -0.962904 -0.234914 0.132783 
-4.133176 -26.380142 3.839855 -0.931745 -0.309297 0.190230 
-4.635198 -24.698484 3.765939 -0.957438 -0.237145 0.164547 
-5.446925 -21.746489 1.539602 -0.989592 -0.080342 0.119384 
-5.456129 -27.745821 -4.178975 -0.951290 -0.228702 0.206745 
-5.764521 -27.105589 -5.040401 -0.961419 -0.195471 0.193556 
-5.583303 -24.072536 -1.344361 -0.977126 -0.132294 0.166501 
-6.081086 -23.411118 -3.890464 -0.985480 -0.074541 0.152555 
-5.838587 -21.875397 -1.691358 -0.988777 -0.045839 0.142193 
-5.802565 -20.995363 -1.147575 -0.992133 -0.014588 0.124333 
2.709189 -31.036503 4.684657 0.505561 -0.770085 0.389073 
-2.832612 -19.887806 29.209343 -0.133664 -0.920381 0.367468 
0.224196 -33.982960 -1.300278 0.002736 -0.901995 0.431738 
-1.001619 -31.316950 4.268958 -0.020007 -0.904430 0.426152 
-0.769483 -29.201124 8.781734 -0.021768 -0.905156 0.424522 
4.322546 -16.234097 16.143641 0.982591 -0.040989 0.181206 
3.236219 -20.872543 17.226204 0.914099 -0.290056 0.283357 
1.951496 -20.061766 21.789984 0.874314 -0.353038 0.333075 
21.688400 -25.269989 -1.562169 -0.249733 -0.917209 0.310420 
14.890673 -19.874146 10.970116 -0.404165 -0.904681 0.134917 
4.001146 -12.226035 32.065784 -0.783608 -0.597034 -0.171781 
13.562367 -19.921183 6.370051 -0.513938 -0.847451 0.133022 
15.754709 -21.584261 3.860673 -0.438989 -0.878043 0.190602 
14.207603 -20.755066 3.767173 -0.508443 -0.845089 0.165259 
11.363198 -19.104158 1.412434 -0.648755 -0.751768 0.118158 
15.019154 -22.978065 -4.114162 -0.536583 -0.821137 0.194455 
14.691813 -21.950676 -0.701892 -0.526726 -0.830554 0.180939 
14.099849 -22.330349 -3.970193 -0.573041 -0.799030 0.182141 
13.204944 -20.999668 -1.025728 -0.589000 -0.791477 0.163227 
11.963736 -20.740196 -4.629485 -0.661378 -0.735745 0.145801 
11.428483 -19.629276 -1.457445 -0.664713 -0.734113 0.138688 
10.704837 -18.891375 -1.049787 -0.692690 -0.711347 0.119024 
23.995481 -20.130487 4.329879 0.905695 -0.181056 0.383321 
12.284776 -15.945871 29.103333 0.563820 -0.739959 0.366834 
23.941427 -24.186666 -1.420635 0.630708 -0.644473 0.432275 
21.457483 -22.812880 4.298411 0.625622 -0.653499 0.426072 
20.108812 -21.187307 8.782824 0.624660 -0.655428 0.424517 
14.535744 -8.422741 16.143641 0.723780 0.665813 0.181206 
17.047426 -12.470831 17.226433 0.851467 0.441261 0.283361 
15.558122 -12.775199 21.775497 0.867375 0.370274 0.332502 
24.582209 -3.523934 10.970115 0.353895 -0.925506 0.134896 
23.659632 -4.500209 6.368253 0.234914 -0.962904 0.132782 
26.379734 -4.132039 3.846028 0.309390 -0.931740 0.190098 
24.698271 -4.634989 3.767436 0.237160 -0.957439 0.164517 
21.746456 -5.446928 1.539595 0.080340 -0.989592 0.119384 
27.699537 -5.445107 -4.078168 0.228509 -0.951214 0.207307 
25.610126 -5.839242 -3.965722 0.153963 -0.971490 0.180283 
24.076468 -5.580823 -1.333312 0.132563 -0.977109 0.166388 
22.859898 -6.182128 -4.373183 0.050474 -0.988117 0.145177 
21.874146 -5.838605 -1.691012 0.045812 -0.988769 0.142260 
20.994307 -5.802347 -1.146038 0.014565 -0.992141 0.124271 
31.036503 2.709189 4.684657 0.770086 0.505566 0.389064 
19.887806 -2.832612 29.209343 0.920381 -0.133664 0.367468 
34.001579 0.226438 -1.338876 0.902083 0.003008 0.431553 
31.330517 -0.951429 4.242081 0.904388 -0.019805 0.426250 
29.201143 -0.769358 8.781698 0.905156 -0.021767 0.424522 
16.234097 4.322546 16.143641 0.040989 0.982591 0.181206 
20.872543 3.236219 17.226204 0.290056 0.914099 0.283357 
20.061768 1.951513 21.789936 0.353037 0.874315 0.333074 
25.268164 21.686422 -1.558465 0.917231 -0.249838 0.310270 
19.874043 14.890440 10.970117 0.904673 -0.404189 0.134896 
12.226035 4.001146 32.065784 0.597034 -0.783608 -0.171781 
19.912189 13.547951 6.367906 0.846989 -0.514759 0.132789 
23.890705 20.170048 1.638525 0.925176 -0.271989 0.264708 
21.579052 15.735946 3.838862 0.877599 -0.439964 0.190401 
20.748642 14.194744 3.758080 0.844830 -0.508994 0.164884 
19.236372 11.532900 1.531937 0.756596 -0.642826 0.119735 
22.957018 14.981855 -4.129604 0.819757 -0.539054 0.193441 
22.306404 14.053266 -4.022796 0.797413 -0.575399 0.181791 
20.856319 12.257801 -3.885210 0.749776 -0.643822 0.152739 
19.596592 11.335033 -1.711617 0.731466 -0.666822 0.142499 
18.955542 10.748057 -1.154088 0.712092 -0.690919 0.124725 
20.130487 23.995481 4.329879 0.181056 0.905695 0.383321 
15.954756 12.277443 29.096653 0.740369 0.563569 0.366393 
24.186663 23.941435 -1.420639 0.644474 0.630708 0.432274 
22.813131 21.457785 4.297585 0.653498 0.625621 0.426073 
21.187353 20.108801 8.782768 0.655428 0.624660 0.424516 
8.422741 14.535744 16.143641 -0.665813 0.723780 0.181206 
12.470842 17.047428 17.226439 -0.441261 0.851467 0.283360 
12.805888 15.565723 21.789986 -0.368599 0.867869 0.333074 
3.478961 21.920425 22.264038 0.926489 0.375129 0.029929 
3.931039 20.666731 25.343435 0.934997 0.353806 -0.024519 
4.855591 21.891003 6.341378 0.981463 0.156911 0.110046 
3.538776 27.996977 3.786550 0.901440 0.374348 0.217416 
4.085657 26.384172 4.066623 0.930684 0.315001 0.186016 
4.665241 24.611298 3.702237 0.958210 0.232506 0.166660 
5.472337 21.802755 1.291275 0.989371 0.079185 0.121960 
5.439670 27.720919 -4.074104 0.951012 0.229356 0.207295 
5.101065 26.573915 -1.261154 0.951836 0.233245 0.199009 
5.833325 25.651800 -3.963997 0.971187 0.155716 0.180409 
5.487695 24.293568 -0.971575 0.975321 0.150448 0.161602 
6.181111 22.868561 -4.369342 0.988102 0.050704 0.145200 
5.817594 22.025181 -1.607012 0.988512 0.050132 0.142588 
5.760585 21.151596 -0.897809 0.992448 0.025698 0.119944 
2.130000 17.466000 -43.854034 0.707107 0.707107 0.000000 
2.130000 16.777277 -43.066822 1.000000 0.000000 0.000000 
2.130000 16.748825 -60.100471 1.000000 0.000000 0.000000 
2.130000 15.960440 -58.440231 1.000000 0.000000 0.000000 
-2.130000 17.466000 -47.688034 -0.707107 0.707107 0.000000 
1.192007 17.466000 -42.197083 0.000000 1.000000 0.000000 
0.268527 17.466000 -47.624435 0.000000 1.000000 0.000000 
-0.758916 17.466000 -52.652275 0.000000 1.000000 0.000000 
0.218452 17.466000 -52.610806 0.000000 1.000000 0.000000 
1.188107 17.466000 -50.867020 0.000000 1.000000 0.000000 
1.350324 17.466000 -45.155762 0.000000 1.000000 0.000000 
-2.130000 16.024754 -42.228252 -1.000000 0.000000 0.000000 
-2.130000 15.984547 -50.486282 -1.000000 0.000000 0.000000 
-2.130000 15.908857 -60.368134 -1.000000 0.000000 0.000000 
-2.130000 15.947160 -58.311024 -1.000000 0.000000 0.000000 
-2.130000 16.708719 -57.952648 -1.000000 0.000000 0.000000 
13.315536 10.303263 -45.227184 0.707107 -0.707107 0.000000 
13.856464 10.844190 -45.771034 1.000000 -0.000000 0.000001 
13.319829 10.307555 -44.158131 0.707107 -0.707107 -0.000000 
12.777921 9.765647 -45.759567 0.707107 -0.707107 -0.000000 
12.791186 9.778912 -43.419224 0.707107 -0.707107 -0.000000 
13.856464 10.844190 -55.356033 1.000000 -0.000000 0.000000 
12.754585 9.742311 -57.350460 0.707107 -0.707107 0.000000 
12.687580 12.013073 -42.123421 0.707107 0.707107 0.000001 
13.311091 11.389563 -42.035480 0.707107 0.707107 0.000001 
13.352829 11.347827 -46.607697 0.707107 0.707107 0.000000 
10.844190 13.856464 -57.912033 -0.000000 1.000000 0.000000 
13.499628 11.201026 -44.674667 0.707107 0.707106 -0.000000 
9.732283 12.744557 -42.771751 -0.707106 0.707107 -0.000000 
9.759486 12.771761 -50.359207 -0.707106 0.707107 0.000000 
9.764902 12.777176 -57.312473 -0.707106 0.707107 -0.000000 
10.382989 13.395263 -58.410725 -0.707107 0.707107 0.000000 
17.466000 -2.130000 -45.132034 0.707107 -0.707107 0.000000 
16.802940 -2.130000 -42.112129 0.000000 -1.000000 0.000000 
16.739609 -2.130000 -52.212772 0.000000 -1.000000 0.000000 
15.849608 -2.130000 -60.925053 0.000000 -1.000000 0.000000 
17.466000 -0.398684 -47.620338 1.000000 0.000000 0.000000 
17.466000 2.130000 -57.912033 0.707107 0.707107 0.000000 
17.466000 -1.309980 -50.990757 1.000000 0.000000 0.000000 
16.804911 2.130000 -42.111828 0.000000 1.000000 0.000000 
10.844190 -13.856464 -45.771034 0.000000 -1.000000 -0.000000 
10.844190 -13.856464 -55.356033 -0.000001 -1.000000 -0.000000 
9.758101 -12.770374 -58.230381 -0.707107 -0.707107 -0.000000 
13.388319 -11.312336 -42.092636 0.707107 -0.707107 0.000000 
11.350829 -13.349824 -42.162685 0.707107 -0.707107 0.000001 
13.261978 -11.438677 -52.328560 0.707107 -0.707106 -0.000000 
13.856464 -10.844190 -57.912033 1.000000 0.000000 -0.000000 
11.418680 -13.281975 -45.266052 0.707107 -0.707107 -0.000000 
13.264350 -10.252077 -42.311729 0.707107 0.707107 -0.000000 
13.324303 -10.312029 -50.142658 0.707107 0.707107 0.000000 
-2.130000 -17.466000 -43.854034 -0.707107 -0.707107 0.000000 
-2.130000 -16.777277 -43.066822 -1.000000 0.000000 0.000000 
-2.130000 -16.748825 -60.100471 -1.000000 0.000000 0.000000 
-2.130000 -15.960440 -58.440231 -1.000000 0.000000 0.000000 
2.130000 -17.466000 -47.688034 0.707107 -0.707107 0.000000 
-1.251953 -17.466000 -42.299923 0.000000 -1.000000 0.000000 
-0.337273 -17.466000 -47.640804 0.000000 -1.000000 0.000000 
0.758790 -17.466000 -52.652081 0.000000 -1.000000 0.000000 
-0.218630 -17.466000 -52.610573 0.000000 -1.000000 0.000000 
-1.188288 -17.466000 -50.867668 0.000000 -1.000000 0.000000 
-1.368748 -17.466000 -45.089237 0.000000 -1.000000 0.000000 
2.130000 -16.024754 -42.228252 1.000000 0.000000 0.000000 
2.130000 -15.985006 -50.485588 1.000000 0.000000 0.000000 
2.130000 -15.911256 -60.360443 1.000000 0.000000 0.000000 
2.130000 -15.965712 -58.219189 1.000000 0.000000 0.000000 
2.130000 -16.806328 -57.643253 1.000000 0.000000 0.000000 
-13.856464 -10.844190 -45.132034 -1.000000 0.000000 -0.000000 
-13.388214 -10.375940 -42.117237 -0.707107 0.707107 -0.000000 
-13.341189 -10.328915 -43.101234 -0.707107 0.707107 0.000000 
-12.842573 -9.830299 -42.309921 -0.707107 0.707107 -0.000000 
-13.856464 -10.844190 -55.356033 -1.000000 0.000000 0.000000 
-12.711538 -9.699265 -60.931698 -0.707107 0.707106 0.000000 
-12.759940 -9.747665 -59.954479 -0.707107 0.707106 -0.000000 
-10.844190 -13.856464 -47.688034 0.000001 -1.000000 -0.000000 
-11.286659 -13.413997 -58.473156 -0.707107 -0.707107 -0.000000 
-10.844190 -13.856464 -59.829033 0.000000 -1.000000 0.000000 
-13.155828 -11.544825 -50.099384 -0.707107 -0.707107 0.000001 
-9.726406 -12.738680 -42.771160 0.707107 -0.707107 -0.000000 
-9.766585 -12.778859 -50.476574 0.707107 -0.707107 0.000000 
-9.763763 -12.776037 -60.100464 0.707107 -0.707107 -0.000000 
-10.296093 -13.308367 -58.527508 0.707107 -0.707107 0.000000 
-17.466000 2.130000 -45.132034 -0.707107 0.707107 0.000000 
-16.802940 2.130000 -42.112129 0.000000 1.000000 0.000000 
-16.739609 2.130000 -52.212772 0.000000 1.000000 0.000000 
-15.849608 2.130000 -60.925053 0.000000 1.000000 0.000000 
-17.466000 0.398684 -47.620338 -1.000000 0.000000 0.000000 
-17.466000 -2.130000 -57.912033 -0.707107 -0.707107 0.000000 
-17.466000 1.309980 -50.990757 -1.000000 0.000000 0.000000 
-16.804911 -2.130000 -42.111828 0.000000 -1.000000 0.000000 
-10.844190 13.856464 -45.771034 0.000000 1.000000 -0.000000 
-10.844190 13.856464 -55.356033 0.000001 1.000000 0.000000 
-9.758101 12.770374 -58.230381 0.707107 0.707107 -0.000000 
-11.357252 13.343402 -42.108135 -0.707107 0.707107 0.000000 
-13.263840 11.436814 -52.328491 -0.707107 0.707107 -0.000000 
-13.856464 10.844190 -57.912033 -1.000000 -0.000000 -0.000000 
-13.260713 10.248438 -42.295063 -0.707107 -0.707107 -0.000000 
-13.325207 10.312934 -50.140224 -0.707107 -0.707107 -0.000000 
0.634149 7.399519 26.755119 -0.078336 -0.996926 0.001734 
0.014071 7.453769 -13.281570 -0.001068 -0.999995 0.003009 
0.723600 7.391693 14.000365 -0.111161 -0.993800 0.002319 
1.931663 7.171027 -54.235176 -0.261099 -0.965277 -0.008243 
6.691420 3.223112 -68.453590 -0.901239 -0.433323 0.000363 
6.983008 2.597797 -67.684692 -0.937665 -0.347536 -0.001636 
7.410379 0.510020 -68.655853 -0.997891 -0.064640 -0.005992 
7.373142 -0.935641 -54.906540 -0.990734 0.135738 0.004602 
3.320261 -6.646119 -68.278168 -0.457629 0.889141 0.001796 
2.702930 -6.933985 -67.728256 -0.357202 0.934021 -0.003330 
1.915373 -7.175392 6.908957 -0.267369 0.963585 -0.004106 
0.986238 -7.368715 -68.769966 -0.139958 0.990147 -0.004642 
-0.937521 -7.372977 -54.906479 0.136196 0.990672 0.004518 
-6.693686 -3.218251 -68.468781 0.902713 0.430244 -0.000203 
-6.976938 -2.610816 -67.682648 0.937170 0.348867 -0.001888 
-7.175497 -1.914983 6.910365 0.963604 0.267300 -0.004242 
-7.410639 -0.507050 -68.646446 0.997902 0.064463 -0.005954 
-7.372979 0.937504 -54.906536 0.990673 -0.136188 0.004518 
-3.306794 6.652398 -68.289299 0.457008 -0.889457 0.003236 
-2.702573 6.934151 -67.714783 0.357435 -0.933925 -0.004886 
-1.871249 7.187214 24.981565 0.248071 -0.968733 -0.004097 
-0.472169 -5.759580 -75.378036 0.000000 0.000000 1.000000 
4.243868 -11.299736 -75.316589 0.000000 -1.000000 0.000000 
1.219988 -11.299736 -72.496666 0.000000 -1.000000 0.000000 
-2.840655 -11.299736 -67.293190 0.000000 -1.000000 0.000000 
-4.818006 -11.299736 -65.228226 0.000000 -1.000000 0.000000 
-6.459537 -11.299736 -62.608238 0.000000 -1.000000 0.000000 
-5.579677 11.299736 -71.883492 0.000000 1.000000 0.000000 
-7.158020 11.299736 -62.694431 0.000000 1.000000 0.000000 
-2.777427 11.299736 -67.792923 0.000000 1.000000 0.000000 
-0.844591 11.299736 -69.947830 0.000000 1.000000 0.000000 
1.513553 11.299736 -72.492142 0.000000 1.000000 0.000000 
2.996624 11.299736 -75.668602 0.000000 1.000000 0.000000 
5.211142 11.299736 -79.595070 0.000000 1.000000 0.000000 
7.220530 11.299736 -76.890350 0.000000 1.000000 0.000000 
-14.395020 1.701299 -61.746037 0.000000 0.000000 -1.000000 
13.094197 -15.115198 -5.940035 0.000000 0.000000 -1.000000 
-18.171768 4.651312 32.706268 -0.911694 0.217863 0.348354 
-4.651312 -18.171768 32.706268 -0.217863 -0.911694 0.348354 
18.171768 -4.651312 32.706268 0.911694 -0.217863 0.348354 
15.848457 2.130000 -60.927013 0.000000 1.000000 0.000000 
12.713118 -9.700843 -60.931683 0.707107 0.707106 0.000001 
-15.848457 -2.130000 -60.927013 0.000000 -1.000000 0.000000 
-12.713118 9.700843 -60.931683 -0.707107 -0.707106 0.000001 
6.751903 3.093405 -24.881929 -0.909480 -0.415748 -0.000162 
7.423893 0.355557 -25.399145 -0.999186 -0.040331 -0.000021 
3.079725 -6.758282 -24.889513 -0.413664 0.910429 -0.000387 
0.355086 -7.423934 -25.399475 -0.040177 0.999193 0.000019 
-6.758272 -3.079747 -24.889519 0.910427 0.413670 -0.000389 
-7.423790 -0.356731 -25.399996 0.999182 0.040438 -0.000103 
-3.317790 6.647270 -24.870949 0.443180 -0.896423 0.004175 
-0.601857 -2.735738 -81.378036 0.000000 0.000000 -1.000000 
9.751778 0.072410 -81.378036 0.000000 0.000000 -1.000000 
-4.772162 -7.419606 -81.378036 0.000000 0.000000 -1.000000 
-14.997877 3.071033 -52.260654 -0.977655 0.210212 -0.001596 
14.995854 -3.079669 -52.282372 0.977591 -0.210510 -0.001128 
11.988359 -11.516239 -61.746037 0.000000 0.000000 -1.000000 
-11.937583 11.282547 -61.746037 0.000000 0.000000 -1.000000 
-0.500868 -12.229151 -61.746037 0.000000 0.000000 -1.000000 
1.406200 -15.786023 -61.746037 0.000000 0.000000 -1.000000 
-14.841066 1.014968 -41.257771 -0.111472 0.006949 0.993743 
-3.947698 14.064972 -31.989664 -0.041472 0.150310 -0.987769 
-3.385570 10.655902 -34.434799 -0.275980 0.842978 -0.461761 
-12.651603 2.698963 -40.633667 -0.500030 0.108888 0.859135 
10.933691 8.010372 -32.285591 0.298231 0.224045 -0.927826 
7.287668 12.117368 -32.098427 0.130869 0.214224 -0.967978 
4.498176 10.825420 -39.606651 0.295984 0.707582 0.641656 
0.038750 13.458324 -32.335625 0.002217 0.397771 -0.917482 
-14.950951 3.337738 -31.190393 -0.971686 0.236162 0.007323 
-9.126767 -12.279511 -30.711582 -0.588442 -0.808536 0.002356 
14.950933 -3.337802 -31.190462 0.971682 -0.236177 0.007319 
8.905783 12.433697 -30.356188 0.575679 0.817662 0.004780 
16.871603 -4.336363 -8.070036 0.000000 0.000000 -1.000000 
15.884446 -7.120685 -8.070036 0.000000 0.000000 -1.000000 
10.211409 -14.107220 -8.070036 0.000000 0.000000 -1.000000 
7.508684 -15.707656 -8.070036 0.000000 0.000000 -1.000000 
1.826301 -17.324757 -8.070036 0.000000 0.000000 -1.000000 
-7.111967 -15.940035 -8.070036 0.000000 0.000000 -1.000000 
-14.104779 -10.214506 -8.070036 0.000000 0.000000 -1.000000 
-15.646025 -7.576324 -8.070036 0.000000 0.000000 -1.000000 
-16.871603 4.336365 -8.070036 0.000000 0.000000 -1.000000 
-15.884453 7.120675 -8.070036 0.000000 0.000000 -1.000000 
-10.213393 14.103614 -8.070036 0.000000 0.000000 -1.000000 
-7.509461 15.707533 -8.070036 0.000000 0.000000 -1.000000 
-1.816977 17.369364 -8.070036 0.000000 0.000000 -1.000000 
7.102478 15.955179 -8.070036 0.000000 0.000000 -1.000000 
12.192056 12.432268 -8.070036 0.000000 0.000000 -1.000000 
14.119428 10.201617 -8.070036 0.000000 0.000000 -1.000000 
15.606870 7.608219 -8.070036 0.000000 0.000000 -1.000000 
21.963385 -4.224538 -5.940035 0.000000 0.000000 -1.000000 
4.242189 21.910332 -5.940035 0.000000 0.000000 -1.000000 
-12.264957 15.836621 -5.940035 0.000000 0.000000 -1.000000 
-12.979832 15.212458 -5.940035 0.000000 0.000000 -1.000000 
15.835357 12.265532 -5.940035 0.000000 0.000000 -1.000000 
15.211940 12.979868 -5.940035 0.000000 0.000000 -1.000000 
0.334498 34.623360 -2.658133 0.012378 0.901150 0.433332 
-20.354019 14.813819 10.360484 -0.874912 -0.404217 0.266716 
-23.207779 15.347116 -1.770188 -0.854109 -0.511113 0.096240 
-24.867805 -3.916826 10.362406 -0.332902 -0.904447 0.266743 
-26.222488 -5.488715 0.780304 -0.236354 -0.961064 0.143150 
-14.815074 -20.353958 10.362690 0.404117 -0.874945 0.266761 
3.916826 -24.867805 10.362406 0.904447 -0.332903 0.266743 
5.488622 -26.222576 0.780745 0.961062 -0.236366 0.143147 
20.354019 -14.813819 10.360484 0.874912 0.404217 0.266716 
23.207779 -15.347116 -1.770188 0.854109 0.511113 0.096240 
24.867767 3.916847 10.362379 0.332901 0.904447 0.266743 
14.813819 20.354019 10.360484 -0.404217 0.874912 0.266716 
15.347116 23.207779 -1.770188 -0.511113 0.854109 0.096240 
2.129606 28.956619 7.642185 0.845155 0.484368 0.226056 
3.981874 20.528004 22.871979 0.947297 0.320132 0.012008 
4.826662 17.239420 24.033520 0.987230 0.156073 -0.031893 
2.138932 7.115489 -25.592056 -0.291166 -0.956657 -0.005397 
2.253242 7.084860 -34.782104 -0.308684 -0.951149 -0.005453 
3.139434 6.730439 -25.655165 -0.422351 -0.906431 -0.001219 
3.226370 6.689900 -34.855442 -0.435611 -0.900130 -0.003039 
4.088120 6.203711 -25.636726 -0.551503 -0.834171 0.001834 
4.162113 6.151901 -34.884426 -0.561938 -0.827166 0.004713 
4.970704 5.532139 -25.604156 -0.665572 -0.746333 0.000040 
5.053295 5.449549 -34.881130 -0.679738 -0.733446 0.003739 
5.755034 4.728897 -25.629009 -0.771313 -0.636455 -0.001077 
5.849887 4.593432 -34.835957 -0.784469 -0.620168 0.000320 
6.782001 3.028861 -33.721901 -0.913979 -0.405759 -0.001623 
7.439142 0.181255 -34.892288 -0.999737 -0.022906 -0.001393 
7.378822 -0.870716 -25.644529 -0.993351 0.114846 -0.008007 
7.380864 -0.847383 -34.830811 -0.993398 0.114707 -0.001872 
7.161288 -1.968010 -25.752083 -0.964790 0.263008 -0.002788 
7.188491 -1.866484 -34.903484 -0.966665 0.256045 -0.000709 
6.790023 -3.011657 -25.750099 -0.913195 0.407511 0.003081 
6.822888 -2.941176 -34.940399 -0.922286 0.386501 0.002506 
6.256351 -4.012943 -25.732996 -0.841458 0.540317 0.002491 
6.026911 -4.340616 -34.670982 -0.804853 0.593471 0.001798 
5.386077 -5.116765 -34.771179 -0.722576 0.691285 0.003005 
4.710299 -5.768055 -25.652990 -0.634724 0.772739 -0.000427 
4.568138 -5.867598 -34.790485 -0.616642 0.787244 -0.000353 
3.028613 -6.782116 -33.710526 -0.405730 0.913992 -0.001581 
0.181889 -7.439087 -34.892429 -0.023029 0.999734 -0.001372 
-0.870792 -7.378815 -25.644588 0.114867 0.993349 -0.008003 
-0.847168 -7.380882 -34.830860 0.114659 0.993403 -0.001874 
-1.968021 -7.161285 -25.752092 0.263011 0.964789 -0.002788 
-1.866432 -7.188506 -34.903496 0.256035 0.966667 -0.000710 
-3.011659 -6.790022 -25.750099 0.407511 0.913195 0.003081 
-2.941168 -6.822893 -34.940399 0.386499 0.922287 0.002506 
-4.012943 -6.256351 -25.732996 0.540317 0.841458 0.002491 
-4.340616 -6.026912 -34.670982 0.593471 0.804853 0.001798 
-5.116765 -5.386077 -34.771179 0.691285 0.722576 0.003005 
-5.768055 -4.710301 -25.652990 0.772739 0.634724 -0.000427 
-5.867599 -4.568138 -34.790485 0.787244 0.616642 -0.000353 
-6.782116 -3.028612 -33.710522 0.913992 0.405730 -0.001582 
-7.439091 -0.181840 -34.892185 0.999734 0.023018 -0.001369 
-7.379325 0.864967 -25.647459 0.993427 -0.114143 -0.008637 
-7.380872 0.847287 -34.829865 0.993398 -0.114706 -0.001858 
-7.163312 1.960456 -25.764303 0.964761 -0.263117 -0.002434 
-7.188302 1.867192 -34.899517 0.966602 -0.256281 -0.000759 
-6.785451 3.021460 -25.784868 0.912756 -0.408488 0.003779 
-6.820685 2.945902 -34.927608 0.921924 -0.387361 0.002766 
-6.239470 4.037050 -25.735729 0.839924 -0.542703 0.001373 
-6.009505 4.365475 -34.634190 0.803083 -0.595866 0.000940 
-5.374268 5.128576 -34.731449 0.721632 -0.692263 0.004455 
-4.716624 5.763628 -25.657036 0.635322 -0.772248 0.000108 
-4.586810 5.854525 -34.781071 0.619135 -0.785283 0.001797 
-3.022709 6.784869 -33.819283 0.406280 -0.913749 0.000405 
0.682367 3.861016 -75.378036 0.000000 0.000000 1.000000 
10.178892 -9.330898 -77.100311 0.746141 -0.665787 -0.001196 
5.786561 5.959445 -81.378036 0.000000 0.000000 -1.000000 
12.594749 2.604354 -81.378036 0.000000 0.000000 -1.000000 
-6.804989 13.736162 -56.004375 -0.435094 0.900384 0.001034 
-3.861460 -14.803998 -55.799660 -0.234844 -0.972030 -0.002446 
6.805225 -13.736049 -56.003750 0.434978 -0.900440 0.001029 
3.843854 14.807987 -55.808517 0.232324 0.972633 -0.003169 
14.184340 -8.598064 -8.923906 0.845692 -0.533574 0.010170 
-8.977421 -13.918713 -8.880984 -0.573576 -0.819153 -0.000000 
-14.184719 8.597523 -8.924469 -0.845760 0.533468 0.010078 
-22.122562 -18.548491 -5.940035 0.000000 0.000000 -1.000000 
-19.516424 -3.210750 -5.940035 0.000000 0.000000 -1.000000 
3.463873 -19.378986 -5.940035 0.000000 0.000000 -1.000000 
-6.358839 22.627560 -4.293844 -0.998630 0.035911 0.038050 
-3.707673 27.603354 7.123689 -0.883737 0.396406 0.248741 
-4.781321 17.369553 13.213251 -0.987581 0.036505 0.152812 
-2.711882 19.664946 20.078119 -0.905624 0.294394 0.305250 
-16.262867 19.541702 17.005653 -0.175745 0.934463 0.309665 
-20.763758 15.752746 10.365767 -0.888607 -0.362891 0.280514 
-25.406879 19.713852 -2.417999 -0.925046 -0.345543 0.157765 
-25.251032 18.735947 -3.908087 -0.903808 -0.406636 0.133339 
-15.657306 8.893863 13.209459 -0.723541 -0.673220 0.152520 
-15.975176 12.234042 20.007706 -0.852142 -0.420123 0.312011 
-25.317652 2.318487 17.005653 -0.785035 0.536496 0.309666 
-15.093050 6.000091 32.800476 -0.105302 0.980077 -0.168405 
-25.821011 -3.542965 10.366932 -0.371778 -0.884920 0.280531 
-17.360308 -4.782469 13.209502 -0.035598 -0.987660 0.152514 
-19.946930 -2.645385 20.007690 -0.305483 -0.899628 0.312010 
-19.541702 -16.262867 17.005653 -0.934463 -0.175745 0.309665 
-15.753424 -20.763546 10.367247 0.362819 -0.888626 0.280547 
-8.893884 -15.657312 13.209508 0.673208 -0.723554 0.152513 
-12.234042 -15.975176 20.007706 0.420123 -0.852142 0.312011 
-2.318487 -25.317652 17.005653 -0.536496 -0.785035 0.309666 
-6.000091 -15.093050 32.800476 -0.980077 -0.105302 -0.168405 
3.542963 -25.821009 10.366931 0.884920 -0.371778 0.280531 
4.782469 -17.360306 13.209503 0.987660 -0.035598 0.152513 
2.645385 -19.946930 20.007690 0.899628 -0.305483 0.312010 
16.262867 -19.541702 17.005653 0.175745 -0.934463 0.309665 
20.763758 -15.752746 10.365767 0.888607 0.362891 0.280514 
25.406879 -19.713852 -2.417999 0.925046 0.345543 0.157765 
25.251032 -18.735947 -3.908087 0.903808 0.406636 0.133339 
15.657306 -8.893863 13.209459 0.723541 0.673220 0.152520 
15.974511 -12.231834 20.006401 0.852082 0.420284 0.311958 
25.317652 -2.318487 17.005653 0.785034 -0.536497 0.309665 
15.093050 -6.000091 32.800476 0.105302 -0.980077 -0.168405 
22.627508 6.358838 -4.293775 0.035907 0.998631 0.038047 
25.820982 3.542991 10.366889 0.371774 0.884922 0.280530 
17.360306 4.782469 13.209503 0.035598 0.987660 0.152514 
19.946930 2.645386 20.007690 0.305483 0.899628 0.312010 
19.541702 16.262867 17.005653 0.934463 0.175745 0.309665 
15.752746 20.763758 10.365767 -0.362891 0.888607 0.280514 
19.713852 25.406879 -2.417999 -0.345543 0.925046 0.157765 
18.735947 25.251032 -3.908087 -0.406636 0.903808 0.133339 
8.893863 15.657306 13.209459 -0.673220 0.723541 0.152520 
12.234042 15.975176 20.007706 -0.420123 0.852142 0.312011 
4.731021 17.380322 20.686501 0.991672 0.127566 -0.017722 
2.130000 17.466000 -60.787537 0.707107 0.707107 0.000000 
12.517189 12.183465 -55.720402 0.707107 0.707107 0.000000 
-2.130000 -17.466000 -60.787537 -0.707107 -0.707107 0.000000 
-12.012406 -12.688248 -48.343132 -0.707107 -0.707107 0.000000 
1.574081 7.266841 -56.834892 -0.205556 -0.978598 -0.009641 
1.924028 7.173072 -55.851158 -0.251855 -0.967765 0.000291 
4.016798 6.253651 -57.015282 -0.533994 -0.845470 0.005648 
7.395569 -0.679296 -55.972889 -0.995608 0.093615 0.000892 
7.309792 -1.413784 -56.743004 -0.982333 0.187120 -0.002712 
6.811403 -2.965805 -56.960033 -0.918519 0.395360 0.003636 
-0.681092 -7.395412 -55.972610 0.094174 0.995555 0.001057 
-1.414133 -7.309698 -56.742928 0.187175 0.982323 -0.002707 
-2.965744 -6.811432 -56.960052 0.395349 0.918524 0.003638 
-7.395413 0.681075 -55.972641 0.995556 -0.094166 0.001055 
-7.309728 1.414024 -56.743046 0.982325 -0.187163 -0.002708 
-6.812066 2.964385 -56.961170 0.918699 -0.394943 0.003635 
-0.723109 7.391736 -11.202480 0.092939 -0.995671 0.001397 
-0.890319 -1.131386 -75.378036 0.000000 0.000000 1.000000 
9.506200 -10.023709 -66.266273 0.683702 -0.729760 -0.001580 
9.444685 -10.075823 -65.260704 0.676933 -0.736042 0.001901 
11.290578 -7.995828 -65.781914 0.814777 -0.579759 -0.004178 
11.856226 -7.051304 -65.834518 0.864030 -0.503439 0.000345 
12.347775 -6.194317 -65.774940 0.887412 -0.460955 -0.004483 
13.235302 -3.959622 -65.789001 0.952061 -0.305895 -0.002857 
13.643373 -2.052791 -66.020653 0.987214 -0.159402 -0.000449 
13.792885 0.288688 -65.946663 0.999711 0.023926 -0.002140 
13.532585 2.684585 -65.944290 0.982754 0.184917 -0.000320 
12.924728 4.817959 -65.930168 0.940337 0.340243 0.000000 
11.559443 7.568734 -66.416351 0.842694 0.538383 0.003398 
11.088490 8.238524 -65.745911 0.796588 0.604523 -0.000015 
11.643379 7.422393 -65.328079 0.849117 0.528202 0.001801 
-9.508386 10.021857 -66.266075 -0.683835 0.729636 -0.001363 
-9.445193 10.075393 -65.260689 -0.677024 0.735958 0.001961 
-11.272413 8.017643 -65.860672 -0.811595 0.584199 -0.004938 
-11.837100 7.084650 -65.807838 -0.863713 0.503983 -0.000881 
-12.379492 6.139019 -65.769341 -0.890913 0.454145 -0.005080 
-13.151230 4.191974 -65.730179 -0.947657 0.319277 -0.002753 
-13.640916 2.066802 -65.995712 -0.987075 0.160256 -0.000507 
-13.792885 -0.219537 -65.907997 -0.999974 -0.007210 -0.000575 
-13.494667 -2.900826 -65.508224 -0.981863 -0.189553 -0.003839 
-12.923879 -4.820306 -65.868263 -0.940202 -0.340617 -0.000028 
-11.551185 -7.583131 -66.404518 -0.841635 -0.540037 0.003230 
-11.077061 -8.252251 -65.727898 -0.795478 -0.605983 -0.000010 
-11.630239 -7.445303 -65.296684 -0.848057 -0.529902 0.001591 
-10.061336 -9.472078 -77.027870 -0.740589 -0.671909 0.008180 
-11.386249 -5.936414 -81.378036 0.000000 0.000000 -1.000000 
6.791424 6.104490 -81.378036 0.000000 0.000000 -1.000000 
4.807928 0.543595 -81.378036 0.000000 0.000000 -1.000000 
-1.651238 0.454124 -81.378036 0.000000 0.000000 -1.000000 
-0.847207 0.765958 -81.378036 0.000000 0.000000 -1.000000 
0.966436 -5.002614 -81.378036 0.000000 0.000000 -1.000000 
4.813488 -10.067790 -81.378036 0.000000 0.000000 -1.000000 
-3.445907 -8.939880 -81.378036 0.000000 0.000000 -1.000000 
-9.296171 -8.822765 -81.378036 0.000000 0.000000 -1.000000 
-5.385412 14.338224 -45.174442 -0.354856 0.934921 -0.000707 
-7.027956 13.630249 -57.145756 -0.458799 0.888535 -0.002935 
-9.232950 12.245225 -56.953533 0.104715 0.994502 -0.000485 
-9.232950 12.245225 -46.729534 0.094452 0.995529 0.000000 
-12.764690 8.440397 -50.863110 -0.843166 0.537653 -0.000724 
-13.273234 7.604955 -59.813229 -0.859663 0.510855 -0.002659 
-6.064469 -14.080638 -42.928143 -0.387992 -0.921662 -0.001161 
-2.130000 -15.187363 -46.729534 -0.776145 -0.630555 -0.000000 
5.384122 -14.338710 -45.174057 0.354772 -0.934953 -0.000714 
7.054718 -13.616528 -57.126633 0.461430 -0.887173 -0.002346 
9.232950 -12.245225 -56.953533 -0.104792 -0.994494 -0.000539 
9.232950 -12.245225 -46.729534 -0.094452 -0.995529 0.000000 
12.764934 -8.440009 -50.863476 0.843178 -0.537635 -0.000724 
13.273234 -7.604955 -59.813229 0.859663 -0.510855 -0.002659 
14.968583 3.110990 -60.018230 0.975559 0.219730 -0.001844 
13.761761 6.716849 -59.795597 0.903571 0.428432 0.002549 
13.849918 6.519560 -51.064575 0.910597 0.413288 -0.002629 
6.081849 14.073439 -42.928169 0.389103 0.921194 -0.001013 
2.130000 15.187363 -46.729534 0.776144 0.630555 -0.000000 
-11.746932 9.859062 -29.961306 -0.764809 0.644241 0.004525 
-4.513185 -14.628072 -29.157837 -0.276273 -0.961035 0.009251 
11.872002 -9.696898 -29.664534 0.776354 -0.630277 0.005057 
4.632205 14.597308 -29.238686 0.284292 0.958718 0.006109 
16.441921 1.966842 -12.000307 0.995811 0.091430 -0.001116 
14.194503 -10.003894 -8.070036 0.000000 0.000000 -1.000000 
12.434621 -12.460606 -8.070036 0.000000 0.000000 -1.000000 
4.414297 -16.817238 -8.070036 0.000000 0.000000 -1.000000 
-1.741050 -17.242117 -8.070036 0.000000 0.000000 -1.000000 
-4.653581 -16.791870 -8.070036 0.000000 0.000000 -1.000000 
-10.200560 -14.036800 -8.070036 0.000000 0.000000 -1.000000 
-12.130383 -12.714554 -8.070036 0.000000 0.000000 -1.000000 
-16.860321 -4.362798 -8.070036 0.000000 0.000000 -1.000000 
-17.845716 -3.963625 -8.070036 0.000000 0.000000 -1.000000 
-14.201541 9.999868 -8.070036 0.000000 0.000000 -1.000000 
-12.493654 12.133748 -8.070036 0.000000 0.000000 -1.000000 
-4.414310 16.817863 -8.070036 0.000000 0.000000 -1.000000 
1.462525 17.352108 -8.070036 0.000000 0.000000 -1.000000 
4.647125 16.793777 -8.070036 0.000000 0.000000 -1.000000 
9.789869 14.369529 -8.070036 0.000000 0.000000 -1.000000 
16.802414 4.481001 -8.070036 0.000000 0.000000 -1.000000 
17.740175 4.303237 -8.070036 0.000000 0.000000 -1.000000 
12.082885 -4.606654 34.529964 0.000000 0.000000 1.000000 
-8.373139 -6.497608 34.529964 0.000000 0.000000 1.000000 
6.523448 -6.569335 34.529964 0.000000 0.000000 1.000000 
-3.622648 -28.661076 -5.940035 0.000000 0.000000 -1.000000 
-30.178440 -0.696959 -5.940035 0.000000 0.000000 -1.000000 
-27.281837 -0.398760 -5.940035 0.000000 0.000000 -1.000000 
19.863926 5.515153 -5.940035 0.000000 0.000000 -1.000000 
33.063290 1.393243 -5.940035 0.000000 0.000000 -1.000000 
35.084602 -0.635562 -5.940035 0.000000 0.000000 -1.000000 
-2.002956 12.631060 27.715431 -0.957735 0.140161 0.251196 
-4.797913 19.810038 11.880826 -0.971395 0.137335 0.193729 
-6.216376 15.717240 9.788557 -0.357574 0.895049 0.266513 
-6.443152 14.521908 13.508096 -0.385982 0.885140 0.259895 
-8.384475 17.383581 1.123446 -0.417677 0.868400 0.267260 
-2.603270 30.308109 6.248405 -0.504367 0.768846 0.393052 
-15.861102 19.296614 17.980373 -0.163620 0.939140 0.302067 
-17.936275 21.031511 10.706395 0.280822 0.943727 0.174695 
-15.874347 19.849669 13.721880 0.332101 0.931154 0.150539 
-10.473319 16.681892 20.427364 0.531791 0.846876 0.000730 
-12.117423 18.507542 9.635921 0.553405 0.827367 0.095949 
-11.391472 17.956347 10.203073 0.581574 0.809884 0.076551 
-12.130970 18.666082 8.555154 0.561337 0.819372 0.116320 
-11.493029 18.813913 3.985991 0.627103 0.770208 0.116277 
-20.504942 23.717949 2.537912 0.248526 0.929221 0.273464 
-19.518574 23.809113 1.172925 0.311688 0.917453 0.247247 
-17.333473 22.326506 3.744539 0.371069 0.902788 0.217445 
-10.927530 8.293064 27.784655 -0.789714 -0.551363 0.268981 
-17.373262 10.574187 11.857882 -0.782219 -0.592151 0.193623 
-19.700621 14.564613 12.136622 -0.877905 -0.397966 0.266283 
