55.548943 -7.278762 0.062799 0.002742 -0.999965 0.007960 
53.839062 -7.227499 -0.795016 0.013617 -0.994021 -0.108339 
54.884075 -6.686832 -2.865571 -0.002738 -0.913831 -0.406085 
54.741573 -5.202332 -5.082829 -0.000841 -0.708387 -0.705824 
53.903027 -4.966456 -5.306056 0.002391 -0.685823 -0.727765 
54.229103 -5.250936 -5.033360 0.000406 -0.713580 -0.700573 
54.417927 -4.911244 -5.356861 0.000908 -0.678265 -0.734817 
54.012344 -3.937864 -6.109557 0.002418 -0.545931 -0.837827 
53.530495 -3.415581 -6.424172 -0.000487 -0.457894 -0.889007 
53.457928 -2.974014 -6.628534 0.002158 -0.412537 -0.910939 
53.804379 -1.010816 -7.205074 -0.003226 -0.130086 -0.991497 
53.507244 -0.582900 -7.239532 0.001470 -0.079172 -0.996860 
53.015869 -0.695461 -7.229667 -0.000317 -0.093433 -0.995625 
53.387146 0.273568 -7.273720 -0.000503 0.046017 -0.998941 
53.181732 1.100258 -7.190804 -0.000682 0.142063 -0.989857 
53.443241 2.003737 -6.982820 -0.003358 0.274195 -0.961668 
52.466415 1.775370 -7.043423 0.003117 0.246451 -0.969150 
52.258408 2.604410 -6.796304 -0.002651 0.371709 -0.928346 
52.960228 3.167266 -6.538449 -0.004733 0.435367 -0.900241 
52.170090 4.240816 -5.904713 0.002574 0.578854 -0.815427 
52.941471 4.956715 -5.321622 -0.004861 0.688891 -0.724849 
52.457314 5.122834 -5.156031 0.002603 0.706629 -0.707580 
51.283672 6.479055 -3.293239 -0.004370 0.895263 -0.445517 
51.230995 7.230765 -0.587615 0.001935 0.996521 -0.083320 
51.492531 7.199534 -1.032452 -0.004920 0.991913 -0.126823 
50.523277 7.227116 0.834853 -0.001860 0.994754 0.102275 
51.067688 7.087538 1.625349 -0.002442 0.972520 0.232808 
50.248611 6.977952 2.034449 0.002307 0.962208 0.272304 
49.933743 6.857635 2.442837 0.000907 0.938329 0.345742 
51.060295 6.538233 3.156341 -0.005737 0.903279 0.429015 
50.152889 6.443332 3.371343 0.004537 0.893521 0.448999 
50.902306 6.095632 3.967795 -0.004850 0.834094 0.551601 
49.323578 6.092710 3.982953 0.003545 0.831961 0.554822 
49.772797 5.652405 4.587040 0.003771 0.776285 0.630372 
48.918434 0.558417 7.245567 -0.002177 0.079122 0.996863 
49.056351 -0.554656 7.250795 -0.000451 -0.084835 0.996395 
48.112694 -3.148289 6.549099 0.005028 -0.428597 0.903482 
48.699726 -4.091968 6.013622 -0.000254 -0.572740 0.819737 
47.901745 -4.933937 5.344578 -0.000626 -0.683164 0.730265 
47.498108 -5.251301 5.031788 -0.001494 -0.716542 0.697542 
47.795849 -5.878194 4.276166 -0.000549 -0.813691 0.581298 
46.836437 -6.538572 3.170532 0.003769 -0.901542 0.432676 
47.235149 -6.871986 2.396327 -0.001357 -0.947618 0.319402 
46.746307 -7.264863 0.352155 -0.000192 -0.998693 0.051104 
47.335804 -7.259513 -0.410972 0.000107 -0.997851 -0.065518 
46.915070 -7.225141 -0.800680 -0.002808 -0.994663 -0.103141 
46.394043 -7.244013 -0.534539 0.000036 -0.997151 -0.075431 
46.243656 -7.096822 -1.601298 -0.001105 -0.974107 -0.226084 
46.614868 -6.605162 -3.018261 -0.003486 -0.907355 -0.420350 
45.530624 -5.739105 -4.465490 -0.000425 -0.791745 -0.610851 
46.312901 -5.607516 -4.639830 0.000857 -0.766464 -0.642287 
45.923298 -4.658619 -5.592639 -0.001602 -0.637192 -0.770703 
45.381371 -4.524624 -5.696429 0.002434 -0.618447 -0.785823 
45.398190 -4.073309 -6.023133 0.002929 -0.563500 -0.826111 
44.950974 -3.435428 -6.406991 0.002575 -0.470199 -0.882556 
46.752426 -2.920656 -6.661278 -0.019811 -0.410107 -0.911822 
45.530384 -2.501147 -6.835882 0.000852 -0.342820 -0.939401 
45.445404 -1.657509 -7.076886 -0.003453 -0.229219 -0.973369 
45.495544 -0.886187 -7.214725 0.000458 -0.116174 -0.993229 
45.141171 1.336161 -7.155231 -0.002963 0.181015 -0.983476 
46.123837 -0.307574 -7.270966 -0.009314 -0.051978 -0.998605 
45.037231 0.411356 -7.265672 0.000780 0.068581 -0.997645 
44.970066 1.803245 -7.042643 0.003255 0.254445 -0.967082 
44.642441 3.075942 -6.589004 0.000507 0.430754 -0.902469 
43.836876 3.392326 -6.432107 0.000917 0.468405 -0.883514 
43.588654 4.975224 -5.310773 -0.002579 0.695810 -0.718221 
43.883224 5.261606 -5.004969 -0.000490 0.723940 -0.689863 
44.968281 5.808874 -4.373881 -0.017399 0.796481 -0.604413 
43.429535 6.360444 -3.540080 -0.002232 0.877858 -0.478917 
43.804256 6.551797 -3.153120 -0.005566 0.906568 -0.422023 
43.119797 6.708858 -2.801801 0.001139 0.919747 -0.392511 
42.922825 7.116373 -1.509600 0.000544 0.977979 -0.208702 
43.219910 7.191589 -1.122213 -0.003429 0.989418 -0.145050 
43.091202 7.263353 0.451266 -0.003842 0.997773 0.066596 
42.460857 6.803421 2.582949 -0.000001 0.932308 0.361667 
42.452480 6.593864 3.054105 0.004526 0.905403 0.424528 
42.460022 6.372002 3.510865 0.002551 0.882101 0.471054 
42.449913 6.148279 3.891309 0.000605 0.836871 0.547399 
41.872684 5.223704 5.053162 -0.002166 0.710394 0.703801 
41.707615 4.102847 6.008952 0.003552 0.562447 0.826826 
41.540783 3.636906 6.307078 0.001589 0.493206 0.869911 
41.552879 3.099031 6.570406 -0.000536 0.423441 0.905923 
41.454357 2.609371 6.792041 0.003129 0.362911 0.931819 
40.118614 0.300008 7.266184 -0.000600 0.049081 0.998795 
40.268524 -0.159591 7.274036 -0.001624 -0.026747 0.999641 
39.371990 -0.925572 7.213281 -0.000294 -0.128344 0.991730 
39.778786 -0.907757 7.215199 -0.001629 -0.124136 0.992264 
40.530018 -1.419798 7.139327 -0.002401 -0.201007 0.979587 
39.860897 -1.888848 7.024071 0.001177 -0.256202 0.966623 
39.971260 -3.316369 6.469944 0.003332 -0.460761 0.887518 
40.195755 -3.831082 6.185192 -0.005640 -0.523543 0.851981 
39.915226 -5.048247 5.239800 -0.002316 -0.699020 0.715098 
39.155342 -6.628618 2.985540 0.001569 -0.911219 0.411919 
40.458382 -5.927150 4.210859 -0.001286 -0.814955 0.579522 
39.588314 -6.516949 3.234799 -0.002034 -0.899939 0.436012 
38.084599 -6.562821 3.130468 0.003373 -0.904154 0.427193 
38.130249 -7.260784 0.361840 0.001936 -0.998563 0.053555 
38.448090 -6.883488 2.354532 0.003460 -0.949063 0.315066 
37.941483 -6.631513 -2.970729 0.001084 -0.911238 -0.411878 
37.612221 -6.530778 -3.189388 0.001484 -0.904314 -0.426866 
37.824596 -5.914578 -4.215402 -0.000152 -0.813535 -0.581516 
37.306599 -5.802798 -4.379053 0.000823 -0.802777 -0.596278 
37.165077 -5.124228 -5.150792 -0.004026 -0.710724 -0.703460 
37.366859 -4.193873 -5.930990 -0.000571 -0.571280 -0.820755 
36.784683 -4.125188 -5.979716 0.001001 -0.569931 -0.821692 
36.797028 -2.836040 -6.699581 0.000786 -0.400532 -0.916282 
37.122181 -1.950761 -6.998145 -0.006375 -0.263842 -0.964545 
36.389011 -1.379565 -7.144902 0.002754 -0.192257 -0.981341 
36.198143 -0.865532 -7.211933 -0.003931 -0.111848 -0.993718 
36.584064 0.538485 -7.243364 0.000799 0.076447 -0.997073 
35.565292 2.856495 -6.690724 -0.000389 0.397214 -0.917726 
36.227909 3.297627 -6.487021 0.001250 0.451785 -0.892126 
35.983059 3.622348 -6.313763 -0.001563 0.501797 -0.864984 
36.009567 4.383499 -5.802348 0.003825 0.597599 -0.801786 
34.654053 4.182861 -5.951487 0.003828 0.573811 -0.818978 
35.112492 4.382323 -5.800728 0.000140 0.597637 -0.801766 
35.121994 4.773972 -5.492346 -0.000351 0.660287 -0.751013 
34.982315 6.966156 -2.081444 -0.000513 0.961173 -0.275948 
34.261208 7.112616 -1.515406 0.006198 0.976640 -0.214792 
34.479683 7.189118 1.118384 -0.000404 0.989666 0.143394 
33.623135 6.848258 2.468615 0.000761 0.942518 0.334155 
33.936783 5.961035 4.174197 0.000683 0.817654 0.575710 
34.065620 5.664811 4.567446 -0.003353 0.778021 0.628229 
33.877567 4.993154 5.291488 0.001116 0.688764 0.724985 
32.369770 2.565234 6.811860 0.002936 0.361037 0.932547 
32.425438 3.019547 6.607491 0.000936 0.420030 0.907510 
33.300678 2.937565 6.644416 -0.000360 0.408876 0.912590 
28.945528 -3.109739 6.555586 -0.004768 -0.431720 0.901995 
27.596327 -2.790727 6.710017 -0.003590 -0.397499 0.917595 
27.888592 -3.174310 6.522637 -0.000093 -0.432116 0.901818 
29.227068 -2.696330 6.758286 -0.003247 -0.381014 0.924564 
29.540758 -2.337069 6.884064 -0.005427 -0.297993 0.954553 
30.814241 -2.327283 6.886772 -0.004540 -0.297256 0.954787 
32.169456 -1.515920 7.118634 -0.003166 -0.226935 0.973905 
32.667831 -1.452420 7.131362 -0.002030 -0.203126 0.979150 
32.310879 -0.595581 7.244318 0.000418 -0.090946 0.995856 
32.096436 0.611583 7.238602 0.002861 0.090569 0.995886 
27.319872 -4.277061 5.867331 -0.001850 -0.573878 0.818939 
28.691473 -4.185896 5.934027 -0.002021 -0.576413 0.817156 
27.947920 -3.923738 6.117716 -0.002341 -0.552415 0.833566 
26.647087 -3.739208 6.244851 -0.005960 -0.514987 0.857177 
27.365629 -6.104286 3.941257 -0.000982 -0.830625 0.556832 
28.379936 -5.927396 4.197639 -0.002169 -0.819530 0.573032 
27.459026 -5.798111 4.379029 -0.004911 -0.807735 0.589525 
26.527103 -5.561975 4.695180 0.001891 -0.758357 0.651836 
25.438618 -5.508748 4.748407 -0.005638 -0.748366 0.663262 
26.809002 -6.501419 3.221811 -0.002005 -0.904550 0.426362 
28.027245 -7.030192 1.828741 -0.001367 -0.966749 0.255723 
27.067738 -6.918568 2.233166 -0.000054 -0.954753 0.297401 
25.926460 -7.246573 0.383687 -0.001228 -0.996486 0.083752 
27.736465 -7.227225 0.604834 -0.003479 -0.997321 0.073062 
29.053087 -7.216897 0.875597 -0.002568 -0.995119 0.098646 
26.604834 -7.191863 1.098042 0.000238 -0.991873 0.127233 
24.462196 -7.137974 -1.387196 -0.002010 -0.979604 -0.200930 
28.383512 -7.215421 -0.901553 -0.001533 -0.993591 -0.113022 
25.618221 -7.238805 -0.541197 -0.002454 -0.996389 -0.084874 
26.664982 -7.263346 -0.287686 -0.002634 -0.998991 -0.044823 
28.287447 -7.261566 -0.343780 -0.003976 -0.998799 -0.048833 
29.124235 -7.074790 -1.670445 -0.004309 -0.968475 -0.249072 
27.224911 -6.716297 -2.781612 -0.002805 -0.918231 -0.396035 
26.633858 -6.445071 -3.362706 0.000708 -0.896306 -0.443435 
27.188360 -6.481623 -3.288685 -0.002547 -0.898054 -0.439877 
26.350958 -5.791210 -4.387366 -0.000385 -0.804252 -0.594289 
27.229256 -6.005692 -4.085649 -0.002528 -0.822340 -0.568990 
27.702288 -5.844478 -4.318362 -0.001445 -0.812980 -0.582289 
27.727188 -6.120653 -3.921366 -0.001554 -0.833186 -0.552991 
28.191000 -6.244546 -3.739701 -0.000342 -0.853634 -0.520873 
26.442305 -5.032190 -5.223395 -0.001344 -0.703108 -0.711081 
26.538546 -3.976784 -6.080921 -0.003056 -0.560385 -0.828227 
26.689861 -4.377556 -5.800545 0.000663 -0.594655 -0.803981 
26.243195 -3.135746 -6.539052 -0.003231 -0.416075 -0.909325 
25.975893 -1.624371 -7.072117 -0.000573 -0.241110 -0.970498 
26.544033 -2.341630 -6.886923 -0.006168 -0.316320 -0.948633 
27.096231 0.201718 -7.269862 0.000604 0.036801 -0.999322 
26.581314 -0.402336 -7.244022 -0.001883 -0.077353 -0.997002 
25.945024 2.061743 -6.954885 -0.001675 0.265554 -0.964095 
25.483429 2.919076 -6.640019 -0.004211 0.425020 -0.905174 
25.285685 3.350332 -6.438922 -0.000910 0.438092 -0.898930 
27.028149 2.691430 -6.755822 0.001571 0.377133 -0.926158 
25.414530 4.032084 -6.030960 0.002197 0.578232 -0.815870 
25.542530 5.205640 -5.049801 -0.004324 0.713697 -0.700441 
25.539627 4.801044 -5.464455 -0.001524 0.668727 -0.743507 
24.883705 5.884162 -4.243678 -0.001508 0.818170 -0.574974 
25.684650 6.051704 -4.006784 -0.003124 0.821006 -0.570911 
25.457500 5.854322 -4.288000 -0.003398 0.817766 -0.575541 
25.328808 6.700348 -2.790517 -0.000112 0.914687 -0.404164 
25.686163 6.289311 -3.665266 -0.003978 0.859504 -0.511113 
24.865482 6.936808 -2.145576 -0.003857 0.961961 -0.273158 
25.013485 7.239916 -0.456549 -0.002185 0.996958 -0.077905 
24.557747 7.204729 -0.858738 -0.002856 0.995330 -0.096489 
25.674458 7.192132 -1.099235 -0.008981 0.990237 -0.139106 
24.424370 7.225561 0.663572 -0.004050 0.996141 0.087674 
24.108545 6.998172 1.903705 -0.000001 0.965926 0.258820 
24.408911 6.554617 3.115996 -0.005441 0.905773 0.423728 
24.820288 6.198280 3.809684 -0.009194 0.840590 0.541594 
24.777042 6.653764 2.908148 -0.003004 0.908670 0.417505 
24.646870 4.908458 5.359972 -0.004978 0.690070 0.723726 
24.732679 4.521754 5.700377 -0.004219 0.612725 0.790285 
25.911312 -2.035842 6.964571 -0.001173 -0.260292 0.965529 
25.712872 -1.632583 7.071482 0.001319 -0.250868 0.968020 
24.451479 -1.277442 7.166644 -0.003198 -0.191467 0.981494 
103.020111 3.617446 6.317660 0.000566 0.500973 0.865462 
115.086159 2.930150 6.639834 0.000503 0.422036 0.906579 
114.559311 3.164580 6.530796 0.001340 0.427189 0.904162 
91.056419 2.658963 6.773954 0.000071 0.370963 0.928648 
109.709023 4.392807 5.778276 0.000018 0.589615 0.807684 
117.176292 4.466609 5.726601 -0.004263 0.598376 0.801204 
106.780014 3.701706 6.268044 0.002376 0.518989 0.854778 
98.877525 4.018760 6.051314 0.001382 0.573712 0.819056 
97.666389 3.903546 6.132802 0.002891 0.562978 0.826467 
95.785202 4.287375 5.852101 0.001637 0.584650 0.811284 
86.203880 4.194656 5.934433 0.001685 0.587176 0.809458 
92.228668 5.531705 4.730794 -0.000869 0.755969 0.654607 
91.282997 5.412925 4.864055 0.001292 0.734809 0.678273 
96.895943 5.150180 5.124974 -0.000076 0.705544 0.708667 
96.472351 4.882887 5.388140 -0.001667 0.673082 0.739566 
86.877022 4.835303 5.436229 -0.000492 0.658633 0.752464 
93.309212 5.109157 5.168638 0.000924 0.703452 0.710742 
103.776772 4.528705 5.683120 -0.000786 0.600264 0.799802 
106.189972 4.892994 5.375314 0.006107 0.681185 0.732085 
102.142174 4.991344 5.279945 -0.001561 0.691782 0.722105 
90.545815 5.468071 -4.796895 0.002269 0.740986 -0.671517 
89.987656 5.620244 -4.624956 0.001127 0.770812 -0.637062 
90.101990 5.260035 -5.021134 0.001693 0.710360 -0.703837 
92.550293 5.488902 -4.774373 0.002966 0.744098 -0.668064 
87.659790 5.991096 -4.118820 -0.001484 0.825326 -0.564654 
93.609566 6.294561 -3.655020 0.001974 0.870415 -0.492315 
96.962433 4.213526 -5.908263 0.001187 0.564468 -0.825454 
97.756279 4.176167 -5.931516 0.003618 0.560021 -0.828471 
114.304352 4.622607 -5.620118 -0.000340 0.630926 -0.775843 
115.650330 4.678996 -5.576350 -0.005946 0.642959 -0.765878 
117.220314 3.902783 -6.119827 -0.000797 0.548417 -0.836205 
115.601395 3.534307 -6.355978 0.008630 0.475526 -0.879659 
116.419106 3.452760 -6.391158 -0.002554 0.464152 -0.885752 
111.068810 3.518130 -6.367161 -0.009296 0.473382 -0.880808 
83.086372 3.865958 -6.150666 0.004427 0.535554 -0.844489 
115.112656 4.862337 -5.393103 0.001487 0.682271 -0.731097 
117.202301 1.932060 -6.989633 0.000512 0.259842 -0.965651 
97.295410 1.115256 -7.188675 -0.000952 0.151188 -0.988505 
115.431511 1.255977 -7.169709 0.001198 0.172429 -0.985021 
116.739403 0.931001 -7.197757 0.001569 0.111493 -0.993764 
110.940857 0.910241 -7.199574 -0.003201 0.099207 -0.995062 
115.853355 2.196542 -6.918765 0.002727 0.282139 -0.959370 
114.966003 2.478698 -6.843805 -0.006303 0.339910 -0.940437 
114.413895 3.113176 -6.549509 -0.000220 0.421833 -0.906674 
99.772583 3.133540 -6.544072 -0.000296 0.423852 -0.905731 
103.631485 3.170500 -6.522778 -0.000712 0.418142 -0.908382 
103.345024 -0.299312 -7.260867 0.001317 -0.062682 -0.998033 
115.336143 -1.305342 -7.159801 0.003431 -0.179982 -0.983664 
116.449966 -1.769935 -7.033113 -0.001793 -0.253809 -0.967253 
103.389008 -1.653867 -7.072318 -0.004628 -0.252052 -0.967703 
99.482719 -1.794453 -7.032296 0.001662 -0.265969 -0.963980 
97.766815 -0.479521 -7.245707 0.001543 -0.093616 -0.995607 
115.465179 -0.247116 -7.257603 -0.005778 -0.053938 -0.998528 
115.572891 0.474755 -7.237673 -0.000000 0.087156 -0.996195 
99.882393 0.567356 -7.229571 0.000442 0.076004 -0.997107 
103.823441 0.904706 -7.207928 0.002587 0.103118 -0.994666 
98.132385 0.771524 -7.221693 0.000716 0.086333 -0.996266 
115.530731 -3.536092 -6.352367 0.003837 -0.480710 -0.876872 
114.762634 -3.898703 -6.122785 -0.000650 -0.555067 -0.831806 
97.798317 -2.596557 -6.798162 -0.000089 -0.355577 -0.934647 
104.498146 -2.628451 -6.785543 -0.005309 -0.376152 -0.926543 
117.062057 -1.777315 -7.031136 -0.000134 -0.260666 -0.965429 
114.465118 -1.874953 -7.004973 -0.000821 -0.260605 -0.965445 
107.355148 -5.738365 -4.479216 0.001072 -0.934368 -0.356309 
102.636688 -5.169749 -5.085838 0.000672 -0.713833 -0.700316 
116.112976 -5.307099 -4.948487 -0.003465 -0.716153 -0.697935 
92.142708 -5.253595 -5.006532 -0.000154 -0.718870 -0.695144 
107.092041 -4.952105 -5.307121 -0.002362 -0.694802 -0.719197 
102.085846 -5.206035 -5.049551 -0.000159 -0.713098 -0.701064 
116.887505 -3.916425 -6.110377 0.003690 -0.558055 -0.829796 
104.980522 -4.098545 -5.982854 0.003470 -0.584185 -0.811613 
116.602440 -5.135503 5.121652 0.000001 -0.707107 0.707106 
116.789513 -5.462265 4.794889 -0.001868 -0.729330 0.684160 
97.020294 -5.466542 4.804850 0.001195 -0.734965 0.678104 
88.781448 -5.828090 4.359410 -0.000639 -0.808164 0.588958 
91.994400 -5.803728 4.391911 0.000631 -0.805854 0.592114 
92.051323 -5.506085 4.762365 -0.000681 -0.752136 0.659008 
97.574234 -5.446203 4.826303 -0.000036 -0.729892 0.683562 
90.123901 -5.917066 4.225930 -0.002275 -0.821386 0.570368 
90.556824 -5.795216 4.405397 0.001268 -0.804376 0.594120 
89.287491 -5.767233 4.440663 0.001826 -0.799861 0.600183 
88.638336 -6.101099 3.953894 -0.002179 -0.840290 0.542134 
97.210091 -6.221983 3.765689 0.001949 -0.857655 0.514222 
90.009102 -6.182706 3.829890 0.007523 -0.852796 0.522190 
115.927200 -3.892489 6.133182 -0.000578 -0.548755 0.835983 
115.977722 -4.724155 5.533000 -0.000492 -0.657247 0.753675 
115.130424 -2.570836 6.804163 -0.003791 -0.363871 0.931442 
116.876755 -3.101290 6.556775 0.000017 -0.422618 0.906308 
100.423859 -3.540609 6.359726 0.000669 -0.471223 0.882014 
115.525970 -3.736451 6.242761 0.004367 -0.516225 0.856442 
103.882263 -3.285185 6.477576 -0.003069 -0.429954 0.902845 
115.422295 -1.662036 7.067858 0.002053 -0.250078 0.968224 
99.534416 -2.406214 6.867913 -0.000054 -0.339788 0.940502 
116.685051 -0.944760 7.198135 -0.001205 -0.111683 0.993743 
101.697395 -1.002071 7.205831 0.003885 -0.110015 0.993922 
95.593582 0.854598 7.223719 -0.001275 0.108050 0.994145 
106.503593 0.754603 7.225076 0.000303 0.092547 0.995708 
101.887955 0.690547 7.233850 0.001184 0.090030 0.995938 
116.617043 0.014311 7.280173 -0.000780 0.000069 1.000000 
115.616341 0.059436 7.278256 0.002645 0.007361 0.999969 
101.825096 0.077738 7.277479 -0.000191 0.000170 1.000000 
121.530159 2.927659 -1.142284 1.000000 0.000000 0.000000 
121.530159 -2.867582 -3.580602 1.000000 0.000000 0.000000 
121.530159 -0.069828 -3.480187 1.000000 0.000000 0.000000 
121.530159 0.458841 -3.349584 1.000000 0.000000 0.000000 
121.530159 0.290249 -1.360429 1.000000 0.000000 0.000000 
121.530159 1.195293 1.185205 1.000000 0.000000 0.000000 
121.530159 0.947180 1.625708 1.000000 0.000000 0.000000 
121.530159 -0.096984 0.086047 1.000000 0.000000 0.000000 
121.530159 -1.624143 0.224696 1.000000 0.000000 0.000000 
121.530159 -4.428097 0.085461 1.000000 0.000000 0.000000 
121.530159 -3.058539 -5.718207 1.000000 0.000000 0.000000 
121.530159 -0.889290 -6.722259 1.000000 0.000000 0.000000 
121.530159 -0.451266 4.373130 1.000000 0.000000 0.000000 
121.530159 -0.096680 1.509839 1.000000 0.000000 0.000000 
121.530159 0.332676 3.643301 1.000000 0.000000 0.000000 
121.530159 2.966754 5.591769 1.000000 0.000000 0.000000 
121.530159 0.344889 -6.785282 1.000000 0.000000 0.000000 
66.532097 -9.076944 -1.631627 -0.989993 -0.031598 0.137537 
76.287239 -6.877681 7.506808 -0.991440 0.093475 0.091154 
75.708618 -9.408787 3.936759 -0.991367 0.046974 0.122417 
75.329597 -10.204898 1.157410 -0.991643 0.011333 0.128511 
69.263779 3.030920 10.196403 -0.695044 0.280612 0.661945 
58.927254 -8.849919 3.903869 -0.990437 0.050747 0.128297 
55.631706 4.519445 -8.720060 -0.990978 -0.118806 -0.062034 
53.350250 8.320999 5.872279 -0.991515 0.080077 -0.102404 
53.014633 6.117523 7.183110 -0.990525 0.105423 -0.088011 
47.884937 -0.061399 -10.265323 -0.992038 -0.125914 -0.002521 
46.742947 7.717990 -6.806069 -0.992018 -0.081408 -0.096300 
44.634491 6.981495 8.024525 -0.695306 0.526452 0.489283 
31.187756 -0.812541 -9.374660 -0.990193 -0.139433 0.008787 
79.242035 -2.057284 9.402745 0.990621 -0.132562 -0.033128 
73.002647 9.988646 1.729670 0.991771 -0.021799 0.126158 
71.735573 4.279059 8.784696 0.990638 -0.122745 0.059751 
71.616760 3.519548 9.264996 0.990942 -0.126160 0.046025 
58.637623 -0.836212 -10.116242 0.991270 0.131399 -0.010873 
58.671970 -1.026465 -9.619265 0.990384 0.137652 -0.013875 
54.033302 -2.122514 9.403212 0.990469 -0.133295 -0.034699 
47.804028 10.001654 1.720447 0.991802 -0.021306 0.125999 
36.856964 -4.901191 8.930940 0.991145 -0.116059 -0.064507 
35.719917 -9.905331 2.199544 0.991295 -0.028646 -0.128505 
78.188423 -3.321186 10.081142 0.000758 -0.334206 0.942500 
78.341530 -6.126444 8.665924 -0.010375 -0.593717 0.804607 
77.172623 -9.757492 4.197871 -0.009757 -0.926414 0.376380 
75.956009 -9.540785 -4.645174 -0.000208 -0.890544 -0.454896 
75.504364 -7.839128 -7.152807 0.002463 -0.727206 -0.686415 
75.282440 -5.355265 -9.172813 -0.009719 -0.508864 -0.860792 
74.886086 -2.528296 -10.316998 -0.009063 -0.247428 -0.968864 
74.962044 0.097147 -10.630054 -0.010578 0.018741 -0.999768 
73.608932 5.856796 -8.849465 0.001356 0.566954 -0.823749 
58.480732 -6.542827 -8.365315 -0.007099 -0.598842 -0.800835 
58.107857 -3.909103 -9.873219 -0.006309 -0.344543 -0.938749 
53.967793 3.975698 9.840145 0.001291 0.360025 0.932942 
53.142151 -6.127229 8.665355 -0.010395 -0.593719 0.804606 
51.972603 -9.757491 4.197869 -0.009758 -0.926415 0.376378 
50.749954 -9.536419 -4.654067 0.000154 -0.890617 -0.454754 
50.305695 -7.846703 -7.144643 0.002036 -0.727058 -0.686573 
50.081692 -5.364135 -9.167462 -0.010030 -0.508953 -0.860736 
49.676704 -2.515393 -10.320233 -0.008719 -0.246737 -0.969043 
49.397568 0.236795 -10.619889 -0.013930 0.031135 -0.999418 
48.408928 5.856804 -8.849461 0.001355 0.566955 -0.823748 
33.280708 -6.542827 -8.365315 -0.007099 -0.598841 -0.800836 
32.904011 -3.907840 -9.873672 -0.006324 -0.344488 -0.938769 
31.891714 4.146375 -9.781582 0.001719 0.366037 -0.930599 
28.286638 1.136890 10.554245 0.000267 0.087968 0.996123 
28.779913 4.060578 9.806813 0.000976 0.358433 0.933555 
78.569389 -4.592778 9.585558 -0.006809 -0.444950 0.895529 
75.348969 -6.529128 -8.377356 -0.006604 -0.624351 -0.781116 
72.702980 6.069099 -8.720420 0.016297 0.560937 -0.827698 
60.276115 -9.821424 4.076455 -0.000213 -0.928893 0.370347 
60.075859 -10.445380 1.915873 -0.002479 -0.980988 0.194052 
59.859779 -10.603520 0.547130 -0.001858 -0.998465 0.055358 
58.054790 -8.797659 -5.975797 0.004591 -0.818310 -0.574758 
58.951313 -8.739142 -6.049311 0.000923 -0.811189 -0.584783 
57.334751 -1.001059 -10.576374 0.010425 -0.074684 -0.997153 
56.339958 6.154018 -8.659520 0.011833 0.592565 -0.805436 
56.037479 9.860950 -3.929654 0.004092 0.936799 -0.349845 
54.768219 8.766451 5.990055 0.002805 0.805103 0.593128 
53.335571 -4.637336 9.562229 -0.004355 -0.460040 0.887888 
50.149345 -6.529767 -8.376845 -0.006627 -0.624377 -0.781095 
47.502979 6.069100 -8.720420 0.016298 0.560936 -0.827699 
35.076096 -9.821422 4.076463 -0.000214 -0.928892 0.370350 
34.875835 -10.445380 1.915873 -0.002479 -0.980988 0.194051 
34.659744 -10.603520 0.547130 -0.001857 -0.998465 0.055359 
32.854771 -8.797660 -5.975797 0.004591 -0.818310 -0.574758 
33.751289 -8.739141 -6.049311 0.000923 -0.811189 -0.584784 
31.966463 -0.864543 -10.589405 0.017083 -0.071453 -0.997298 
31.128956 6.172792 -8.645735 0.012817 0.593600 -0.804658 
30.807133 9.867588 -3.912605 0.005519 0.936319 -0.351109 
28.345757 4.010264 9.828835 0.000234 0.365431 0.930838 
76.760597 2.163589 6.940798 0.000114 0.298394 0.954443 
83.747902 0.063068 7.278102 0.000271 0.000249 1.000000 
82.215874 -1.095127 7.195756 -0.002752 -0.150637 0.988585 
80.693588 -1.339116 7.154158 0.079418 -0.199516 0.976671 
81.910126 -2.453841 6.853036 0.001627 -0.340285 0.940321 
80.185371 -3.854302 6.171811 0.098496 -0.546784 0.831460 
81.694580 -4.983848 5.295450 0.000017 -0.685769 0.727819 
79.860878 -4.550364 5.699175 0.156801 -0.639279 0.752819 
79.920174 -6.949283 2.163667 -0.000776 -0.957468 0.288539 
79.701233 -6.798594 2.601283 0.011121 -0.935208 0.353924 
80.001900 -6.676710 2.893830 0.002057 -0.915250 0.402882 
78.779297 -6.677693 -2.886607 0.002168 -0.916344 -0.400387 
79.267357 -6.988878 -2.025502 -0.000750 -0.961827 -0.273659 
79.122086 -5.111942 -5.170943 -0.002238 -0.704789 -0.709413 
78.626312 -5.807631 -4.387099 0.000068 -0.795860 -0.605481 
78.765045 -4.151690 -5.975081 0.000251 -0.570792 -0.821095 
78.965904 -2.324310 -6.893038 0.000459 -0.317308 -0.948322 
80.109856 -2.137678 -6.954059 0.001658 -0.294914 -0.955522 
78.632256 -2.827578 -6.707085 0.000101 -0.391225 -0.920295 
80.082275 -2.653923 -6.775546 0.002501 -0.367310 -0.930095 
78.379486 -1.027527 -7.201462 0.000532 -0.133867 -0.990999 
77.852394 0.290126 -7.271174 0.000324 0.039839 -0.999206 
78.574509 -0.143945 -7.274850 -0.001426 -0.023706 -0.999718 
79.508133 0.153850 -7.271083 0.001618 0.022706 -0.999741 
79.271416 -0.941957 -7.210004 0.001771 -0.130136 -0.991495 
78.738632 0.893893 -7.218510 0.001632 0.123564 -0.992335 
78.128845 1.515818 -7.112069 0.000641 0.212898 -0.977074 
77.453033 2.869762 -6.684740 -0.002021 0.400686 -0.916213 
79.139221 2.600531 -6.791869 0.001822 0.358359 -0.933582 
77.601509 2.491731 -6.839291 0.003176 0.344532 -0.938769 
77.490562 2.107726 -6.964626 0.000799 0.280775 -0.959773 
77.844238 1.805388 -7.043319 0.001012 0.246541 -0.969132 
77.313484 3.356219 -6.451282 -0.000791 0.463758 -0.885962 
76.317413 5.360964 -4.912827 0.000377 0.736137 -0.676832 
76.665169 5.151544 -5.138531 0.003201 0.710488 -0.703702 
76.966682 4.855904 -5.417965 0.003318 0.668457 -0.743744 
77.490257 4.879827 -5.394983 -0.002424 0.674625 -0.738157 
77.675743 4.592839 -5.643224 0.000843 0.633769 -0.773522 
78.468727 4.749995 -5.508111 -0.002244 0.653391 -0.757018 
78.596741 4.438372 -5.763117 -0.005257 0.607255 -0.794490 
76.337135 6.078674 -3.995154 0.001206 0.831746 -0.555155 
76.046036 6.298927 -3.648143 -0.000380 0.864600 -0.502461 
75.763222 6.487075 -3.294527 0.001885 0.894768 -0.446528 
75.490784 7.187721 -1.126319 -0.001198 0.987620 -0.156864 
75.378822 7.272258 0.204752 0.000932 0.999705 0.024272 
75.219429 7.252927 0.599479 -0.002952 0.996311 0.085762 
75.422409 6.663840 2.929234 0.001562 0.912763 0.408487 
74.636795 5.354756 4.929315 0.000265 0.730984 0.682394 
73.629349 5.964788 4.190926 0.159480 0.791949 0.589392 
75.118759 4.751391 5.515940 0.000310 0.653587 0.756851 
75.689415 4.654548 5.595004 0.002088 0.639141 0.769086 
76.801697 3.968969 6.097701 0.000796 0.550177 0.835048 
74.864609 4.322025 5.850920 0.001569 0.593761 0.804640 
75.414680 3.512776 6.374512 0.000187 0.477594 0.878580 
74.888634 3.520265 6.370444 0.000239 0.479652 0.877459 
53.229584 -5.987722 -4.129774 0.011942 -0.820856 -0.571010 
68.623474 6.555020 3.164309 -0.015674 0.900737 0.434081 
33.372978 -6.132567 4.357859 -0.558748 -0.618399 0.552615 
27.505224 -0.977094 7.207061 -0.007626 -0.210574 0.977548 
101.962265 -5.738365 1.183063 0.000000 -1.000000 0.000000 
107.634239 -5.738365 3.450416 0.000000 -1.000000 0.000000 
110.237442 -5.738365 -1.445067 0.000000 -1.000000 0.000000 
110.412750 -5.738365 -3.461039 0.000000 -1.000000 0.000000 
113.043976 -5.738365 -3.386481 0.000000 -1.000000 0.000000 
118.698143 -5.738365 -1.192095 0.000000 -1.000000 0.000000 
99.130157 -6.565413 -2.053788 1.000000 0.000000 0.000000 
102.014877 5.738220 -1.176674 0.000000 1.000000 0.000000 
110.274254 5.738220 -3.310196 0.000000 1.000000 0.000000 
107.572426 5.738220 -3.430337 0.000000 1.000000 0.000000 
110.206787 5.738220 1.237205 0.000000 1.000000 0.000000 
110.302689 5.738220 3.373898 0.000000 1.000000 0.000000 
112.887863 5.738220 3.336928 0.000000 1.000000 0.000000 
118.735046 5.738220 1.183211 0.000000 1.000000 0.000000 
99.130157 5.738220 -1.119215 0.707107 0.707107 0.000000 
31.354340 1.359266 7.149597 0.000331 0.179638 0.983733 
34.532040 7.273091 -0.191936 0.004572 0.999654 -0.025893 
36.987183 3.680481 -6.278824 -0.006742 0.502733 -0.864416 
37.675476 -1.147826 -7.184659 -0.001854 -0.161085 -0.986939 
38.303112 -6.725949 -2.763326 0.001699 -0.918899 -0.394489 
36.977287 -6.815678 -2.549722 0.000004 -0.934235 -0.356657 
37.011589 -6.972347 -2.063652 0.003029 -0.960268 -0.279064 
38.812634 -6.754590 2.699127 -0.002285 -0.926959 0.375156 
41.453594 -1.038160 7.200804 -0.002532 -0.133460 0.991051 
46.860939 -6.891709 -2.326512 -0.004278 -0.947033 -0.321107 
51.189896 5.405879 -4.864029 0.000354 0.743165 -0.669108 
57.294922 -6.701501 2.828029 -0.026539 -0.916660 0.398786 
57.693222 -3.495133 6.377442 -0.005599 -0.478202 0.878232 
117.018784 1.425362 7.126958 -0.001109 0.210555 0.977581 
80.494698 -5.688649 -4.537953 -0.000455 -0.780879 -0.624682 
81.986099 -5.867353 -4.304428 0.001116 -0.811677 -0.584105 
112.955154 -5.738365 4.480784 -0.003228 -0.937589 0.347731 
118.207947 5.545829 -4.712130 0.001657 0.738222 -0.674556 
95.598999 6.468081 -3.290823 -0.002531 0.902759 -0.430139 
96.230736 6.746603 -2.693139 -0.005520 0.923378 -0.383852 
79.336021 6.487185 -3.274390 -0.000803 0.897542 -0.440928 
78.463287 6.720214 -2.778293 -0.000396 0.921965 -0.387272 
78.921165 6.612307 -3.028691 0.001259 0.905827 -0.423647 
75.957535 6.670019 -2.895944 0.003499 0.917399 -0.397953 
77.986870 6.841308 -2.487807 0.000893 0.939124 -0.343578 
77.484444 7.068685 -1.712692 -0.000298 0.970961 -0.239238 
76.488785 6.978456 -2.056118 -0.000804 0.960372 -0.278720 
96.391052 6.922365 -2.197176 0.000698 0.957061 -0.289886 
96.559807 7.052905 -1.709248 0.001848 0.966508 -0.256631 
78.778069 7.164236 -1.286109 0.000257 0.985515 -0.169586 
77.996841 7.252810 -0.514274 0.002921 0.996519 -0.083314 
83.151054 7.274191 0.153341 0.002388 0.999701 0.024343 
79.419449 7.274363 0.148789 -0.000409 0.999847 0.017480 
78.820831 7.278252 0.045329 0.003705 0.999993 0.001059 
96.263512 7.250400 0.374625 -0.001470 0.997210 0.074637 
75.324799 7.203176 1.003775 -0.000117 0.989878 0.141923 
78.764679 7.138180 1.381188 0.007963 0.981228 0.192688 
93.163918 7.082274 1.589833 0.003156 0.971284 0.237901 
80.682159 7.087935 1.568705 0.002687 0.973214 0.229885 
96.001686 6.987724 1.942700 -0.000267 0.966254 0.257592 
80.097374 6.864955 2.421769 0.000506 0.944243 0.329250 
79.233284 6.766632 2.675109 -0.001304 0.928203 0.372073 
77.548416 6.462743 3.334005 -0.001968 0.885952 0.463772 
95.680679 6.713358 2.772747 -0.000743 0.918164 0.396200 
96.943512 6.658119 2.888072 0.002119 0.909469 0.415766 
119.175858 5.567688 4.690424 -0.000177 0.743767 0.668439 
78.657707 6.370205 3.518528 0.000226 0.874387 0.485230 
84.914337 6.173750 3.834839 0.004916 0.848252 0.529570 
77.751984 6.206026 3.789011 0.000316 0.852877 0.522111 
97.157173 6.307193 3.636213 0.001191 0.869632 0.493700 
83.803017 6.232605 3.747549 0.000132 0.851822 0.523831 
96.965866 -6.442055 3.346308 -0.000048 -0.897182 0.441661 
88.030258 -6.433300 3.365082 0.001152 -0.893268 0.449522 
96.694473 -6.669402 2.858759 0.000202 -0.911047 0.412302 
82.129395 -6.498150 3.255138 0.003617 -0.892636 0.450764 
82.051605 -6.904590 2.298688 0.000819 -0.950661 0.310229 
97.085167 -7.093696 1.557580 -0.002289 -0.971204 0.238238 
81.982925 -7.039827 1.820115 0.000748 -0.968361 0.249554 
83.349693 -7.147152 1.383861 -0.001818 -0.983099 0.183067 
84.315094 -7.203919 0.894681 0.002033 -0.992266 0.124112 
87.131317 -7.229557 0.644226 -0.001927 -0.994282 0.106766 
79.782516 -7.230839 0.805803 0.002889 -0.993952 0.109780 
86.295334 -7.250520 0.512390 0.002505 -0.995493 0.094803 
81.542679 -7.262869 0.428636 0.001873 -0.997692 0.067879 
82.236298 -7.277389 -0.104243 -0.001934 -0.999795 -0.020136 
81.733719 -7.276251 -0.148754 -0.000902 -0.999654 -0.026292 
83.120888 -7.279087 -0.037805 0.000149 -0.999972 -0.007471 
97.124771 -7.220633 -0.704553 0.001127 -0.996194 -0.087156 
82.159073 -7.204078 -1.024408 0.001871 -0.990044 -0.140743 
83.951462 -7.235005 -0.698162 0.000665 -0.995535 -0.094392 
82.587547 -7.159350 -1.301148 -0.000755 -0.981890 -0.189448 
96.290115 -7.139570 -1.374971 0.004081 -0.979120 -0.203243 
82.136871 -7.105469 -1.509963 0.001139 -0.976077 -0.217423 
81.739090 -7.074149 -1.665191 0.003403 -0.973165 -0.230082 
81.733299 -6.854106 -2.450200 0.000030 -0.941261 -0.337680 
83.481377 -6.912508 -2.276290 0.001500 -0.953104 -0.302640 
81.464706 -6.692476 -2.849274 0.000939 -0.916874 -0.399176 
83.438354 -6.520378 -3.211916 0.000416 -0.900428 -0.435006 
81.205666 -6.522755 -3.211329 0.001125 -0.899941 -0.436010 
85.790985 -6.379822 -3.503353 0.003007 -0.877462 -0.479636 
86.645309 -6.006249 -4.091508 0.002309 -0.829965 -0.557811 
81.670715 -6.103206 -3.952890 0.000307 -0.837680 -0.546162 
86.098625 -5.940594 -4.197452 -0.001243 -0.825550 -0.564328 
80.784256 -5.921099 -4.228281 -0.000798 -0.818526 -0.574469 
73.142792 1.548357 7.112795 0.017833 0.211646 0.977184 
75.684235 2.213986 6.925497 -0.004151 0.295688 0.955276 
75.421501 1.718206 7.061177 -0.006271 0.243375 0.969912 
85.087822 2.241189 6.917238 0.000221 0.301133 0.953582 
75.041527 0.194044 7.268978 -0.003238 0.038401 0.999257 
73.041489 0.159711 7.277931 0.005255 0.025604 0.999658 
73.196449 -0.321233 7.266956 0.000890 -0.056108 0.998424 
75.175331 -0.786150 7.229259 -0.003851 -0.107744 0.994171 
73.808762 -3.221529 6.505944 0.002083 -0.439469 0.898256 
72.298111 -2.940648 6.648037 0.019177 -0.406020 0.913663 
72.941490 -3.454574 6.404686 0.004104 -0.467965 0.883738 
73.830894 -3.719830 6.256548 0.003170 -0.510382 0.859942 
72.811539 -3.913865 6.119293 0.001682 -0.544348 0.838857 
73.172806 -4.176361 5.949020 -0.000357 -0.567599 0.823305 
73.556511 -4.390679 5.800832 0.002513 -0.588791 0.808282 
74.423462 -4.803021 5.470543 -0.002138 -0.660672 0.750672 
72.249641 -4.509501 5.713038 0.000088 -0.619496 0.785000 
73.063087 -4.964942 5.309916 -0.001622 -0.693367 0.720583 
73.552094 -5.511021 4.753227 0.005904 -0.749070 0.662465 
71.769066 -5.941341 4.192575 0.005396 -0.815771 0.578350 
73.690643 -6.724020 2.782712 -0.002641 -0.920790 0.390050 
71.833313 -6.502387 3.252859 -0.000241 -0.895257 0.445551 
71.284889 -7.098664 1.601830 0.003345 -0.974817 0.222984 
73.213257 -7.111966 1.547419 0.002391 -0.975223 0.221210 
72.585899 -7.270923 -0.233147 -0.005870 -0.999255 -0.038143 
72.130463 -7.257186 -0.388940 0.000048 -0.998392 -0.056691 
70.956772 -7.271413 0.197938 0.004363 -0.999776 0.020733 
73.472466 -7.255432 0.548740 -0.006127 -0.996645 0.081621 
71.876717 -7.260686 0.465472 0.002479 -0.997521 0.070329 
73.007759 -7.210627 -0.982536 -0.002999 -0.991192 -0.132401 
71.421654 -7.078316 -1.666495 0.000227 -0.972390 -0.233361 
72.151184 -6.938286 -2.179177 0.000559 -0.955801 -0.294014 
72.697487 -6.610542 -3.027290 -0.005165 -0.909661 -0.415319 
72.330025 -5.985752 -4.136276 0.001609 -0.822172 -0.569237 
70.850647 -5.983437 -4.143925 -0.001009 -0.821046 -0.570861 
71.658287 -5.785296 -4.403901 0.001478 -0.795509 -0.605940 
72.210587 -4.464897 -5.740746 -0.015985 -0.616854 -0.786915 
70.522865 -4.241983 -5.913737 0.001008 -0.578129 -0.815945 
69.650909 -4.130698 -5.984148 0.004156 -0.569435 -0.822026 
70.998650 -4.049175 -6.038340 0.001986 -0.558073 -0.829789 
69.770332 -3.796946 -6.205957 -0.000941 -0.520262 -0.854006 
71.009659 -3.643274 -6.301996 -0.000097 -0.500952 -0.865475 
70.167503 -1.654552 -7.076505 0.000111 -0.232385 -0.972624 
69.353348 -1.531289 -7.110117 0.000841 -0.216590 -0.976262 
69.354568 -2.355527 -6.883661 0.002632 -0.319686 -0.947520 
71.321671 -1.805969 -7.044342 0.000123 -0.249207 -0.968450 
71.484077 -1.354542 -7.147306 -0.004948 -0.186452 -0.982452 
70.245697 -0.656587 -7.228979 -0.000935 -0.091786 -0.995778 
68.783295 -0.266597 -7.273190 0.008707 -0.041313 -0.999108 
68.737053 0.237062 -7.272678 0.001838 0.041159 -0.999151 
70.821579 0.599615 -7.249038 -0.000044 0.090458 -0.995900 
68.498650 1.657426 -7.080392 0.008475 0.232346 -0.972596 
68.607307 2.130928 -6.956067 0.005208 0.287379 -0.957803 
68.808517 2.999426 -6.621080 -0.000488 0.417632 -0.908616 
68.387108 3.054673 -6.594496 0.003794 0.420716 -0.907184 
68.584854 3.447057 -6.409583 0.001433 0.472165 -0.881509 
67.959221 4.519000 -5.702557 -0.000790 0.618399 -0.785864 
70.190079 4.420420 -5.781373 -0.001756 0.603028 -0.797718 
70.149117 5.029780 -5.256417 -0.001966 0.697264 -0.716812 
68.173630 4.882212 -5.398524 -0.000111 0.678483 -0.734616 
69.921410 5.311236 -4.965212 -0.005445 0.728381 -0.685151 
67.943016 5.156546 -5.120455 0.006831 0.713222 -0.700905 
69.936363 5.864635 -4.306787 -0.006101 0.807396 -0.589978 
67.489601 5.985353 -4.137725 0.007548 0.822153 -0.569217 
69.625633 6.062499 -4.022152 -0.006341 0.830234 -0.557380 
67.497543 6.250920 -3.725264 0.001139 0.860541 -0.509380 
67.914047 6.400391 -3.465766 -0.002460 0.885243 -0.465122 
69.380203 6.802824 -2.581295 -0.000634 0.932467 -0.361255 
68.890442 6.786162 -2.626081 -0.001477 0.929267 -0.369406 
66.882500 7.067729 -1.734322 0.014508 0.971359 -0.237173 
68.977425 7.188894 -1.137401 -0.003426 0.988787 -0.149296 
68.991783 7.273513 -0.114710 -0.009145 0.999599 -0.026783 
68.126846 7.278808 -0.034657 0.004912 0.999871 -0.015268 
68.687462 7.179933 1.185517 -0.004567 0.986292 0.164945 
66.621216 7.109026 1.520293 -0.001520 0.976482 0.215594 
68.404327 7.005486 1.946132 -0.007751 0.963598 0.267244 
68.767395 6.943707 2.160763 -0.004303 0.956968 0.290161 
67.347626 6.939238 2.173696 0.001172 0.958671 0.284515 
66.352005 6.845450 2.476632 0.003593 0.941091 0.338134 
68.707253 6.774116 2.661592 -0.012614 0.933747 0.357711 
66.029152 6.187046 3.811524 0.003878 0.849236 0.528000 
65.799767 5.891520 4.272059 0.017625 0.813931 0.580695 
66.267601 6.654627 2.943325 0.005012 0.912472 0.409109 
67.476936 6.409125 3.439003 0.002475 0.880573 0.473904 
65.870239 6.590427 3.089033 0.025298 0.901119 0.432833 
66.190346 6.437945 3.383371 -0.000396 0.881218 0.472710 
65.704857 5.228877 5.063221 0.002240 0.713368 0.700786 
67.040810 4.879478 5.392228 0.002881 0.672129 0.740429 
65.623482 4.080538 6.025424 0.002011 0.565285 0.824893 
67.513145 3.845139 6.176427 0.000238 0.534824 0.844964 
66.606384 3.091060 6.589855 0.003158 0.418255 0.908324 
65.368523 2.193225 6.934086 -0.000792 0.298843 0.954302 
65.792244 2.058778 6.975716 -0.002026 0.278651 0.960390 
64.748016 1.431426 7.132363 0.011865 0.195853 0.980562 
65.036598 1.027847 7.203109 -0.000982 0.136816 0.990596 
67.051170 1.268543 7.169140 -0.003307 0.173240 0.984874 
65.227539 0.094185 7.279809 0.004695 0.015534 0.999868 
65.850143 -1.219231 7.176711 -0.000427 -0.171209 0.985235 
66.349854 -1.094465 7.191411 0.002806 -0.148109 0.988967 
66.687691 -1.456415 7.130985 -0.006223 -0.205180 0.978705 
66.570915 -2.015865 6.981435 -0.008882 -0.276896 0.960859 
64.456207 -1.418191 7.131499 0.000430 -0.197113 0.980381 
64.178131 -2.595659 6.798064 0.005721 -0.353429 0.935444 
66.517685 -2.916185 6.664915 -0.006625 -0.406844 0.913473 
64.387360 -4.793185 5.474154 -0.000114 -0.659898 0.751355 
63.408092 -4.957834 5.329353 0.014934 -0.687627 0.725910 
65.423820 -5.328548 4.945276 -0.006380 -0.728631 0.684877 
64.608376 -5.549533 4.712091 -0.001273 -0.765818 0.643056 
65.760933 -5.544034 4.716073 0.000914 -0.759469 0.650542 
65.663956 -5.864395 4.302655 -0.005930 -0.810513 0.585691 
65.000999 -6.119399 3.930263 -0.000297 -0.831528 0.555482 
63.228107 -5.776950 4.422928 0.016906 -0.802396 0.596553 
65.479446 -6.459034 3.349450 0.002202 -0.889697 0.456547 
65.412224 -6.688616 2.850873 -0.005559 -0.918499 0.395385 
65.343102 -6.892944 2.335476 -0.009232 -0.947757 0.318860 
62.981453 -6.969169 2.075694 0.008521 -0.958637 0.284504 
62.581783 -7.068252 1.725083 0.029440 -0.970758 0.238247 
65.167297 -7.158244 1.320779 -0.006710 -0.981339 0.192171 
63.403412 -7.071064 1.705940 0.006342 -0.968763 0.247909 
62.738277 -7.163737 1.293205 -0.000274 -0.984510 0.175331 
65.068108 -7.235085 0.800090 -0.008778 -0.994584 0.103566 
64.943008 -7.267108 0.281979 -0.005239 -0.999103 0.042031 
64.821045 -7.274916 -0.228461 -0.004853 -0.999307 -0.036916 
63.877911 -7.247259 -0.499863 -0.003244 -0.997593 -0.069272 
62.571114 -7.228604 -0.852027 0.001631 -0.994160 -0.107905 
64.596664 -7.170779 -1.254423 -0.001139 -0.985781 -0.168030 
62.447468 -7.157588 -1.320998 -0.000068 -0.981759 -0.190128 
62.823143 -7.084122 -1.652494 0.000592 -0.970492 -0.241132 
63.032604 -6.654265 -2.916991 0.000029 -0.913356 -0.407163 
63.440838 -6.550617 -3.156338 -0.006833 -0.905325 -0.424664 
61.891136 -6.287888 -3.666782 0.001902 -0.859196 -0.511643 
63.998692 -6.288533 -3.665730 0.001418 -0.861265 -0.508154 
63.461613 -5.698533 -4.515233 0.000061 -0.788735 -0.614734 
63.153393 -5.037585 -5.249911 0.001711 -0.699435 -0.714694 
62.129086 -4.894711 -5.381397 -0.001062 -0.678790 -0.734331 
63.512299 -4.753145 -5.509459 0.000937 -0.655885 -0.754860 
63.331055 -4.361159 -5.820727 -0.005300 -0.590045 -0.807353 
62.050369 -3.819379 -6.192994 0.002701 -0.538678 -0.842507 
61.024521 -3.646310 -6.300275 0.005493 -0.493210 -0.869893 
63.015919 -2.147511 -6.948837 -0.004182 -0.283674 -0.958912 
62.328743 -1.741920 -7.046421 -0.006360 -0.248444 -0.968625 
61.039337 -2.027397 -6.973843 0.001332 -0.269906 -0.962886 
60.779781 -1.586656 -7.100705 0.008351 -0.225147 -0.974289 
62.791576 -0.616037 -7.247219 -0.000511 -0.087359 -0.996177 
61.416588 -0.895013 -7.214086 0.007071 -0.114803 -0.993363 
60.681324 -1.000124 -7.202205 0.000515 -0.134667 -0.990891 
61.422012 2.092062 -6.964663 0.000626 0.284197 -0.958766 
60.224277 1.706084 -7.071451 0.004978 0.239261 -0.970943 
61.104351 1.446564 -7.127358 -0.002917 0.199772 -0.979838 
62.825195 1.759096 -7.056198 -0.056690 0.230328 -0.971460 
59.890781 3.163502 -6.553315 0.004471 0.430408 -0.902623 
61.409481 2.982858 -6.628593 -0.002483 0.413734 -0.910395 
61.559887 3.417721 -6.420960 -0.000378 0.467035 -0.884239 
60.366661 4.061996 -6.036915 0.001360 0.563074 -0.826406 
60.282730 4.964660 -5.310845 0.004211 0.684169 -0.729311 
59.838329 5.715638 -4.498554 0.000719 0.790296 -0.612724 
60.270947 6.386537 -3.480513 -0.000737 0.877601 -0.479392 
59.814678 6.482488 -3.295204 0.002758 0.892139 -0.451753 
61.163254 6.678931 -2.886141 -0.006931 0.915853 -0.401454 
60.233471 6.621616 -3.018234 0.000330 0.908681 -0.417492 
59.034912 6.686071 -2.865523 -0.002290 0.917807 -0.397020 
58.890968 6.964539 -2.072956 0.010650 0.961336 -0.275172 
60.262257 7.086644 -1.605634 -0.001412 0.972972 -0.230917 
60.593498 7.274826 0.147557 -0.008485 0.999759 0.020249 
58.775551 7.176407 -1.208850 0.000408 0.984752 -0.173965 
60.225765 7.270627 -0.188839 0.000609 0.999718 -0.023754 
58.424877 7.244977 0.591944 0.004390 0.996844 0.079266 
58.004436 6.875530 2.386683 0.000507 0.943237 0.332120 
60.302532 6.821296 2.539749 -0.009281 0.936805 0.349729 
58.108280 6.688243 2.841797 0.002638 0.917134 0.398570 
58.379364 6.274808 3.688150 0.001699 0.863343 0.504615 
58.920746 5.890079 4.266733 0.003568 0.809190 0.587536 
57.970112 5.612582 4.634719 -0.000365 0.768054 0.640385 
59.473042 5.695738 4.519956 -0.001794 0.783441 0.621463 
58.810333 5.180140 5.090742 -0.001445 0.712798 0.701368 
59.641846 4.715281 5.546075 -0.009794 0.655525 0.755110 
57.886215 4.917206 5.367624 0.001631 0.685157 0.728393 
57.788681 4.564124 5.667853 -0.002036 0.619479 0.785011 
57.263519 4.504877 5.716169 0.003508 0.612328 0.790596 
59.453838 4.354536 5.831939 -0.003497 0.598024 0.801471 
59.127838 3.724450 6.252569 -0.007402 0.512615 0.858587 
58.745537 3.391897 6.437840 -0.002782 0.463274 0.886211 
57.002289 2.858662 6.694927 -0.000763 0.402349 0.915486 
59.040203 2.408383 6.868648 -0.003435 0.334158 0.942511 
57.430405 2.828626 6.708107 0.006601 0.401069 0.916024 
56.790962 2.431329 6.861068 -0.001470 0.327545 0.944834 
58.644939 1.322343 7.157543 -0.000357 0.180218 0.983627 
57.578743 1.275467 7.167716 0.001363 0.173961 0.984752 
58.105476 0.339017 7.271942 0.000601 0.058314 0.998298 
57.307289 0.835685 7.217963 0.001235 0.112855 0.993611 
57.040016 0.369013 7.269482 0.001798 0.060035 0.998195 
56.514156 0.390460 7.268127 0.000739 0.062232 0.998061 
58.293427 -0.158686 7.276623 0.000810 -0.024818 0.999692 
58.387096 -0.715058 7.242136 -0.008268 -0.099847 0.994968 
56.098240 -0.537102 7.250841 0.010949 -0.073076 0.997266 
55.977165 -0.959960 7.213651 0.005849 -0.128591 0.991681 
58.200226 -2.310015 6.900386 -0.003508 -0.311525 0.950231 
56.724987 -1.946428 7.012541 -0.000523 -0.261617 0.965172 
57.918434 -3.090958 6.585416 -0.004821 -0.432299 0.901717 
55.993744 -4.055581 6.037573 0.000705 -0.558792 0.829307 
55.520790 -3.900745 6.138158 0.000304 -0.540239 0.841512 
57.466629 -4.648395 5.601562 -0.002561 -0.638698 0.769453 
57.376434 -5.057110 5.229672 0.000949 -0.699190 0.714935 
55.905781 -4.870128 5.401388 -0.003537 -0.668135 0.744032 
57.228096 -5.440644 4.829640 0.001558 -0.747190 0.664608 
55.364754 -5.349203 4.932001 0.001954 -0.729378 0.684108 
56.052391 -5.741440 4.462047 0.003827 -0.791232 0.611505 
55.744087 -5.913568 4.239904 -0.000476 -0.814902 0.579599 
55.103222 -5.578264 4.678598 0.000386 -0.767156 0.641461 
56.654427 -6.177702 3.836100 0.001293 -0.847095 0.531440 
56.146450 -6.274017 3.691526 0.002348 -0.860940 0.508700 
55.133560 -6.321982 3.609874 0.000489 -0.866116 0.499844 
57.032524 -6.353774 3.552890 -0.003523 -0.871022 0.491232 
54.849251 -6.525581 3.218587 0.001065 -0.898985 0.437979 
54.775043 -6.845535 2.477909 0.005058 -0.940592 0.339502 
54.801426 -7.252249 0.556189 0.001535 -0.996702 0.081129 
56.389587 -7.264212 -0.337092 -0.007786 -0.998748 -0.049410 
55.607014 -7.219519 -0.843280 -0.002220 -0.994338 -0.106239 
54.661869 -7.022538 -1.895336 0.005702 -0.965569 -0.260085 
55.864799 -6.770988 -2.658437 -0.003518 -0.931980 -0.362493 
54.851101 -6.471580 -3.303142 -0.001583 -0.896103 -0.443843 
53.572834 -6.429290 -3.408097 0.001844 -0.887504 -0.460796 
55.448948 -5.702800 -4.514045 -0.002617 -0.785251 -0.619172 
54.181507 -6.111431 -3.951184 -0.003632 -0.834579 -0.550876 
53.245010 -5.684939 -4.542260 0.002342 -0.784881 -0.619642 
53.059029 -4.763623 -5.502284 0.001250 -0.662696 -0.748888 
55.133984 -4.493201 -5.723362 -0.001279 -0.620531 -0.784181 
55.262657 -4.109348 -5.998755 -0.007605 -0.565017 -0.825044 
54.957050 -3.868648 -6.158131 -0.001824 -0.536436 -0.843939 
54.911499 -2.511757 -6.831608 -0.009125 -0.355709 -0.934552 
53.306721 -2.540711 -6.820215 0.002109 -0.359147 -0.933279 
52.791561 -2.502188 -6.835374 0.000460 -0.347435 -0.937704 
52.639164 -2.070349 -6.973150 0.000138 -0.278778 -0.960356 
52.161598 -1.995926 -6.994289 0.021657 -0.270369 -0.962513 
52.979424 -1.704283 -7.067535 0.006018 -0.236168 -0.971694 
52.290470 -1.216364 -7.175503 0.002877 -0.156106 -0.987736 
53.698978 -0.093789 -7.276433 0.002437 -0.027333 -0.999623 
52.616211 -0.354872 -7.268155 0.003950 -0.064833 -0.997888 
52.088039 -0.206266 -7.273092 0.000854 -0.033829 -0.999427 
54.189491 0.031266 -7.278544 0.000864 -0.002369 -0.999997 
51.736252 0.622830 -7.247120 0.010638 0.090577 -0.995833 
52.703583 0.962590 -7.209448 0.002930 0.124760 -0.992183 
52.102612 2.116645 -6.962993 0.004047 0.277878 -0.960608 
53.801056 2.909610 -6.664789 -0.003789 0.405810 -0.913950 
52.067215 3.497545 -6.377971 0.002198 0.473404 -0.880843 
53.605949 4.497220 -5.722374 -0.013841 0.608545 -0.793398 
51.962387 4.961683 -5.315587 0.000894 0.688204 -0.725517 
53.354588 5.186512 -5.098330 -0.008781 0.714583 -0.699496 
52.906040 5.317851 -4.948943 -0.002700 0.727140 -0.686484 
51.170826 5.087623 -5.190672 0.004814 0.705064 -0.709128 
52.476074 5.473708 -4.790375 0.004212 0.743288 -0.668958 
50.714035 6.170105 -3.851403 -0.000488 0.851840 -0.523801 
51.257820 7.116508 -1.499895 0.000729 0.977141 -0.212591 
51.002876 6.993451 -1.984408 0.004086 0.963844 -0.266436 
49.747643 7.279324 0.022905 0.018240 0.999826 0.003835 
49.658539 7.255781 0.585295 0.011381 0.996601 0.081593 
50.552521 7.090127 1.619190 0.001152 0.971246 0.238074 
51.567482 6.481172 3.286998 -0.008367 0.894338 0.447313 
51.784508 6.806856 2.581791 -0.002556 0.934789 0.355195 
49.566872 6.715024 2.769626 0.011141 0.918364 0.395581 
49.131264 6.595477 3.070226 0.026395 0.907257 0.419748 
50.653690 5.882297 4.271249 -0.002542 0.810635 0.585546 
48.953060 5.690107 4.540588 0.002777 0.783187 0.621781 
51.087315 5.244726 5.037505 -0.006637 0.714327 0.699780 
50.977562 4.820856 5.446815 -0.004952 0.666819 0.745203 
49.708569 5.313919 4.951738 0.002461 0.721199 0.692724 
48.727318 4.317558 5.851230 0.002142 0.589405 0.807835 
50.817715 4.141926 5.979194 -0.003813 0.565265 0.824901 
48.886429 3.504289 6.375340 0.005267 0.471528 0.881835 
