29.168399 0.000000 34.415088
28.761274 0.000000 62.549214
30.849299 14.878006 27.415374
19.895764 14.336827 100.000000
1.266726 9.370661 31.642577
35.120987 9.415806 66.276380
9.398077 4.676023 65.072021
25.088577 18.454533 9.796051
35.128742 9.394744 59.446927
37.411211 1.550952 55.688326
15.486545 19.889504 81.366045
4.739300 15.368613 98.032375
5.933933 10.623909 100.000000
6.577578 16.741599 85.376136
17.661238 0.000000 49.703360
26.632906 0.000000 9.467562
13.110146 14.270763 100.000000
36.179143 7.061300 90.236152
8.709124 5.795322 0.000000
19.842601 0.000000 28.987077
24.837529 18.560007 6.515271
5.541932 6.902370 18.811162
26.132704 0.000000 76.790828
34.304360 10.826109 35.715651
37.476969 0.398862 87.010470
27.950070 3.860689 100.000000
12.518529 19.345016 25.540384
6.332516 6.445926 29.531969
1.141756 11.483744 61.419092
29.076714 16.301102 33.816138
0.460477 9.836149 75.992767
24.925122 0.000000 45.966661
31.814133 13.899436 50.668535
28.470553 11.753130 100.000000
28.470359 0.000000 2.409425
4.740388 7.365141 22.914410
15.446605 19.884811 86.425898
19.264388 1.570918 99.948762
24.411815 0.000000 79.040095
18.409166 0.000000 2.691107
29.257847 0.000000 15.703573
36.969571 4.361636 0.977668
37.354714 2.355071 69.198742
37.349606 2.397594 50.978266
35.650516 8.126567 98.597041
4.984390 7.224267 59.443830
26.927054 6.660316 0.000000
4.704045 7.386124 84.013010
34.851071 0.000000 56.892198
9.403488 4.672899 2.146660
35.220798 9.227194 68.520709
3.520206 14.302647 73.455581
10.315184 18.653802 83.545884
32.874941 12.248303 0.000000
22.993036 0.000000 66.375356
9.447040 4.647755 67.311927
17.384987 0.064779 24.709525
29.699973 0.000000 87.262939
7.230430 5.927515 70.466053
5.023957 7.201423 30.925413
35.475536 0.000000 46.293955
2.359496 8.739750 95.631498
27.820824 17.114841 78.227720
10.348207 4.127465 80.263115
22.503858 0.000000 67.732471
17.570097 0.000000 45.840234
37.108625 3.726335 12.833669
31.068228 14.687628 79.455804
7.327098 17.200308 41.734102
15.414005 1.295659 98.550493
13.298454 2.424139 96.283481
14.115718 1.952292 71.897703
23.346270 0.000000 0.586867
8.797203 17.972528 23.155579
4.760263 9.612760 99.996966
32.227515 13.482455 98.100988
22.732047 0.000000 10.955732
1.178445 11.488910 0.961109
33.427933 0.024790 98.309067
24.994845 17.190293 0.000000
16.841756 0.378413 11.821483
34.762583 10.078189 41.942811
15.582207 19.900743 35.584803
24.809665 0.000000 42.595380
7.794994 5.601564 8.137452
33.307265 12.223803 54.135494
35.801025 2.011219 99.949872
19.561021 7.239114 100.000000
21.563741 19.576238 54.234692
34.250107 0.000000 10.979710
13.118523 2.528023 29.095279
32.797260 12.878953 92.117884
0.727128 10.865632 76.258632
35.936565 7.688534 45.444097
0.180033 9.998064 73.603778
17.168409 0.189820 38.365042
17.400235 0.055975 44.185440
15.568441 19.899126 48.088617
3.582967 14.362512 80.257367
32.623345 8.069046 100.000000
25.100570 9.397442 100.000000
24.671901 18.225236 99.185109
12.980297 3.856417 0.000000
7.970129 17.584762 90.823007
14.060449 19.673494 29.539017
37.224527 3.230640 44.422725
9.405631 4.671662 22.847202
34.608610 10.344343 11.366519
30.394296 0.000000 59.484431
8.692165 17.920659 14.018787
19.525785 0.000000 88.461974
20.374733 0.000000 41.370207
34.533707 0.000000 54.115745
36.234351 6.867737 55.570750
21.341892 4.661816 100.000000
5.496957 15.998105 54.828679
34.447929 10.607392 19.548067
29.795339 0.000000 90.611639
35.153149 0.000000 41.489984
21.055714 19.677142 87.786047
28.001251 16.975443 16.174082
21.005241 19.685951 63.749218
3.654591 7.992027 38.525376
6.543489 16.698883 33.340432
15.273536 19.864477 78.886052
33.214154 12.346702 55.859126
13.113609 2.530860 18.629438
9.531334 4.599087 25.143104
22.368720 0.000000 39.085956
33.199971 2.453732 100.000000
10.123638 18.574762 19.730001
32.551259 13.122162 20.598771
7.779790 5.610342 60.633251
0.296864 9.930611 67.619533
6.989196 17.007068 78.827704
2.062936 12.710092 95.457603
23.890051 0.000000 1.462925
36.523583 0.000000 13.853931
4.723443 15.328447 42.317547
17.844259 0.000000 63.017193
20.059417 0.000000 47.348517
24.542512 10.209537 0.000000
28.178624 0.000000 90.969587
21.599460 0.000000 47.602540
6.141499 10.233376 0.000000
14.439330 1.765454 45.995171
32.658246 0.000000 43.961192
21.823886 19.517128 60.067082
37.414002 1.468444 48.006758
37.460561 0.574560 7.990343
24.373719 18.772611 60.272659
3.055385 13.808503 82.100792
33.673874 11.733209 65.526049
21.549890 19.579385 86.205895
32.698472 0.000000 77.425015
2.029495 8.930276 11.876684
2.293355 12.979310 72.784802
3.568000 8.042020 80.292773
35.218044 9.177703 8.675691
30.236153 0.000000 88.467262
16.029134 8.601526 0.000000
37.364308 1.953271 5.037333
1.659876 9.143676 36.706771
4.109227 7.729543 51.413380
10.631202 18.777691 31.124578
23.607686 19.024796 11.513863
9.865274 18.461671 73.666644
6.423077 16.637001 82.757354
5.594456 6.872045 47.632137
1.328198 11.760439 74.462599
34.127301 11.079188 42.028088
37.495592 0.031497 93.299130
27.803896 0.000000 49.698467
14.554715 1.698837 69.639455
7.217831 5.934789 12.079902
16.399069 19.958890 55.805365
33.432897 12.022188 5.369078
36.989222 4.430063 86.221380
15.397398 1.212313 10.164296
34.036531 11.179865 9.235594
7.337344 17.204457 37.578771
8.591618 5.637928 99.237053
29.785578 0.000000 0.987612
31.288742 14.454612 30.580460
22.289259 19.372640 0.541425
37.364762 2.255237 61.377105
13.487021 19.584265 52.411574
18.366586 0.000000 43.786072
35.444095 8.774180 39.600165
32.309589 0.190767 98.846663
20.201034 0.000000 67.617508
29.859013 0.000000 41.128732
28.166346 16.914002 97.842065
11.389721 19.002562 7.822483
22.799807 19.258785 46.924819
31.163860 0.000000 2.051500
32.599279 0.000000 22.252669
35.325354 8.983276 20.220724
6.603155 6.289673 91.551885
24.664178 18.640115 37.902797
9.958787 18.502343 60.173174
15.392829 1.214951 90.161799
30.428134 15.233899 75.294340
31.634733 14.089007 27.557933
12.773380 7.012431 0.000000
34.837759 9.903585 8.062516
12.778228 2.724492 19.787028
33.997393 11.253177 32.162917
5.011432 7.208654 4.497015
17.523843 0.000000 27.000517
30.257578 15.378023 67.678460
32.568711 0.000000 31.080755
12.064921 19.203253 6.922702
13.380512 19.564239 39.127683
11.637573 19.094285 66.615353
10.939412 3.786133 29.901027
36.297585 0.000000 76.624985
0.761671 10.895547 32.523515
2.495643 8.661146 27.054092
15.068867 19.821106 16.444130
30.690074 15.006081 15.616092
19.613443 19.863237 49.716636
8.584513 5.145735 15.034618
16.953355 19.974406 89.647653
1.022264 9.511801 14.208306
17.477896 0.011138 80.647244
32.071212 13.645818 59.331570
22.982831 10.652931 100.000000
34.440867 10.618183 84.195358
17.021471 0.274655 87.272559
26.736896 17.727288 72.308482
25.303357 14.761260 0.000000
8.326834 17.755494 16.548080
33.924887 11.366492 46.745679
11.056450 18.910900 34.727375
26.853318 17.661683 35.759163
35.911493 7.758417 12.846277
24.311999 0.000000 43.670961
16.823943 0.388698 63.667875
13.288428 2.429928 37.740688
37.456690 0.798910 77.714895
25.847182 0.000000 72.893458
14.779660 1.568965 71.184446
27.459079 0.000000 23.762378
29.334975 0.000000 42.138769
36.875867 4.895109 52.706639
15.389561 19.878109 55.128932
31.662699 14.080045 74.722568
33.685462 11.669432 6.588374
7.450675 17.283029 60.820237
35.128701 9.356441 17.496777
34.808083 10.007104 90.464168
1.268528 11.679504 94.306117
28.870932 0.000000 51.269621
6.442016 16.648109 57.334856
25.505208 18.286528 57.519275
30.399944 15.257720 61.203777
15.252205 6.677746 100.000000
3.917722 7.840108 79.364210
17.688777 19.973103 70.184782
16.306924 19.962325 97.381280
22.139121 0.000000 24.214855
3.522985 8.068010 88.364477
21.137753 19.662825 24.487433
30.322861 15.309094 30.935149
12.281509 3.011273 5.847047
35.898199 7.795471 51.238332
36.461783 6.269271 63.787601
27.077304 0.000000 50.436515
7.969863 14.449695 100.000000
37.419401 1.534492 97.408769
6.019406 7.947556 99.804679
26.475590 17.871143 75.550759
28.559431 16.639802 10.263849
37.320939 2.636258 49.819980
28.912742 16.421336 67.020395
13.004459 19.487222 29.271618
3.031425 13.755763 0.971775
6.571022 16.718473 37.127846
23.857749 0.000000 93.342259
17.783617 19.973979 93.576431
10.413281 17.864760 99.567030
8.210583 17.626668 98.440667
4.984786 7.224038 75.526828
22.817531 0.000000 36.188877
25.356494 18.343426 22.036321
19.207026 11.627806 100.000000
1.344595 11.758131 28.417124
34.605929 1.247179 99.849133
35.108652 9.455121 95.987849
15.930068 0.904776 38.604252
8.320262 17.755968 24.350292
36.565655 0.000000 33.185085
6.127223 16.436705 61.529967
24.609340 12.496496 100.000000
3.109997 8.306448 26.226240
0.179135 9.998582 63.193370
7.917052 17.553932 74.538431
9.410834 4.668658 48.173506
9.530348 18.317648 87.265350
8.825967 8.502012 0.000000
35.961352 0.000000 66.424935
8.572357 5.152753 87.039004
12.579209 19.360855 19.370347
29.201138 16.209867 58.311671
16.747228 0.432989 30.217864
14.796589 19.792415 42.779001
16.499974 19.969238 81.343619
5.958902 6.661632 75.498800
7.170293 5.962235 2.681302
19.487973 0.000000 34.964393
7.414607 5.821180 48.473717
24.940355 0.000000 76.416715
37.120233 3.697608 24.162964
37.270530 2.962948 66.532775
31.036979 14.719413 50.624627
34.057154 11.204535 96.502344
24.267883 18.811239 40.279698
8.776534 11.114256 100.000000
14.927407 19.812895 43.797406
9.695073 4.504553 91.354177
9.651204 18.370997 53.322481
27.269100 9.113429 0.000000
11.066802 3.712585 56.891556
24.777456 18.594529 46.929785
13.113200 2.691365 98.727901
31.034425 0.000000 79.967312
2.916541 13.641089 21.440407
19.014093 0.000000 5.985813
28.718149 0.000000 25.375822
13.173140 2.496490 85.011798
1.354638 11.765772 19.497167
24.469752 18.732338 63.182816
29.883239 15.692211 83.973872
22.514234 6.998845 0.000000
36.175584 7.022331 2.287667
36.779242 5.291522 63.280500
18.189136 10.150926 0.000000
12.919705 2.642811 82.393385
37.146889 3.552545 16.534694
2.254767 8.800215 25.848515
27.521549 0.000000 77.036733
13.819860 19.643317 42.956056
2.332569 8.755296 58.542330
17.693831 4.888005 0.000000
1.032393 9.505954 92.605483
32.314502 2.151694 0.000000
2.014315 12.649799 45.926992
16.597709 0.519314 86.131861
21.645782 19.557597 28.022668
11.411475 19.017103 30.175329
5.650221 16.113599 59.592536
17.730109 19.972490 55.719791
1.050336 9.495594 63.438634
10.481168 18.726627 46.275425
2.516267 13.225477 98.077590
0.563965 9.776401 22.652027
29.097626 16.285768 31.865674
33.786640 11.581430 73.161538
30.677072 14.453744 99.221095
17.084958 1.389515 99.730308
0.744047 10.892239 70.823193
27.618740 0.000000 27.762302
27.370919 17.370007 60.531372
16.525354 19.789961 98.822803
4.326032 15.005483 67.455916
29.325030 16.103512 23.189211
31.682683 0.000000 63.082768
19.612664 19.862648 85.637456
25.668627 18.215161 43.375220
28.329121 16.798472 51.976600
2.326357 8.758883 9.153757
35.699715 8.261904 47.246155
29.165915 16.226942 16.416057
17.704725 19.973409 78.057263
29.423095 16.047115 69.698532
34.770342 10.071692 60.148548
27.246693 0.000000 48.760831
0.920334 11.169467 92.383921
17.638937 0.000000 14.103255
11.033589 8.540726 0.000000
36.249801 0.000000 6.470888
21.082725 19.672428 78.949491
20.348333 17.222760 0.000000
6.185644 6.530723 86.126404
9.359285 4.698420 40.855817
30.068467 0.000000 92.100497
12.712164 19.416776 80.747649
33.510096 0.000000 1.260236
5.084144 7.597704 99.162234
32.041849 0.000000 47.540312
28.212093 0.000000 14.674067
23.363393 0.000000 96.112317
16.833076 19.955284 28.473163
35.226993 9.216218 91.488506
26.125110 18.025566 62.495079
35.935485 0.000000 17.396921
27.295480 0.000000 67.204712
11.658266 7.496005 0.000000
15.360703 19.874718 95.479932
18.405675 11.018957 100.000000
21.500060 0.000000 72.458076
0.847388 9.612766 35.493368
37.387433 1.625409 6.364684
9.443582 4.649751 13.872334
30.565689 0.000000 64.134856
35.361300 0.000000 37.537205
28.249035 8.089111 0.000000
20.231009 19.794855 71.021344
4.827408 7.314900 97.610977
10.579023 18.761898 41.731105
7.402951 5.827910 81.403012
35.506038 8.652891 43.040437
26.899592 0.000000 91.857496
32.814076 12.858948 72.893886
20.902132 0.000000 18.733623
30.694592 15.003127 16.747065
3.165879 8.274185 1.384886
15.240802 1.302724 70.269118
8.651380 5.107129 24.445927
2.456828 13.163986 75.958069
29.878727 15.694417 81.574705
15.683005 1.047418 59.574686
12.715617 19.408204 38.046715
5.749816 16.181198 81.249303
4.203617 14.908453 85.631042
5.310744 15.825866 10.045693
19.991402 19.823408 67.764870
10.608824 11.713424 0.000000
9.617700 18.351535 35.627980
2.583419 13.281962 40.812414
30.039007 15.547401 49.730614
32.502346 0.000000 66.228130
35.003756 0.000000 78.188939
8.460103 5.217563 67.827376
22.658655 18.539548 0.000000
30.387230 15.253791 24.520635
11.646786 19.090078 38.266972
19.721228 14.668888 0.000000
3.432218 14.209108 53.516795
34.952062 9.717355 43.166684
14.637201 1.651214 88.936938
2.597350 8.602425 70.915491
4.353684 7.588405 7.165935
20.276016 0.000000 55.013601
10.400467 4.097293 51.059877
36.681514 5.646796 38.646798
37.314517 2.689721 70.149705
9.757680 18.415035 85.818834
7.189091 5.951382 46.485506
26.892768 6.901941 100.000000
27.157223 0.000000 53.697083
1.276346 9.365107 13.028753
30.895696 0.000000 49.822461
34.141926 0.000000 0.223587
14.659876 1.638122 90.990003
32.751040 10.983264 99.820831
23.368222 10.278181 0.000000
37.443485 0.000000 71.191012
37.204144 3.288393 20.325093
36.264627 6.834010 93.610686
13.945612 2.050503 93.344664
2.420050 13.126441 81.257038
37.415375 1.383938 36.210551
11.711983 19.108956 36.792688
1.261166 9.373872 34.456287
35.454818 5.363814 99.847326
12.103393 14.372039 100.000000
13.971933 2.035306 11.828599
20.253406 0.000000 31.534681
22.696790 19.282050 38.154878
24.613729 18.666113 50.495255
12.906442 19.463599 72.223936
25.166548 18.426522 39.344181
34.266294 0.000000 77.484718
2.172251 12.843644 85.899198
22.576495 19.326099 62.040239
36.527766 6.062838 37.636042
13.192404 2.485368 92.836321
13.113965 2.530655 16.977535
1.218387 9.398570 87.926580
33.494272 0.000000 85.810975
28.356521 16.777459 42.855371
7.496185 5.774081 78.707334
22.965211 19.225100 92.824095
28.236647 16.867736 84.265904
4.405216 15.081623 86.778890
0.876938 10.977006 0.000000
16.555511 19.968425 76.841821
16.593485 0.521752 41.867022
27.627864 0.000000 10.771915
8.186029 17.690663 14.881034
13.872178 19.656683 95.508528
12.385338 19.319632 65.088995
31.024882 14.729634 41.442273
23.357841 19.106941 72.898807
35.496667 0.000000 85.280244
26.242679 17.970012 27.016898
37.448859 0.953377 81.657560
13.084676 19.506555 46.021130
3.223174 13.978672 14.139193
21.403250 0.000000 81.653045
0.180714 10.006345 39.304080
21.387249 6.510229 100.000000
37.091044 3.947379 98.116184
27.927704 0.000000 71.964143
8.342036 17.776833 87.387825
3.141690 13.895657 26.132560
34.361988 10.738718 39.983866
10.701738 3.923354 79.345124
18.959319 19.929727 80.183083
30.929854 14.809935 20.503638
18.667624 0.000000 85.686458
17.241709 0.147500 22.155327
5.105519 7.154333 9.259586
2.368904 8.734319 77.590407
34.281332 0.000000 50.020112
20.651535 0.000000 37.020159
25.708375 15.497352 100.000000
23.845185 0.000000 19.729418
33.882758 0.000000 51.179603
4.795524 7.333309 57.224999
6.344007 6.439291 76.578143
33.661329 11.749958 64.509492
17.821872 0.000000 28.349965
27.806254 3.170703 0.000000
36.753160 5.398525 4.292130
36.891113 4.832563 73.594509
22.891032 15.441411 0.000000
28.246743 0.000000 73.079646
6.268749 16.426702 98.522803
5.104449 15.660957 37.730856
31.641827 14.081510 66.687756
3.285506 8.205118 91.080031
0.767198 10.928646 81.520565
17.065218 19.956682 23.337227
30.224632 15.370955 2.311926
30.454954 15.211235 56.121645
10.656009 18.785702 36.137548
24.404207 0.000000 69.485291
8.445112 17.811749 21.992655
25.691270 18.209842 68.874490
35.762534 8.135086 16.439303
15.675705 19.911729 74.974784
11.258630 18.975075 53.292164
32.039428 0.000000 39.520025
27.645390 5.828443 100.000000
16.316176 0.681857 10.066895
6.362251 6.428759 10.643373
37.146847 3.682657 73.647012
28.795095 0.000000 63.630772
8.114157 17.651654 0.707639
15.548190 19.889537 6.683579
23.387496 9.243437 0.000000
33.990608 11.303251 82.455290
37.446517 0.999588 52.306620
6.336244 6.692170 98.901625
36.181523 7.005778 25.352162
21.086339 0.000000 24.468385
35.523812 0.000000 80.556613
14.270447 1.862959 75.003332
1.124243 9.452924 42.995833
36.949168 4.546384 38.170757
30.868179 14.862052 55.095204
30.294218 15.330954 29.103302
36.516014 6.076727 24.586275
5.652933 6.838283 51.240540
16.929688 19.968751 63.073152
3.539185 8.058657 8.306027
19.736699 0.000000 23.112129
29.299222 16.137945 68.379301
19.801763 19.828096 20.807154
3.616318 14.390760 28.418058
30.658517 0.000000 86.649440
21.013272 0.000000 38.231849
8.890448 8.919823 100.000000
1.421298 11.886721 78.003773
3.398677 14.173451 31.379889
19.575664 19.866609 81.019945
33.238182 3.571307 0.000000
33.662456 11.743691 58.696922
35.131652 0.000000 28.887399
14.449310 4.847919 0.000000
3.527120 14.309997 71.274765
19.876221 12.416533 100.000000
36.047156 7.380291 3.481628
36.112424 7.228491 78.134125
13.321692 2.410723 91.553825
4.906484 7.269246 73.003552
10.056822 18.545529 34.524034
29.874426 8.546370 0.000000
35.267684 9.134073 86.538751
5.904854 16.286160 26.918414
21.617108 19.564112 90.316953
34.099871 11.105948 27.576247
37.442880 1.071336 61.466150
2.558119 8.625075 24.386576
32.237890 0.000000 75.143463
26.354010 10.739728 100.000000
3.301119 8.196104 24.994066
36.626494 5.794119 35.763392
1.054761 9.493039 97.051350
5.227572 7.083866 82.899010
18.599785 0.000000 30.716695
31.818903 0.000000 35.647727
20.678718 19.725404 37.211565
34.740866 0.000000 60.194095
24.769010 0.000000 49.509554
9.277424 4.745682 61.911035
33.362985 12.150257 51.248797
16.555832 19.962396 59.641071
10.717029 12.098332 100.000000
4.781941 15.406625 92.413471
16.445957 10.990851 0.000000
8.586991 5.144304 52.619862
2.921995 13.652175 28.941233
2.036417 12.677694 67.312551
29.874686 3.859252 0.000000
8.180760 17.693774 91.918659
28.966449 16.381955 28.707188
21.311371 19.632526 61.995098
0.457618 9.837800 55.386208
6.438670 6.384638 74.453049
7.910627 5.534803 69.801213
34.618925 10.330819 30.779427
1.983895 12.590781 8.308458
1.031878 9.506251 93.997587
24.629420 18.649189 14.304998
16.122154 1.640041 0.000000
17.015047 19.974112 83.435320
14.604348 1.670181 60.968069
25.911985 18.107677 15.054097
34.278248 10.866681 58.279306
2.289316 12.945040 28.087708
32.185093 13.536023 87.212595
10.103240 4.268897 58.246280
37.138487 3.731302 75.807616
25.154455 8.221637 100.000000
28.033785 5.734957 0.000000
1.334257 11.768659 81.671184
19.662061 19.843973 16.998716
17.490080 19.956506 6.144209
13.311721 2.416480 94.607874
22.131144 19.431298 33.471562
24.377754 18.772766 65.781743
28.354865 16.781254 48.322296
12.090715 3.121428 56.868541
3.484319 8.090333 64.242726
21.412034 19.319458 0.000000
24.404777 18.768656 89.260342
24.287055 18.810692 72.000046
30.104540 15.479545 23.505728
23.665156 1.122788 99.794433
36.779111 5.292060 85.570496
9.462987 4.638547 90.030053
24.166102 0.000000 26.811584
4.207150 14.891169 20.274869
19.965677 3.786412 0.000000
4.094485 14.795746 43.212038
36.714373 5.534469 15.117939
4.721267 15.326603 13.279103
22.281897 19.380093 11.619819
34.755545 10.082566 32.031275
5.641226 6.845042 60.149711
7.025880 16.988411 4.581451
3.843560 7.882925 70.734794
10.965745 3.770930 5.457187
2.348482 13.008704 24.466473
7.239855 17.148672 48.222563
37.468154 0.572764 42.863450
33.883509 11.411399 30.573071
34.925321 9.765123 39.546253
31.690234 11.096747 99.996588
25.499773 18.286061 40.921424
33.042229 0.000000 17.965195
11.406414 19.022415 75.495031
29.433797 16.039267 79.892060
37.489350 0.154633 85.973027
0.977292 9.537766 73.118336
7.694342 17.424567 47.363333
4.118032 14.815690 52.820399
6.791896 6.180703 55.628237
23.919698 0.000000 79.938559
36.570911 5.985264 73.796585
27.804154 17.096014 22.259627
27.158379 17.488580 37.374484
37.437528 1.176908 88.434276
1.269809 11.665034 50.470541
21.097924 0.000000 0.007336
23.925074 0.000000 15.869285
11.579322 3.416681 85.345499
14.825488 19.811834 96.329927
35.256523 9.151598 60.484187
3.010795 8.363722 87.027741
33.373992 12.135728 92.504686
26.092106 14.522177 100.000000
37.115907 3.832084 72.588058
34.159394 0.000000 52.403111
23.305780 0.000000 56.544885
23.541806 0.000000 58.587790
10.692830 3.928497 70.963710
34.527180 0.000000 47.017893
17.715139 19.968549 31.637985
34.826988 9.974751 77.100579
6.753048 9.768953 100.000000
33.500624 11.968584 91.102772
37.341332 2.466479 58.478484
3.357754 14.129947 77.465771
34.867957 9.904638 78.794835
35.481312 0.000000 30.855775
22.094087 19.428919 8.591995
14.740165 19.763186 0.692037
23.209397 0.000000 40.794297
2.501848 13.220047 91.842427
27.696242 0.000000 41.735781
19.343726 0.000000 13.862359
37.151037 3.521226 11.627424
33.079168 12.524872 69.597232
24.566552 18.673555 1.183335
11.761546 3.311474 52.572480
29.323970 16.108694 30.576241
12.025570 3.159039 51.496332
20.312596 0.000000 13.257456
36.022971 7.485852 92.713256
25.869278 11.135629 0.000000
27.054396 10.421191 0.000000
1.236766 9.387959 86.464840
24.232116 18.830309 54.591597
37.462901 0.000000 26.703938
31.398491 14.361300 89.288580
24.996495 10.508732 100.000000
11.898871 3.232189 33.609717
33.953262 0.000000 28.596636
33.079800 12.524038 19.743571
17.650805 0.000000 47.127789
34.679027 10.227964 72.033556
37.492522 0.092058 53.131834
26.541442 17.837429 2.421247
17.471525 0.014816 20.128559
10.779797 3.878287 69.502679
11.612226 3.397684 97.811628
35.948614 7.654951 0.956409
32.165237 0.000000 76.274783
3.288459 8.203413 69.802465
33.679131 0.000000 56.634602
9.264302 4.753258 27.492346
7.660191 17.404730 86.646343
24.484711 2.589678 0.000000
11.318149 3.770458 98.813808
36.430086 6.312972 5.995335
7.414326 17.261916 57.861927
18.041689 10.019809 100.000000
35.829053 0.000000 25.692555
26.779597 17.701197 11.905186
4.760614 15.383673 80.756079
3.386310 14.160305 94.348475
13.811806 2.127756 32.357349
17.555110 19.960206 14.136928
24.345559 18.776669 36.812693
15.033778 1.422250 38.123079
26.050106 18.058022 67.191065
4.919330 15.494355 7.105632
27.470405 0.000000 65.974353
22.982833 5.455259 100.000000
30.698446 0.000000 53.912696
31.106121 0.000000 56.942865
17.830862 0.000000 22.958261
11.935596 19.182384 55.791543
31.649096 14.073830 43.938804
34.136797 7.205857 99.988106
28.558375 16.656005 79.202769
18.948296 0.000000 53.450857
36.304668 6.727016 94.697800
18.823646 19.942987 96.844891
10.170652 4.229977 37.894616
21.199407 19.651194 14.152082
32.646484 13.019898 1.290917
10.929167 18.872212 57.327833
17.494140 19.973328 72.370277
29.787197 6.476257 100.000000
26.523241 0.000000 15.159792
8.423925 5.238450 40.436448
32.936421 7.074384 100.000000
9.159204 18.141850 33.399513
23.273966 19.116632 16.396462
36.582971 5.921160 44.549828
25.847543 18.121731 98.320025
26.602077 17.803260 18.550007
2.361043 13.049605 64.827167
7.010806 16.977096 1.463683
37.344822 2.321482 20.707976
15.411111 1.204396 26.761809
31.233091 14.520930 91.365187
37.486044 0.168247 1.230524
27.933195 0.000000 64.199589
31.121923 14.630889 23.970327
10.264699 4.175679 84.114460
23.775254 0.000000 75.914262
10.086019 4.278840 71.886594
25.962661 0.000000 7.713285
5.558798 16.037618 6.409587
33.029171 0.000000 8.179066
13.393630 2.369190 59.841362
37.473262 0.471990 91.116863
29.137300 16.242829 4.439007
29.163062 16.237786 35.095916
26.957333 0.000000 44.253972
32.793345 0.000000 58.981872
8.107532 17.656061 30.914743
8.444303 5.226685 1.347153
10.406861 18.692433 96.477511
16.681263 19.974766 93.828290
36.129390 7.151084 37.977133
15.805253 19.926950 46.958797
17.837471 0.000000 93.554584
24.357084 4.928614 100.000000
3.976245 14.695602 74.543302
37.422015 1.242656 27.984337
16.233478 19.957448 80.220324
34.243652 10.917159 43.182651
36.085839 7.289985 73.039305
29.674332 15.817361 12.166372
36.851834 4.993707 44.035820
8.381770 5.262788 8.959735
6.552576 6.318874 14.266771
33.350734 0.000000 24.878700
11.096158 18.172939 0.000000
2.808642 8.480436 55.767015
37.117940 3.836378 78.538915
10.953799 3.777827 81.379672
14.553008 2.854561 99.732066
29.521254 0.000000 76.507478
13.102197 19.510778 70.468262
2.719111 13.451015 83.924191
24.378751 18.777950 91.608275
37.429143 1.015820 5.426171
33.135904 12.449985 67.599301
5.616608 16.088270 84.648189
0.271442 9.945289 15.322454
35.664621 8.332750 24.966804
36.313455 0.000000 93.995899
9.822943 4.430727 44.842040
3.311377 8.190182 14.012430
34.785894 10.025311 98.113996
1.826724 9.047346 97.929887
10.961135 3.773591 19.844951
34.284796 0.000000 55.646312
33.135757 0.000000 33.514919
27.752958 15.073637 0.000000
14.470430 19.748834 55.511043
37.328794 2.570865 28.755222
23.822246 18.967182 51.476890
36.171965 0.000000 40.671906
18.917443 19.935678 35.936313
6.878364 16.934336 74.430413
27.529632 17.251789 7.071778
25.247559 18.399178 66.404851
31.959207 13.765797 65.047712
4.885102 15.476102 45.348377
10.535529 4.019315 55.814404
21.171688 0.000000 74.416551
23.363370 0.000000 69.378309
31.139682 14.612123 14.671303
22.979859 19.220691 75.707662
6.772600 16.870881 80.778292
12.896763 19.460239 32.796475
15.860248 0.945087 6.286679
21.237791 0.000000 82.651556
4.663601 15.296815 71.424233
33.854839 0.000000 92.666702
23.786376 18.972766 3.125476
35.723268 8.210966 6.896787
18.991140 19.923388 6.551999
28.209282 16.861145 34.975245
27.708682 17.147803 12.332981
1.902352 9.003682 93.587576
0.556280 10.596958 68.375374
35.261517 0.000000 23.659771
5.630423 16.098680 12.687477
29.421703 0.000000 38.220731
9.463069 4.638500 52.705944
10.171170 4.229678 61.572330
17.796907 18.021261 99.996098
17.236949 0.150248 82.074587
25.420075 3.716006 0.000000
13.241152 19.538037 20.535535
23.108795 2.070700 0.000000
26.906266 17.631846 95.676695
20.324802 19.781270 66.329807
10.666418 18.790319 63.382633
34.400007 0.000000 5.755295
9.312957 18.224717 84.514353
7.598272 17.368763 72.070213
31.862180 13.874525 83.247563
26.057014 18.054512 63.624961
22.357088 0.000000 88.412892
6.820939 8.721348 100.000000
14.046169 19.664947 16.541318
20.741264 19.723309 51.339509
36.064080 7.333119 47.011667
9.507760 4.612698 50.153426
18.872784 0.000000 54.568680
9.107249 4.843933 93.714331
18.695155 0.000000 32.142209
37.312774 2.704234 29.777257
19.465185 0.000000 15.254446
15.863744 0.943069 56.182963
30.979302 14.768151 35.943940
9.159268 18.158417 95.214692
27.862622 0.000000 40.602211
6.619863 16.761412 58.355614
18.724797 19.954418 61.953040
16.623280 0.504550 5.685265
19.104375 15.524978 0.000000
7.071624 6.019202 43.110666
13.795255 6.814598 100.000000
32.022891 0.000000 85.901365
1.157227 11.494593 46.551031
10.930998 4.498892 99.440171
3.471852 8.097531 89.991442
23.895802 18.945046 35.915737
8.633579 5.117407 47.587657
19.135057 19.912091 70.817319
19.917562 19.831077 95.264558
2.623040 8.587593 80.703177
31.319791 0.000000 23.228959
35.087135 0.000000 89.648421
19.125247 19.912862 77.035176
18.030306 19.971178 28.423890
7.242993 5.920262 63.515933
36.328046 0.000000 23.411812
36.206399 0.000000 58.741150
10.801090 3.865993 92.986397
7.249278 5.916633 19.608528
37.111558 0.000000 46.739742
37.444343 1.006090 43.871052
29.970440 0.000000 20.234866
1.259799 9.374661 95.677898
7.905374 17.547148 9.975360
32.694342 0.000000 21.086055
25.034156 18.483753 45.593589
36.184374 0.000000 34.440964
20.018096 19.800022 18.061433
24.510113 18.716944 68.872105
17.749572 19.973961 92.537252
9.335453 18.216358 20.531662
33.377398 12.122414 33.255205
10.634099 3.962406 85.201021
20.758132 3.341759 100.000000
28.688427 0.000000 37.464475
34.758358 0.000000 92.185143
10.293820 4.158866 8.612871
35.006673 9.637050 69.417245
17.636222 19.973321 74.689362
29.520721 0.000000 30.417768
28.535241 16.653504 8.877692
37.332232 2.443643 9.700489
37.441377 1.100983 60.164314
36.351727 6.531376 39.122993
2.478046 13.194743 88.302475
2.889956 13.144820 99.091190
5.990280 6.643516 19.920454
32.770345 12.910971 74.896620
17.855239 19.973686 87.571718
14.846793 1.530206 30.474184
12.371498 2.959318 50.456155
10.461801 4.061882 68.475815
15.502267 1.151767 60.853153
14.078231 19.667006 10.746034
20.193209 0.000000 56.785364
23.207479 19.144718 37.158071
16.465492 0.595649 80.610074
25.555248 0.000000 15.882412
29.104140 0.000000 29.309407
1.922932 9.009550 0.000000
31.091507 14.663030 32.905132
21.427068 17.464579 100.000000
4.786014 7.338799 85.122275
3.497842 14.278872 76.359929
24.552731 18.681030 11.026314
14.894457 1.502687 84.117074
36.225829 6.882286 17.489617
16.329831 0.673973 90.277129
37.432906 1.228126 54.149822
13.828365 2.118195 29.708251
33.297728 12.236391 41.534288
14.053746 1.988072 48.841780
20.106622 16.627189 100.000000
31.065464 0.000000 9.270745
35.414640 0.000000 10.173422
23.883558 0.000000 86.666241
30.482003 15.188379 53.109378
35.918601 7.738605 75.996710
17.697442 0.000000 29.710745
34.176986 11.016708 50.839290
37.458081 0.651792 15.528924
32.675726 13.005327 47.977766
1.305471 11.729613 91.571345
21.062125 0.000000 20.006263
3.980195 14.719798 92.477021
36.205989 6.976857 79.175199
10.693119 5.957129 99.980325
8.119228 5.414367 73.183489
35.876302 0.000000 72.469547
6.361086 6.429431 82.216213
19.840631 0.000000 89.538736
36.912587 4.668446 15.882583
34.488370 10.545593 29.672302
15.599498 16.600091 0.000000
10.915619 3.799870 38.648327
32.266571 0.000000 2.420980
23.548418 19.044792 19.831532
37.393168 1.594529 15.899377
14.629337 10.978339 100.000000
30.567864 5.699803 100.000000
8.472932 17.828811 31.897085
33.618009 11.760626 2.522458
21.241147 0.000000 43.936248
25.112139 0.000000 2.163591
15.042260 1.417352 46.994519
0.411679 10.369559 57.710215
7.451300 9.074081 0.000000
6.664288 6.254377 26.572827
27.411168 0.000000 2.422552
34.761734 10.063214 23.801898
29.969620 0.000000 45.247343
2.696218 13.406295 38.349592
26.986155 17.461676 98.614574
30.270154 0.000000 8.085164
6.987164 16.967976 11.854910
4.648667 7.418097 69.369850
24.473231 18.729076 58.030003
20.959876 19.675776 1.078854
34.888497 0.000000 71.796236
37.402814 1.571691 37.254097
25.332247 0.000000 43.895160
19.831532 0.000000 24.140268
31.638878 14.084627 46.809733
9.992329 18.508894 5.996612
15.202200 19.155540 0.000000
35.920428 7.733511 8.953200
30.408497 0.000000 73.650954
25.315976 6.764667 0.000000
36.005322 1.024786 99.743994
26.920656 0.000000 19.299143
0.823510 10.966127 6.442742
1.142353 9.442468 50.729815
37.414019 1.327450 22.309025
26.145766 18.010340 23.414170
2.009235 12.644485 75.146420
35.431882 0.000000 13.699383
27.885664 12.840967 0.000000
9.850310 18.455024 78.754372
10.395750 4.169818 98.475556
22.007532 19.475400 87.262692
6.107883 16.423613 78.657418
25.874408 18.130434 56.452902
30.409192 0.000096 0.000000
30.091105 15.518695 78.881358
2.797318 8.486973 79.664836
17.896948 7.103568 0.000000
24.217331 18.824689 16.145048
25.326995 18.368073 75.250396
23.268486 19.133831 84.682868
28.956928 0.000000 44.930444
23.672930 16.331396 100.000000
6.084801 16.407986 45.876148
30.918012 14.819943 87.810816
20.482436 8.275005 0.000000
35.134477 9.366538 40.592085
6.901661 16.924818 31.408972
4.903824 7.270782 54.565162
13.609839 19.607358 57.270730
1.629564 12.169215 49.222381
11.519614 3.451153 37.307527
1.280214 9.362874 90.199479
20.535421 0.000000 95.162721
18.836691 14.484280 100.000000
5.017307 15.601256 74.964579
1.736228 11.799329 0.000000
9.405715 4.671613 4.383401
31.109522 3.414117 0.000000
5.196371 15.759542 87.124315
37.243711 3.119003 89.242985
37.455827 0.624034 4.497928
18.121596 19.970970 24.846077
0.807741 10.949759 15.090841
12.732839 2.750698 64.794933
37.104200 3.840545 52.438163
37.399649 1.422218 1.586125
20.102914 0.000000 58.505440
25.999451 18.081011 76.786076
2.463670 8.679605 14.644556
21.352432 0.000000 41.583036
18.780297 17.365209 0.000000
20.321521 0.000000 7.726214
36.371425 6.539956 88.460193
1.116015 11.402837 9.129819
5.340707 7.018547 22.028392
33.539677 0.000000 35.327102
16.699289 0.460667 55.793880
33.166092 12.410139 79.439038
20.028440 19.813687 55.117565
27.582884 0.000000 25.329112
35.035411 9.541505 24.988234
32.391364 13.289481 5.751911
9.946342 18.497496 27.460737
5.851757 16.250213 30.750755
36.419042 6.407946 85.326429
7.395174 6.431664 99.341277
5.508086 16.006491 96.003836
7.938183 5.518893 25.096400
2.986822 13.728394 34.681541
9.389788 4.680809 16.812203
31.636516 0.000000 21.023821
36.939857 0.000000 22.526429
35.893131 7.809595 88.095418
8.514208 17.845838 27.931881
0.880091 9.593885 54.400433
16.113785 19.949500 40.818415
24.450288 18.736992 52.359133
23.659394 13.855560 0.000000
17.702612 11.435825 0.000000
8.986734 9.594518 0.000000
36.433231 0.000000 21.582598
0.905873 11.115046 39.001707
7.261089 5.909814 36.656285
2.285745 12.937926 23.393868
34.631939 10.308546 59.047180
33.730773 11.643424 53.015805
6.896878 16.956404 92.735358
16.116758 19.940107 13.344105
22.291956 0.000000 1.203433
34.658748 10.262668 44.403695
31.677579 0.000000 58.100469
27.035128 17.559230 54.564955
37.491210 0.117936 39.087584
3.342296 14.113513 70.177233
30.023945 0.000000 31.598937
15.380463 1.222091 35.057414
9.667680 18.360161 3.830579
34.083379 7.956488 0.000000
20.866132 12.039322 100.000000
36.070795 7.314403 60.094148
5.113428 15.669070 38.778668
2.034427 12.675263 55.389113
10.721108 18.807962 74.086572
1.104357 11.442608 79.090187
8.654246 5.105474 81.966804
14.689035 14.355808 0.000000
8.931804 18.042813 43.461920
27.703461 17.157085 24.343771
19.176886 16.221802 100.000000
16.727128 0.444594 79.225530
27.421347 17.329817 33.349384
18.734939 2.686464 100.000000
2.889751 13.632420 80.348909
19.140943 0.000000 8.234410
5.158775 7.123585 46.392395
6.426089 6.391902 69.838300
8.745437 17.943376 10.571367
29.108252 16.277976 76.203705
29.833503 0.000000 2.394069
6.108338 16.407384 5.560103
24.396515 0.000000 13.140613
23.151511 15.367561 100.000000
25.443760 18.324798 95.390247
26.934018 17.616207 47.216530
13.074630 19.504134 55.381562
13.964974 2.039324 67.710392
23.480805 19.069936 68.906618
14.733810 3.318437 0.000000
13.075850 2.552660 40.178905
36.390638 0.000000 69.749129
31.153371 14.597658 61.150282
16.949381 19.956525 27.442196
6.339713 16.580563 79.886144
37.490193 0.137990 74.159284
37.191907 3.420450 64.791119
36.184245 7.020040 64.743609
4.210193 7.671250 0.983962
6.765332 6.196039 66.612930
8.946625 4.936669 12.883791
9.979371 4.340413 14.999118
36.854384 0.000000 77.970574
33.498397 0.000000 5.193409
23.764394 16.456947 0.000000
31.406595 14.330078 42.791723
22.782474 19.280093 86.026185
8.452349 17.822739 39.321197
14.972569 19.829115 97.394597
15.186522 19.854253 54.102551
36.478673 6.215835 56.540186
31.532973 14.196536 9.736678
37.100257 3.862097 53.606412
33.945365 11.341969 51.900256
2.202156 8.830590 7.923848
5.078130 7.170146 32.327046
23.354597 19.107917 43.716323
0.254950 9.954811 59.690780
28.300979 16.820073 61.378277
36.794019 5.230897 17.693422
14.141322 19.701563 61.630209
14.869845 1.516897 48.178645
34.631261 0.000000 9.015454
36.248549 6.840184 59.041918
28.697355 0.000000 70.349327
22.090296 15.251485 100.000000
14.311895 19.733997 74.659903
36.540100 6.092062 95.661190
1.221950 9.396512 5.715976
30.999685 0.000000 11.583218
22.543368 8.743806 100.000000
21.846550 19.511978 81.785355
18.840465 19.941084 3.862457
31.341745 8.012730 100.000000
4.751823 15.382030 95.417783
13.759921 19.635576 75.563235
8.598764 17.892927 47.299535
16.897202 0.346402 93.445070
36.651007 5.749128 65.588917
9.742870 18.394898 4.983405
29.138363 16.255897 60.911793
1.941498 12.561731 60.916541
7.746733 5.629427 22.378128
18.173058 0.000000 95.104133
5.052694 7.184831 21.043076
3.892558 7.854636 44.201947
24.673535 0.000000 21.819099
8.343872 17.777779 88.529490
15.160720 19.851222 87.639447
8.880410 4.974898 74.012911
33.771528 11.599545 69.381610
36.293226 6.694433 12.396987
17.794561 19.973789 89.070022
17.585645 0.000000 42.501224
33.666716 0.000000 79.778636
20.976497 0.024442 98.309307
17.756477 19.970570 35.774991
20.865642 0.000000 3.433872
35.171016 9.329222 93.758148
20.524404 19.752505 56.702974
29.058997 0.000000 40.450924
27.688241 17.158119 8.706119
2.066290 8.909033 40.441318
35.675405 8.310979 46.230272
16.266838 19.954633 48.861673
4.095608 14.796698 44.685745
23.900049 0.000000 84.578468
24.586460 0.000000 35.695635
32.362737 0.000000 16.907257
24.347331 0.000000 28.168295
13.784118 19.630817 28.578531
34.910148 9.832435 85.724793
7.323282 5.873907 57.976236
22.819453 0.000000 57.694349
35.897089 6.974730 0.000000
23.309235 0.000000 55.298345
20.805501 19.703216 21.390928
18.860956 0.000000 58.641823
0.993697 11.216519 3.476091
26.303171 17.940212 1.445309
37.406908 1.650052 62.397954
1.694996 12.257966 61.990364
32.487317 0.000000 89.685190
31.404403 14.332395 58.803938
28.076249 0.000000 16.444907
3.671186 7.982446 2.445737
23.795012 18.975378 45.137008
26.703993 0.000000 56.097159
18.919451 0.000000 63.630784
17.859348 0.000000 68.725793
35.908544 7.766637 54.543798
31.732886 13.985289 48.842401
27.859459 4.435004 0.000000
20.206927 0.000000 33.475386
31.196831 0.000000 95.217153
1.129748 11.437585 26.712925
15.709893 1.031894 62.890277
0.185134 10.013296 26.007974
36.283791 6.720732 35.491467
5.187369 15.721372 19.978843
4.799675 7.330912 52.595113
15.408766 1.205750 4.133538
30.208265 0.000000 71.709631
12.242199 3.033969 28.671973
37.357390 2.072632 8.527361
22.948895 0.000000 52.114558
25.286420 0.000000 78.402638
29.928190 0.000000 28.009595
29.296488 16.139950 90.132492
1.037197 11.312117 41.438567
34.537637 10.469931 3.271770
23.464938 0.009657 98.122704
33.754912 11.632945 90.144162
37.374896 1.988940 39.567416
15.465301 13.230697 100.000000
8.585906 5.144931 4.742682
24.389535 18.773803 83.572498
37.056717 4.072332 54.705148
30.431337 15.229589 43.466966
2.090067 12.729863 39.114832
3.502198 14.283503 78.602039
11.872657 19.145189 4.636160
7.965050 6.907775 0.000000
33.741552 11.591690 7.601662
37.354183 2.133545 11.163207
17.533647 0.000000 88.200529
12.290509 3.006077 36.737321
4.281733 14.954337 18.359111
22.068451 8.220545 0.000000
9.472099 4.633287 7.783814
1.230078 9.391820 48.623672
28.571512 16.647360 75.229996
2.456742 13.130413 25.674867
25.506075 0.000000 3.340449
23.267394 19.134160 52.525219
22.032787 0.000000 71.506119
19.328080 0.000000 55.935768
1.924088 12.540460 52.743466
24.685388 0.000000 93.960233
3.565046 8.043725 52.904643
11.895841 12.135325 0.000000
21.457018 0.000000 11.347700
30.438007 0.000000 34.810151
19.403460 0.000000 81.079105
8.394686 17.803948 75.622985
13.550989 2.278338 46.423347
22.023276 0.000000 73.371513
10.239899 4.189997 26.804463
36.285466 0.000000 92.914020
9.992293 4.332953 45.861859
11.870740 19.150195 20.094244
31.165215 14.585143 2.599839
0.404031 9.868739 9.611686
5.065049 7.177698 89.965435
36.983637 0.000000 44.373428
35.826134 7.996334 93.774738
28.333056 16.770069 1.266096
5.973120 7.698712 0.000000
4.463045 7.525266 36.425211
25.597372 18.243003 29.856487
6.293465 6.468472 83.388985
0.836123 11.032583 64.920879
8.168993 5.385635 36.323333
32.857883 0.000000 68.088784
13.176791 19.525936 27.672283
12.168086 19.254406 63.572241
24.695786 0.000000 24.201115
36.748465 5.417785 96.531974
30.029063 15.552397 44.673356
26.200475 17.992543 55.307106
26.228926 0.000000 33.388701
1.002220 11.269258 52.589247
9.377892 4.687677 42.436144
7.298123 5.888433 82.691473
11.975312 19.191479 48.228661
21.607999 0.000000 28.667102
22.016495 9.665212 100.000000
36.488952 0.000000 60.446324
12.115915 8.506835 0.000000
26.143605 18.010058 16.230665
1.811090 9.056373 45.026689
16.547985 0.548022 67.315869
37.323282 2.552764 5.941483
11.383692 3.529628 86.381558
34.503891 10.521876 79.807901
36.953607 4.518987 35.522208
37.420729 1.164984 10.397950
20.339796 19.767167 36.013982
1.361119 11.805094 82.699628
17.792224 19.973890 91.526099
27.903640 0.000000 44.751534
35.884586 7.123183 98.978643
3.007339 13.732783 6.857677
30.358546 15.292703 74.191705
36.218809 6.901853 28.611081
3.025337 13.776560 49.037218
3.442159 14.219676 84.696600
4.303706 14.972948 54.130847
33.415505 0.000000 65.761706
35.591370 8.480627 33.784997
16.099193 0.807132 54.684403
26.276813 9.002092 100.000000
37.353843 2.209586 24.146901
12.841165 19.433733 5.209342
11.884626 3.240414 54.192416
37.325777 2.595975 56.179652
37.496063 0.022204 31.669244
20.475918 19.761817 64.801367
10.409854 14.667729 100.000000
37.123143 3.668182 17.550479
33.408936 5.632779 0.000000
12.506918 19.340447 22.457920
18.598003 0.000000 67.973802
15.987605 0.871557 69.672076
37.397168 1.899240 82.123109
4.765601 15.383795 70.420359
23.321991 19.100832 10.471472
20.298502 0.000000 90.999332
15.357840 1.235152 52.807844
17.031014 17.104490 0.000000
36.645853 5.766418 61.015703
37.488016 0.180951 37.388144
2.302791 12.943201 2.723813
13.642207 2.225674 27.041708
15.701726 3.789712 0.000000
6.089474 16.411149 44.848339
24.008592 10.998301 100.000000
36.835556 5.060491 53.962882
29.766594 0.000000 78.855382
17.412751 19.974361 96.567407
9.327238 4.716922 0.963920
5.498490 13.653467 99.982644
3.010222 13.749664 27.377338
26.412271 0.000000 59.448387
11.192004 3.640299 1.878463
4.933109 7.253874 2.191390
7.835759 17.506711 19.502948
0.249441 10.114424 60.816216
23.722367 0.000000 91.772923
33.722982 0.000000 91.627464
11.673477 3.362321 84.268840
0.692403 10.782856 20.522656
0.261473 10.133346 12.888615
9.412764 18.267257 88.436337
28.833656 16.474113 5.813933
36.962197 4.533024 58.919660
27.065626 11.479142 0.000000
4.115691 14.813706 37.581478
35.121328 9.380865 28.797888
21.990994 0.000000 34.754530
27.788326 0.000000 55.433139
1.194382 9.412429 91.244042
12.009984 19.194208 27.184563
21.483033 19.594576 68.450740
8.560472 5.159615 50.013675
29.830457 15.726644 70.626192
19.749150 0.000000 20.060570
1.000199 10.900868 98.888034
17.069338 19.964462 45.356923
7.308763 5.882290 65.144190
30.351696 0.000000 67.540671
8.235571 17.721316 33.123087
9.407724 4.670454 8.805457
23.239166 19.142655 95.492226
26.145599 0.000000 70.281648
15.922435 19.936793 88.410018
21.553292 19.578612 22.141272
1.186411 11.534609 42.460345
36.059496 7.357200 74.457696
13.013828 19.489480 89.537616
35.966372 7.605455 34.316728
32.390787 13.307426 53.888156
35.568615 0.000000 83.581144
1.722739 12.294472 35.075556
32.041325 9.642305 0.000000
21.718671 0.000000 44.851080
0.503869 9.811097 95.118092
5.975900 6.651818 11.648520
21.033869 0.000000 48.570445
0.181807 10.008063 21.679568
4.761859 15.360983 34.826680
37.490807 0.125885 80.878936
9.130829 4.830319 45.728215
1.797219 9.064381 72.251476
14.837254 9.357898 0.000000
35.593995 8.470850 21.039694
25.054872 18.475686 48.032578
8.343231 5.285039 41.888614
36.430559 6.328666 40.634956
4.632627 7.427357 38.433164
28.283938 1.198833 0.000000
36.636979 5.796182 79.489132
26.657767 0.000000 83.929254
37.348530 2.226240 13.130122
33.654795 11.742190 43.534591
16.154462 19.952201 82.921700
26.316601 17.798603 0.000000
1.282346 11.698246 93.218174
31.634843 0.000000 90.385286
14.278560 1.858275 56.965154
32.098530 13.598917 10.445803
6.005141 6.634936 45.260366
13.605800 19.590062 0.974306
4.091925 14.793578 3.734695
12.303480 2.998588 12.397962
3.178612 8.266833 84.877030
19.744778 19.849760 68.761570
36.889473 4.839289 51.459342
35.328482 0.000000 77.141004
7.156861 17.111616 75.769463
7.898921 17.543400 54.866307
11.387747 3.527287 24.778113
36.700017 5.584729 39.853835
34.048259 11.168404 15.391224
30.684108 0.000000 65.427431
32.616246 0.000000 92.109800
2.687603 13.407270 54.265803
4.441131 7.537918 3.351607
37.371000 2.012692 33.595482
36.439319 0.000000 82.897417
22.540889 0.000000 64.049289
25.515391 18.278184 33.216564
18.997829 19.926981 48.400578
24.333772 0.000000 30.292617
32.316067 13.381016 39.880020
0.861153 9.604819 41.066070
36.905501 4.773535 47.997832
17.099935 18.756409 99.834542
27.144558 17.478033 0.824444
19.145915 19.912415 32.684008
11.528773 3.445866 68.843386
1.280168 9.362901 74.285507
21.874660 5.704429 0.000000
12.002988 3.172077 4.275237
2.709906 13.420329 36.469206
16.788889 0.408936 88.739659
9.380234 18.252928 96.929551
1.490150 11.959451 10.153456
16.737771 0.438449 49.957335
11.848371 19.160616 74.379648
19.537640 13.368532 0.000000
11.535389 19.061705 54.336127
11.387940 3.527175 3.394650
34.647002 0.000000 4.645762
33.506427 4.470603 100.000000
23.773780 0.000000 29.457652
29.559447 0.000000 24.717041
8.253326 5.336946 38.665603
2.804052 8.483086 17.848343
16.927797 0.328737 28.767190
17.619290 0.000000 48.381164
19.405667 19.874168 12.624991
35.589514 8.484372 80.387416
10.361276 9.357701 100.000000
14.586988 1.680204 85.933731
27.556110 17.265650 75.203671
36.553291 5.983435 27.938387
36.123724 7.166876 39.998223
9.201133 4.789729 63.131639
6.105112 16.421737 40.721361
32.751309 0.000000 28.881173
34.291262 10.829463 17.132637
9.526137 18.308147 31.775510
7.820771 17.498005 69.411414
26.874231 0.000000 28.482243
11.126300 3.678234 83.440363
15.392386 1.215207 77.409474
28.151998 16.919875 82.841119
30.973345 0.000000 3.038922
1.069462 11.375481 60.351870
36.238363 6.847350 32.229482
11.754365 7.380032 100.000000
18.070827 19.972537 62.842417
16.330993 0.673302 92.483644
37.388613 1.675438 18.620429
10.591184 3.987183 76.411975
9.943834 4.360930 94.186468
33.078325 12.525985 61.719724
8.286009 14.619184 0.000000
11.543281 19.065096 72.795240
1.846195 9.036104 54.522958
11.271001 18.980472 83.852589
15.568428 4.890029 0.000000
12.457962 13.395440 100.000000
3.523414 8.067762 61.324366
34.952406 0.000000 15.164736
14.204148 1.901237 77.106007
29.723290 15.799367 48.319769
11.104574 3.690777 8.143124
25.081227 18.466138 53.218408
9.703357 4.499770 54.162551
33.554494 11.857755 12.651730
12.465406 2.905100 85.675814
28.509001 9.215418 0.000000
2.545286 8.632484 64.283964
11.866463 19.155969 39.625766
28.175898 16.897801 67.597622
18.363349 0.000000 90.051975
29.135994 16.246047 8.142541
32.712068 12.960853 30.799588
34.696277 0.000000 81.805948
24.268335 18.812370 44.143608
18.202140 19.972798 71.626050
10.346989 4.128168 89.878574
20.596376 0.000000 93.921712
5.211927 15.757573 49.036032
2.646799 13.331570 9.011177
17.613980 0.000000 53.155078
3.165624 13.925696 35.698240
18.682575 0.000000 65.126995
10.962394 18.882741 60.037163
0.721022 10.856030 97.697112
12.844672 2.686131 11.264645
27.741189 17.124294 4.278940
26.504951 0.000000 24.070457
18.463956 0.000000 48.918208
9.782397 18.415966 11.911770
8.901049 18.018237 19.647140
0.370011 10.288218 1.253862
28.255240 16.831848 31.255578
4.729129 7.371642 87.953589
36.174512 0.000000 2.829346
29.374183 5.545840 100.000000
5.466431 14.165605 0.000000
29.478426 16.004911 64.482190
2.353680 12.998730 0.765994
37.337013 2.502436 63.406381
28.117707 0.000000 34.028736
35.700014 8.253202 4.507174
0.900466 11.112321 45.505558
36.287215 0.000000 12.691337
6.907423 16.916162 9.602852
14.261191 19.703071 27.326213
29.860241 15.693834 55.348048
35.024234 0.000000 68.304567
26.775501 4.789927 100.000000
30.603637 0.000000 36.160588
8.832886 5.002337 72.536745
8.899909 4.963641 66.266009
24.335288 18.771051 0.170627
36.881484 0.000000 38.176194
29.675170 15.812882 5.674486
7.593932 17.366242 40.210176
16.467376 19.947080 19.450639
3.115829 8.303081 7.327017
37.491704 0.108196 18.956562
16.649543 0.489387 48.578162
28.896667 16.433124 11.600751
36.923138 4.701177 64.167497
20.181922 9.495653 100.000000
12.194015 3.745515 99.420320
14.995039 1.444616 32.407842
27.846499 16.378969 99.437695
33.977095 6.828007 0.000000
21.124675 14.821617 0.000000
35.715189 8.230665 29.430356
32.189177 13.519199 52.601843
36.690999 0.000000 48.674247
8.632143 17.926242 89.814855
6.154444 16.435999 4.482781
18.709714 0.000000 10.054686
11.859731 19.139688 0.055523
6.161844 6.544464 79.594394
6.138709 6.557820 18.058665
2.360345 13.040104 51.729059
18.900271 0.000000 66.354048
16.006499 19.942375 64.861234
11.380030 3.531742 28.970417
35.105907 0.000000 38.937732
