33.130011 0.000000 92.442975
80.000000 36.783130 145.944776
0.000000 29.863302 71.207938
5.903718 41.667221 160.000000
80.000000 5.673708 19.573651
57.020269 50.000000 23.794693
62.197631 50.000000 12.894775
25.129319 50.000000 141.418955
61.595870 0.000000 34.166084
0.000000 24.881303 50.405113
80.000000 16.444506 33.982290
80.000000 48.866968 93.007220
43.499554 50.000000 103.305524
27.268753 50.000000 33.332263
23.528721 0.000000 114.470890
40.032391 50.000000 148.333318
17.731012 27.615757 160.000000
45.476220 0.000000 127.857912
80.000000 25.406262 51.831555
80.000000 18.458908 27.178372
43.923136 50.000000 45.082612
75.950098 50.000000 100.394732
24.804552 50.000000 103.006110
80.000000 11.782434 82.137978
42.683814 50.000000 147.930801
50.175815 50.000000 78.677013
48.918484 0.000000 60.411928
7.034203 1.594380 0.000000
60.221355 50.000000 3.257097
34.887132 50.000000 1.819443
48.493287 50.000000 133.582658
17.331036 21.465813 0.000000
64.562838 50.000000 59.532790
80.000000 15.728205 103.899261
35.189136 0.000000 36.893207
9.102122 50.000000 21.147320
80.000000 23.058036 54.066074
0.000000 16.385677 46.300778
40.839620 50.000000 70.749896
0.526322 50.000000 38.570861
49.781362 11.951625 0.000000
0.000000 33.963274 120.435070
80.000000 38.088298 103.273197
33.115093 0.000000 140.613060
49.961377 50.000000 123.837442
60.151732 50.000000 76.789785
77.059876 26.951448 0.000000
54.949314 50.000000 117.236951
80.000000 31.311789 152.489975
0.000000 34.391382 102.509536
60.337425 0.000000 98.159606
32.715325 50.000000 72.640560
52.344700 0.000000 141.023764
60.019578 0.000000 157.299135
18.311391 4.537453 160.000000
31.221827 0.000000 44.766238
0.000000 28.162343 142.546010
0.000000 11.515182 80.103449
76.847562 0.000000 94.444366
56.068412 50.000000 31.545365
24.606596 47.849137 160.000000
40.223750 50.000000 35.637721
53.432302 50.000000 79.558631
46.410286 4.647393 0.000000
75.463553 0.000000 97.081953
8.657346 50.000000 81.478498
28.610922 29.882009 160.000000
13.126582 50.000000 93.122002
7.689002 50.000000 88.457012
4.815344 50.000000 118.078472
46.116115 0.000000 101.951531
30.421356 22.380423 160.000000
35.674959 30.853095 0.000000
45.347006 7.062626 160.000000
53.574527 50.000000 105.474042
78.514663 0.000000 66.764460
3.912484 0.000000 130.237365
80.000000 3.062377 43.658217
80.000000 21.207107 59.589308
80.000000 41.560606 37.431755
80.000000 26.612097 1.720940
51.531343 0.000000 139.066903
27.487354 38.228777 0.000000
21.751604 50.000000 8.408522
37.560884 35.883867 160.000000
0.000000 12.913288 153.014341
0.000000 31.685773 90.520149
79.977500 50.000000 108.782283
20.889787 50.000000 114.326800
65.163470 27.631578 0.000000
67.534793 0.000000 96.810071
49.087277 50.000000 33.210240
36.664421 21.833111 160.000000
0.000000 37.697647 65.211540
61.467241 50.000000 60.093482
42.472326 16.213165 0.000000
6.665792 45.069731 160.000000
7.243843 50.000000 55.006926
6.891504 50.000000 118.761150
0.000000 12.307507 76.289822
80.000000 16.501162 43.901538
4.684529 50.000000 126.747256
60.539240 50.000000 102.028768
2.654487 50.000000 2.141227
0.000000 32.319963 114.037497
14.050492 0.000000 128.405427
36.381363 0.000000 26.920648
0.000000 19.307414 65.206863
5.846021 0.000000 14.257200
59.003941 0.000000 46.923958
32.423468 23.514141 160.000000
0.000000 30.183117 19.729116
28.605154 50.000000 120.064455
51.082577 50.000000 62.667815
80.000000 29.074884 106.484279
0.000000 24.879112 54.973320
15.141067 0.000000 99.078257
17.811161 50.000000 34.282872
16.906350 0.000000 6.180183
0.000000 25.431411 147.748413
80.000000 15.015751 121.229896
63.242957 38.642793 160.000000
56.515384 0.000000 54.992960
39.684597 50.000000 138.986474
0.000000 22.595379 134.535163
0.114802 0.000000 82.156785
0.000000 3.351703 120.279961
80.000000 9.654541 79.070597
54.315918 0.000000 79.526144
73.711169 50.000000 72.758233
68.710973 50.000000 73.221380
80.000000 38.500735 69.183128
80.000000 38.713723 110.732243
47.968008 11.840880 160.000000
13.927977 18.640685 160.000000
8.184781 50.000000 124.684636
80.000000 14.474981 76.897876
77.858122 34.704874 160.000000
37.824914 32.196144 0.000000
27.705798 50.000000 158.213027
66.808666 10.576392 160.000000
0.000000 39.611107 0.335056
62.125222 31.442643 160.000000
31.551248 0.000000 30.297676
80.000000 11.389866 105.962514
7.681402 23.341126 0.000000
26.689130 50.000000 62.789550
80.000000 8.210683 47.613391
72.797833 47.900809 0.000000
80.000000 13.584335 87.254845
9.300192 0.000000 67.481054
80.000000 12.773199 18.446648
0.000000 49.428025 99.452446
80.000000 19.773240 22.460127
18.730163 50.000000 159.416208
0.000000 32.764919 6.898764
6.349699 50.000000 138.752826
80.000000 31.254815 155.380271
0.000000 5.036835 59.361466
4.963401 50.000000 82.906774
67.530366 50.000000 156.402924
0.000000 5.215748 96.256497
31.633330 0.000000 133.236677
80.000000 13.417266 61.346930
80.000000 5.559434 28.341039
80.000000 48.046431 141.956461
80.000000 45.547913 80.213396
35.060678 50.000000 24.258416
80.000000 22.699342 75.812222
80.000000 49.928042 115.332634
0.000000 9.912114 61.890806
74.163606 0.000000 62.195076
80.000000 37.431002 20.137192
80.000000 40.371368 44.472113
65.256677 38.295257 160.000000
72.182939 50.000000 24.150286
0.000000 37.346291 147.981839
30.885091 50.000000 90.240304
24.738920 0.000000 127.593454
22.105758 0.000000 139.740230
43.385273 0.000000 143.070917
3.013657 0.000000 116.631293
56.180829 50.000000 135.770762
31.986719 0.000000 61.245314
80.000000 10.436860 4.653768
0.000000 29.533781 24.242998
26.798205 0.000000 111.820717
80.000000 37.867732 63.453093
80.000000 33.624716 124.375539
0.000000 29.013232 29.074679
35.916329 50.000000 111.680214
68.867694 39.777177 0.000000
76.966378 50.000000 44.385420
18.061857 21.768574 160.000000
0.000000 32.888627 74.758137
16.228744 36.681188 160.000000
16.721173 39.743409 0.000000
38.798362 0.000000 144.588011
80.000000 28.723245 135.005346
80.000000 25.002755 27.137325
4.899235 50.000000 132.610803
46.304635 33.097445 160.000000
43.943361 50.000000 13.596074
10.569935 0.000000 122.083067
36.409551 0.000000 110.115337
80.000000 31.239626 8.534386
71.715265 50.000000 124.772514
25.056593 15.678514 0.000000
0.000000 43.340923 62.164610
77.822142 50.000000 149.756728
9.903688 12.915996 160.000000
74.166362 13.630297 160.000000
57.355068 41.506160 0.000000
80.000000 46.453695 22.688850
0.000000 19.036704 5.336824
7.427639 50.000000 51.989480
68.223456 9.023169 0.000000
20.969620 50.000000 16.549768
0.000000 11.141420 121.326213
58.273044 3.121548 160.000000
44.239095 0.000000 37.305088
80.000000 22.544510 5.765219
0.000000 17.644087 123.166043
0.000000 6.783299 45.753948
45.226377 50.000000 70.011499
15.623810 27.146491 160.000000
2.913703 11.517775 160.000000
78.074656 0.000000 104.797386
28.718916 26.917039 0.000000
80.000000 42.666067 149.372601
12.349753 0.000000 76.819867
30.999893 50.000000 111.547369
0.000000 25.581256 115.123919
80.000000 10.216157 56.527023
58.850081 0.000000 75.763340
0.000000 40.940697 150.467288
41.535282 0.000000 22.552135
41.976895 50.000000 157.902669
80.000000 11.390389 119.024330
8.609989 10.212848 160.000000
0.000000 7.857732 110.847940
80.000000 13.441098 152.987251
18.893362 0.000000 30.924647
25.368389 0.000000 74.123962
0.000000 35.475931 69.501515
0.000000 15.586211 149.677475
19.271597 0.000000 153.775926
36.044745 50.000000 13.130861
0.000000 30.829825 22.594939
80.000000 41.439326 60.162558
0.000000 33.348451 15.460572
80.000000 9.066406 23.822242
80.000000 40.417913 33.218139
48.364757 50.000000 79.652762
12.797355 50.000000 88.553862
18.300666 50.000000 89.777166
48.452472 0.000000 11.905538
56.610087 26.798209 0.000000
80.000000 13.080518 146.822983
51.429718 0.000000 3.438023
75.519491 50.000000 7.244220
77.642679 0.000000 137.422976
80.000000 33.135225 32.869982
17.070875 0.000000 113.409272
1.698954 50.000000 34.672613
32.959111 50.000000 55.542510
9.226615 0.608138 0.000000
53.100923 0.000000 36.936699
80.000000 1.748894 41.916240
0.000000 47.476456 65.327682
40.371604 50.000000 116.767878
4.040022 0.000000 79.670290
0.000000 24.829187 138.696280
76.238296 0.000000 59.801113
9.997303 0.000000 42.067432
43.547568 8.345872 160.000000
28.430546 0.000000 109.714125
62.824339 50.000000 153.455498
4.366049 45.877827 0.000000
36.170664 50.000000 109.672332
70.426856 0.000000 3.455663
62.930647 0.000000 157.074357
9.055900 50.000000 140.391115
51.892449 50.000000 28.287115
80.000000 4.899710 130.446015
34.533976 50.000000 120.712775
38.910515 0.000000 57.596910
62.678087 50.000000 88.692762
47.748200 0.000000 145.061973
40.543084 0.000000 117.994360
0.000000 9.742529 131.484339
0.000000 1.985946 149.308761
34.476693 49.474451 160.000000
76.709189 0.000000 87.080138
68.860743 50.000000 29.870321
18.903594 0.000000 97.109104
27.830927 25.686092 160.000000
61.914947 16.990311 0.000000
39.798440 0.000000 158.046370
59.086824 50.000000 145.146321
0.000000 45.015265 84.075601
80.000000 47.180312 148.562028
50.080539 30.877835 0.000000
45.446077 50.000000 147.032177
0.000000 19.322472 23.334835
0.000000 37.837386 105.415963
12.617133 0.000000 108.299342
0.000000 42.041619 38.966005
80.000000 37.937366 37.693672
80.000000 14.294588 74.290128
0.000000 6.054290 148.767838
22.171134 0.000000 142.371065
15.603574 50.000000 72.487312
4.527811 43.722561 160.000000
64.582185 0.000000 58.419869
21.535866 0.000000 71.860903
41.110767 50.000000 3.495043
78.006546 50.000000 46.354759
1.673524 35.223012 160.000000
9.760158 8.733369 0.000000
0.000000 7.685363 26.027424
0.000000 29.108083 157.896553
24.941754 50.000000 49.376466
43.298089 50.000000 87.185432
80.000000 14.794940 101.971455
55.322439 6.949664 160.000000
35.846235 0.000000 38.791059
41.420398 0.000000 27.232433
80.000000 12.179878 91.874930
80.000000 2.905410 123.229051
0.000000 0.267311 17.583252
80.000000 10.278644 83.718479
76.677217 50.000000 67.634778
80.000000 43.210149 96.391127
80.000000 16.050975 135.942310
64.598969 50.000000 71.612049
80.000000 44.868042 53.458183
8.794879 48.860107 160.000000
80.000000 45.766665 134.760600
40.579360 31.973038 0.000000
0.000000 27.710066 30.742517
80.000000 32.237956 139.962616
0.000000 21.295539 63.708400
54.037922 50.000000 74.856322
62.609503 0.000000 47.884015
27.647342 50.000000 9.931302
0.000000 33.485960 125.021505
52.236994 0.000000 90.836273
0.000000 22.002013 81.224926
42.859061 50.000000 127.263060
59.410998 0.000000 82.714486
80.000000 30.370316 58.993091
62.888381 0.000000 57.298737
35.843758 0.000000 67.362545
32.411817 0.982648 160.000000
28.902505 50.000000 80.239402
66.413626 50.000000 31.046463
31.140388 42.306780 160.000000
13.713402 50.000000 137.428213
3.193560 50.000000 152.363666
0.000000 5.098225 9.568796
10.060767 50.000000 144.607132
76.885314 28.965704 0.000000
41.912884 0.000000 76.114193
46.753946 0.000000 62.165287
32.129864 50.000000 49.362729
80.000000 11.874305 89.415484
57.447153 16.721909 0.000000
2.848935 47.697884 160.000000
4.092059 0.000000 74.846222
60.353434 50.000000 27.481485
80.000000 37.657679 134.189369
0.000000 40.136624 114.491822
49.009251 50.000000 120.672330
0.000000 7.018047 43.764879
80.000000 32.788996 153.900648
43.642917 0.000000 112.077594
25.420599 0.000000 133.555506
32.893983 0.000000 21.614426
25.121872 0.000000 151.428849
80.000000 18.251934 153.604723
0.000000 44.804784 98.118263
44.002267 50.000000 125.152534
0.000000 5.908202 101.050583
3.722307 49.954048 0.000000
19.765473 50.000000 39.392589
0.000000 17.797922 106.983799
80.000000 1.035720 122.408787
80.000000 24.940814 11.358216
1.552237 50.000000 9.631474
0.000000 31.396992 51.234897
24.764021 50.000000 90.033127
80.000000 37.990398 137.182601
35.961277 50.000000 136.119910
10.667188 50.000000 159.280292
4.730370 0.000000 57.632178
80.000000 48.689296 137.617623
39.275247 10.584494 160.000000
57.740468 50.000000 155.855734
0.000000 21.698962 114.116981
80.000000 20.390449 110.754730
52.066052 28.838866 160.000000
58.090900 50.000000 137.746097
80.000000 46.936806 37.575151
75.888477 23.095082 160.000000
37.029440 50.000000 154.616711
40.954646 50.000000 6.153695
18.017711 50.000000 145.551399
69.362056 50.000000 115.021677
32.074337 0.000000 149.568284
58.811619 50.000000 91.894752
60.937818 50.000000 29.599029
34.185901 50.000000 48.307721
68.270865 50.000000 124.037687
66.344838 50.000000 72.712409
51.309916 40.044900 0.000000
73.946134 50.000000 34.991887
0.000000 39.232881 2.580918
59.640143 50.000000 58.841735
75.884200 0.000000 120.856144
53.965854 50.000000 30.909031
53.380555 2.534999 160.000000
0.000000 5.068259 37.809097
38.600999 0.000000 87.525797
16.495795 8.838809 0.000000
0.000000 47.865946 126.472626
1.765680 50.000000 119.006218
80.000000 38.281576 29.261602
17.519447 50.000000 79.621971
44.054420 41.938021 160.000000
0.000000 9.101571 120.914167
0.000000 40.652371 96.723001
19.534347 50.000000 3.702340
0.000000 4.911802 86.531512
44.227177 0.000000 81.678760
59.520795 50.000000 147.256478
0.000000 26.600466 103.551154
58.815635 19.500981 0.000000
0.000000 2.274505 106.831093
0.000000 30.380054 10.070747
80.000000 11.931759 125.969829
54.121297 50.000000 128.239467
0.000000 24.023350 23.154077
80.000000 24.958625 88.525168
10.763909 2.370948 160.000000
27.364348 46.596323 0.000000
77.035370 0.000000 68.772888
69.450327 0.000000 80.646621
0.000000 8.408324 53.099275
66.897593 50.000000 45.821544
56.840423 0.000000 155.708369
0.000000 6.666108 39.443616
80.000000 16.048737 70.730398
80.000000 16.467072 133.392875
80.000000 45.477381 136.843770
46.747791 0.000000 87.574513
0.000000 0.283083 87.520944
24.499688 50.000000 73.601741
0.000000 35.648214 11.776361
33.187515 39.470892 160.000000
11.072688 48.124565 160.000000
2.270086 50.000000 123.368969
80.000000 7.289991 27.007167
80.000000 34.426535 88.084652
80.000000 24.535625 5.568002
23.128382 0.000000 93.505880
0.000000 11.011349 97.279002
24.400476 35.095897 0.000000
11.060789 4.517570 160.000000
71.723733 50.000000 122.707878
36.107869 50.000000 75.577337
67.323123 50.000000 150.342067
80.000000 30.610372 72.303154
14.637232 50.000000 104.887154
73.317839 50.000000 32.807917
46.058307 0.000000 27.616502
77.628189 50.000000 18.469321
77.183537 50.000000 81.025832
9.833452 0.000000 146.568998
0.080407 50.000000 159.570619
59.546480 0.001571 0.000000
62.588471 50.000000 140.518568
80.000000 33.466721 156.772632
0.000000 26.888938 116.720985
14.004723 25.157376 160.000000
0.000000 24.678449 7.284438
69.524974 50.000000 83.575462
80.000000 26.196857 96.437900
58.075727 50.000000 26.150035
13.556334 50.000000 96.502698
13.360121 0.000000 51.661856
20.208174 34.189231 160.000000
23.661204 50.000000 31.145557
54.521316 0.000000 7.287528
46.401522 0.000000 122.398745
30.504678 18.450769 0.000000
7.578524 50.000000 110.422520
14.656342 50.000000 123.793535
0.000000 40.657040 101.226466
76.100355 50.000000 124.203492
2.801951 19.803475 160.000000
80.000000 36.810998 9.186058
48.091997 6.266100 0.000000
80.000000 45.121736 151.595787
41.223505 50.000000 0.469555
69.113615 34.434614 0.000000
65.881504 50.000000 98.553048
7.307901 0.000000 33.955645
0.000000 4.151415 26.114256
80.000000 22.822282 38.434822
73.351806 0.000000 129.310548
80.000000 0.952691 101.358154
22.257613 50.000000 51.594075
33.139517 50.000000 39.508823
65.209893 43.780518 160.000000
80.000000 45.400890 49.332424
24.452985 50.000000 121.788608
63.180180 50.000000 120.349778
80.000000 12.735904 59.169032
18.893016 50.000000 92.534623
8.203755 0.000000 31.584614
34.754867 0.000000 70.202693
46.274705 50.000000 71.978846
0.000000 3.816532 16.841474
0.000000 14.977270 8.169422
29.494985 50.000000 82.511101
56.178944 0.000000 94.821697
56.156547 0.000000 42.477321
27.740754 50.000000 28.226247
27.395297 50.000000 141.291388
9.972744 50.000000 142.313680
80.000000 16.502735 91.046825
0.000000 39.035089 129.027561
65.682891 50.000000 21.407186
41.983957 14.164985 0.000000
38.666898 0.000000 38.365350
60.375522 41.119904 0.000000
37.858369 5.383589 160.000000
23.775585 50.000000 4.051647
36.322218 44.321386 160.000000
58.597728 50.000000 35.964233
80.000000 42.693751 53.915585
68.470316 50.000000 138.191904
38.250944 0.000000 109.315404
40.262709 0.000000 96.155156
80.000000 2.475960 103.475301
56.480728 50.000000 112.726716
61.332829 0.000000 12.300556
80.000000 23.266833 155.170300
59.867794 0.000000 100.151943
18.253288 50.000000 23.300169
65.665279 50.000000 43.468871
11.328487 50.000000 94.758543
25.935881 12.100527 0.000000
23.320216 50.000000 91.945174
9.529776 45.157663 0.000000
0.000000 48.517215 63.095605
0.000000 1.185877 36.255173
0.000000 13.800023 105.604037
28.810997 50.000000 117.312377
53.119198 50.000000 26.564271
58.755809 25.968191 160.000000
0.000000 45.535178 54.141609
11.878353 0.000000 101.126490
44.870160 0.000000 124.120607
80.000000 33.728530 12.001052
62.031613 0.000000 141.122097
0.000000 8.933320 127.969252
80.000000 9.672208 71.389817
0.000000 36.432142 140.687571
80.000000 20.940709 81.897632
74.362161 0.000000 73.393683
27.307293 0.000000 82.380717
24.215962 0.000000 33.298926
45.840070 28.981153 160.000000
80.000000 27.620733 94.904709
46.394143 50.000000 151.928400
57.067999 0.000000 122.279185
0.000000 41.984922 9.642674
0.000000 33.015998 68.230980
60.082502 1.951456 160.000000
0.000000 1.306172 57.821894
47.225976 0.000000 147.962822
6.626916 0.000000 30.083876
39.815486 50.000000 53.373595
56.883870 0.000000 158.060608
60.362826 42.000715 160.000000
62.622057 0.000000 81.305980
35.440051 0.000000 117.296076
61.450907 0.000000 23.233969
9.479302 50.000000 27.493690
80.000000 31.171345 105.161386
0.000000 18.518992 60.356124
51.366680 50.000000 99.777847
30.392101 0.000000 37.346889
0.000000 39.328619 131.622467
0.000000 20.726220 139.884172
71.149769 0.000000 141.949438
75.769691 49.812198 160.000000
80.000000 8.994900 155.245955
77.766440 50.000000 74.178433
61.064866 50.000000 141.830318
0.000000 4.887791 108.766781
40.774675 31.602765 160.000000
80.000000 47.113473 139.157449
80.000000 45.188610 85.441801
0.000000 29.512932 113.523333
22.360330 0.000000 159.719092
8.674854 50.000000 35.535277
27.426124 0.000000 11.454116
47.696675 0.000000 1.596901
80.000000 38.079621 40.138521
78.911872 0.000000 117.149463
33.836979 5.203868 0.000000
0.000000 2.907838 68.968992
80.000000 41.074721 126.205321
0.000000 35.003534 49.161682
80.000000 26.449663 6.543085
0.000000 44.317858 64.281159
80.000000 4.578418 98.005808
80.000000 22.478322 139.424671
21.050360 50.000000 107.776615
71.375228 50.000000 45.916173
80.000000 31.942583 22.268174
65.194848 16.342518 160.000000
16.301683 50.000000 103.380869
16.131296 50.000000 136.628155
80.000000 21.606195 21.094990
80.000000 31.809240 63.310274
26.643975 34.719220 0.000000
62.056757 19.669860 0.000000
16.742852 0.000000 53.154951
0.000000 30.821625 42.256289
64.191499 18.321282 0.000000
0.000000 45.310815 70.210895
63.272053 39.805217 0.000000
0.000000 35.748941 110.210286
0.000000 16.912093 121.114356
0.000000 38.145940 22.549763
43.923119 39.477942 0.000000
80.000000 4.124142 101.432715
57.925015 0.000000 68.317964
52.488599 7.789974 160.000000
80.000000 24.658914 22.820878
29.863098 0.000000 14.682901
33.875336 0.000000 138.548495
62.120913 50.000000 85.738735
37.846042 50.000000 134.302497
58.488685 50.000000 103.589302
55.181240 0.000000 101.960894
80.000000 2.341614 38.048116
2.479131 50.000000 145.596905
36.093982 0.000000 14.940887
80.000000 49.259422 106.759122
49.936297 0.000000 144.554827
15.260241 3.412932 160.000000
65.434598 48.579803 160.000000
49.353985 50.000000 99.282414
80.000000 3.914266 53.103061
0.000000 35.542948 6.954309
80.000000 43.043243 145.139447
27.918715 33.134760 0.000000
34.094834 0.000000 121.475647
41.280103 50.000000 112.878922
0.000000 44.368601 101.450370
26.404207 50.000000 79.937912
65.862266 50.000000 49.989092
13.983298 0.000000 33.064479
24.417005 30.358901 160.000000
8.830605 50.000000 147.239717
34.463604 0.000000 115.026082
80.000000 8.392836 28.775738
10.520196 17.699551 160.000000
80.000000 4.551590 150.366662
58.257207 50.000000 134.599424
16.664729 0.000000 120.197929
65.528361 50.000000 156.118232
44.559341 0.000000 61.651847
5.539349 50.000000 38.155037
62.747565 0.000000 5.921875
80.000000 7.338105 87.861705
48.960288 0.000000 124.668841
4.683264 28.718642 0.000000
48.070409 50.000000 128.620191
80.000000 36.873305 153.621917
41.140386 0.000000 112.241596
12.824569 50.000000 79.163247
70.846353 7.293023 0.000000
23.677977 0.000000 35.961591
80.000000 2.013212 116.155307
53.801055 0.000000 116.978905
43.629726 0.000000 107.222317
43.611630 5.803252 160.000000
80.000000 40.337828 128.119331
72.942759 35.386102 0.000000
66.461505 34.340356 160.000000
0.000000 5.325844 157.555160
80.000000 37.486503 65.543500
17.352892 37.421207 0.000000
23.323663 0.000000 156.515303
21.044283 0.000000 37.223315
74.203608 0.000000 53.192447
5.014035 0.000000 2.540872
48.345909 50.000000 66.499482
80.000000 24.532593 126.315507
22.677632 7.832180 0.000000
70.080494 50.000000 102.191958
0.000000 42.940456 126.396711
80.000000 46.230668 154.196834
37.156487 0.000000 82.298566
36.937035 40.560591 160.000000
0.000000 38.944190 16.311367
9.590313 50.000000 13.527348
19.333133 0.000000 151.655414
38.582448 0.000000 5.777078
62.549310 0.000000 136.446969
14.719831 50.000000 134.372639
80.000000 48.849710 44.280021
66.587725 7.684543 0.000000
4.378572 50.000000 73.985028
50.651944 26.442703 0.000000
0.000000 12.841654 89.040130
12.480226 0.000000 47.584558
57.610986 50.000000 157.988930
63.879625 50.000000 5.176198
17.358260 7.018119 0.000000
20.373162 50.000000 81.954031
41.917890 50.000000 150.764979
50.644117 50.000000 155.289126
62.122437 50.000000 75.543685
80.000000 2.183022 110.864175
49.534012 50.000000 140.200404
46.819178 41.937991 160.000000
13.192804 10.829771 160.000000
0.000000 17.301522 54.689266
57.446790 0.000000 44.570563
20.333618 36.198994 0.000000
0.000000 9.462057 145.001415
23.727895 50.000000 130.714260
10.111895 50.000000 64.138009
80.000000 28.062638 65.979710
27.207719 0.000000 147.574476
64.525960 0.000000 122.789649
80.000000 15.877721 108.182237
65.360588 48.662015 0.000000
80.000000 14.472015 57.117067
37.904661 10.833988 0.000000
78.755581 0.000000 60.212265
10.690279 10.764644 0.000000
11.487883 0.000000 91.431749
80.000000 30.249483 1.547295
0.000000 11.874082 86.450392
80.000000 28.556789 31.549242
79.346377 24.995256 0.000000
38.021149 37.874945 160.000000
2.161520 0.000000 155.629157
22.073552 29.492124 0.000000
80.000000 28.455536 2.570884
45.310782 0.000000 119.295767
21.361771 0.000000 35.081580
2.341209 0.000000 83.552655
50.282377 30.314222 160.000000
21.292164 0.000000 30.138633
15.961897 50.000000 47.095343
80.000000 35.521341 140.239949
80.000000 19.070740 8.455510
0.331880 0.000000 44.951880
0.000000 16.978132 131.704915
2.242915 0.000000 57.728279
34.258589 50.000000 81.446608
0.000000 39.211208 20.730795
0.000000 31.930652 25.082892
80.000000 29.622541 121.433699
0.000000 2.282453 73.721735
19.835817 0.000000 0.720981
80.000000 36.805634 97.457535
80.000000 42.621725 123.617537
49.300461 0.000000 116.512770
0.000000 8.612747 4.784993
9.976334 50.000000 23.180400
80.000000 9.471871 96.688272
80.000000 41.928002 31.787841
9.698679 50.000000 79.364180
69.945603 50.000000 32.620007
80.000000 41.394518 78.154029
11.025867 50.000000 20.143714
0.000000 27.797736 63.767708
27.791462 24.974131 0.000000
11.482337 50.000000 47.614878
0.000000 35.876999 51.505669
56.577422 0.000000 89.893641
0.000000 6.299768 22.713413
30.291304 0.000000 34.858434
55.560393 50.000000 137.848267
63.166010 0.000000 134.325312
50.197428 0.000000 43.615041
0.000000 43.465570 20.195977
0.000000 35.493458 36.247927
70.699049 21.577598 0.000000
53.137789 28.435350 0.000000
67.791645 50.000000 43.737279
17.867228 0.000000 103.209706
36.240537 50.000000 95.244712
80.000000 8.453299 9.345420
70.144159 50.000000 97.869705
30.922529 50.000000 117.393178
49.694571 50.000000 114.318401
0.000000 35.739305 119.465456
39.475944 13.748777 0.000000
1.802009 50.000000 126.337852
66.300171 50.000000 70.323192
43.542232 0.000000 17.955360
0.000000 35.930341 103.985755
80.000000 11.458412 129.436200
59.227346 50.000000 20.647459
80.000000 30.564674 50.348689
22.230908 0.000000 86.960444
9.174115 50.000000 37.627211
58.091791 0.000000 21.022101
0.000000 28.253827 121.104433
40.779375 50.000000 26.197832
15.088892 50.000000 154.740134
56.313696 50.000000 148.247919
65.315195 50.000000 29.338072
37.269754 50.000000 118.027533
68.915352 50.000000 142.995924
54.001665 21.609842 160.000000
80.000000 20.627202 17.545975
0.000000 26.969720 88.826221
80.000000 18.379167 98.943822
57.058873 0.000000 119.999956
0.000000 45.835725 143.782858
39.875155 0.000000 101.082193
80.000000 2.298617 22.157438
46.968999 0.000000 34.872009
60.475560 50.000000 130.338790
63.817624 50.000000 73.715260
75.143174 37.354888 160.000000
75.673769 0.000000 99.085767
0.000000 37.476049 14.832301
2.844461 50.000000 107.771176
24.171071 0.000000 23.720653
48.870868 50.000000 64.170828
80.000000 42.709217 98.555167
0.000000 13.053495 33.649793
65.429102 0.000000 32.873099
34.605290 50.000000 30.133181
0.000000 41.416375 28.758529
0.000000 32.082593 81.273396
80.000000 4.210377 110.530276
70.987860 50.000000 108.703107
80.000000 38.148640 55.549090
55.983022 0.000000 81.199508
28.246670 50.000000 24.777141
79.768352 0.000000 81.871305
61.312666 50.000000 148.204509
0.000000 47.608855 115.709310
0.000000 33.058224 77.097673
78.051095 0.000000 44.144642
23.796135 0.000000 101.458232
11.866146 0.000000 145.691334
46.085926 50.000000 86.581872
0.000000 5.695675 64.218670
59.286659 0.000000 84.942104
65.779039 50.000000 8.809067
80.000000 22.230897 117.075389
9.075570 50.000000 40.626908
71.868611 0.000000 20.373926
0.000000 8.134788 57.453410
57.866927 50.000000 94.150580
66.141663 50.000000 119.789682
56.666310 50.000000 132.447899
80.000000 41.815648 70.252141
53.359388 0.000000 83.062266
80.000000 28.095279 58.012279
80.000000 8.462464 84.673723
43.640154 50.000000 10.272451
60.173610 0.000000 116.950019
59.886706 0.000000 10.713537
58.364663 50.000000 69.151819
23.720329 0.000000 88.331047
0.000000 7.826155 33.841684
0.000000 21.109364 84.070720
80.000000 33.406032 110.298832
80.000000 18.623115 36.055810
47.690587 30.350315 0.000000
56.539145 50.000000 91.514298
80.000000 21.246430 154.950803
10.440059 50.000000 127.172233
65.345218 0.000000 148.706848
65.599834 0.000000 97.999682
71.830324 0.000000 58.261669
0.000000 8.500275 72.777733
80.000000 34.435231 62.321930
44.759560 50.000000 82.183915
63.126269 0.000000 8.030616
80.000000 9.286390 133.635908
33.556595 50.000000 112.068379
62.752949 50.000000 62.059926
80.000000 45.739110 11.839162
49.159002 34.642615 160.000000
32.748996 50.000000 13.708562
42.487074 50.000000 81.490053
2.102574 11.174298 0.000000
50.634512 0.000000 58.644944
9.057787 3.764456 160.000000
0.000000 0.834396 151.074787
80.000000 2.334736 24.401964
51.496013 0.000000 124.390101
20.864269 0.000000 127.393729
78.140123 50.000000 24.157332
0.000000 24.818388 88.074461
3.138027 0.000000 114.620272
52.799622 0.000000 18.468649
18.428282 50.000000 71.453195
0.000000 42.637762 98.000749
42.752492 0.000000 34.543898
62.816383 0.000000 87.045190
80.000000 34.685223 154.856772
44.401807 50.000000 34.098288
19.901227 2.729845 160.000000
31.518711 50.000000 120.789581
0.000000 36.772598 58.097103
80.000000 34.074702 141.625535
33.255119 50.000000 117.065780
46.214537 50.000000 155.618991
22.131133 0.000000 60.712154
50.920779 50.000000 152.964169
60.677756 39.002173 0.000000
41.402434 50.000000 153.536223
62.810679 0.000000 74.449817
1.194597 0.000000 152.495961
57.611185 0.000000 127.226566
61.073610 50.000000 66.956092
35.006524 0.000000 7.094406
0.000000 17.129313 19.397103
80.000000 36.963852 81.532004
80.000000 36.059313 25.160892
59.892992 50.000000 6.867413
0.000000 20.515720 106.521022
0.000000 9.831936 140.060342
17.353973 0.000000 99.245493
54.295287 0.000000 106.087991
0.000000 34.756961 32.126282
20.368484 0.000000 69.915477
3.980020 32.588042 160.000000
25.560357 32.100440 160.000000
78.289287 50.000000 38.390493
80.000000 26.148663 70.600734
70.923541 50.000000 85.654106
80.000000 41.811539 10.807006
0.000000 30.785117 54.087016
9.989097 50.000000 149.454367
80.000000 14.920315 2.282905
55.501598 0.000000 3.053674
80.000000 0.016555 110.904098
20.088021 40.494716 0.000000
0.000000 43.393190 7.198094
80.000000 39.964156 64.305533
36.057870 0.000000 153.844594
63.503031 0.000000 29.549127
76.909738 14.828414 160.000000
0.000000 43.804942 29.758975
40.569079 0.000000 59.564569
18.038835 50.000000 109.705172
22.802932 50.000000 81.673858
74.170328 0.000000 87.556735
16.524305 9.761848 160.000000
74.970544 50.000000 31.355731
80.000000 37.749548 156.596758
0.000000 8.861202 147.483947
17.939637 50.000000 60.091180
7.327416 0.000000 27.821775
80.000000 40.161926 21.518379
20.567682 0.000000 15.677557
80.000000 22.473639 149.639935
36.866158 50.000000 97.469962
24.698437 50.000000 64.265736
80.000000 0.925828 134.040363
74.452544 0.000000 32.856188
54.567355 0.000000 9.871806
51.049533 42.128927 160.000000
71.243116 0.000000 56.015765
36.393582 50.000000 28.574899
80.000000 11.083328 9.029774
0.000000 29.723759 46.191004
0.000000 4.707240 154.792942
3.897811 35.323487 160.000000
75.582882 25.292297 160.000000
80.000000 22.497423 40.940055
80.000000 9.849405 25.700874
59.246162 0.000000 120.481206
80.000000 27.615570 41.816923
79.452363 37.550344 0.000000
57.804409 47.298022 160.000000
26.692921 0.000000 71.215438
35.850874 50.000000 82.851535
52.366035 0.000000 137.178364
23.087847 0.000000 37.878420
31.680772 50.000000 115.533275
78.107956 0.342018 0.000000
19.432816 50.000000 155.842125
70.126416 50.000000 125.991154
19.956193 30.206568 0.000000
7.965062 0.000000 93.547862
80.000000 40.468943 68.768171
58.877444 0.000000 150.917451
65.485620 38.440551 0.000000
43.189015 50.000000 55.538102
80.000000 41.055614 57.006485
28.605979 50.000000 57.681140
46.986924 17.130619 0.000000
47.468034 45.845975 160.000000
59.204478 50.000000 60.860876
63.328207 0.000000 27.512401
80.000000 13.061239 67.700255
47.305517 50.000000 26.318092
0.000000 6.083336 18.076179
80.000000 47.387800 115.550133
23.419695 9.786837 160.000000
19.542821 22.899784 0.000000
60.347703 0.000000 93.538062
0.000000 20.018914 35.772646
60.294431 0.000000 7.215206
33.906433 50.000000 115.065112
36.748948 50.000000 45.588908
0.000000 6.892321 20.308120
76.875770 0.000000 80.823431
0.000000 4.030530 7.393225
80.000000 44.276255 3.095968
29.568048 9.300930 0.000000
80.000000 33.917432 158.849037
60.942933 50.000000 53.195626
18.811328 0.000000 14.701214
49.127807 0.000000 93.452441
80.000000 42.715619 143.018511
34.434725 50.000000 37.146062
3.642384 50.000000 61.493696
0.000000 30.403908 126.119670
49.088853 50.000000 81.822497
80.000000 12.585648 144.588529
0.000000 36.614213 131.069934
61.134551 0.000000 67.512202
14.444632 50.000000 131.853763
4.319005 0.000000 64.951732
44.313288 50.000000 15.931055
55.497035 0.000000 127.081091
44.996559 50.000000 96.060388
0.584702 0.000000 107.511729
64.362328 41.812250 160.000000
62.398355 50.000000 15.056163
23.384230 50.000000 124.219640
48.360523 50.000000 43.165510
67.151620 0.000000 104.946771
22.142431 50.000000 116.222738
80.000000 36.449743 46.657717
80.000000 24.864671 41.812101
0.000000 5.271355 152.561924
24.646481 50.000000 111.707619
80.000000 3.688065 49.781721
42.570750 0.000000 60.070405
73.523630 0.000000 110.998946
16.412322 0.000000 62.656516
19.217830 38.612811 0.000000
17.121820 50.000000 15.300830
80.000000 25.607002 94.225516
80.000000 25.147460 75.294180
51.345539 0.000000 102.683488
80.000000 2.842713 131.604823
0.000000 47.946649 82.751399
9.320836 50.000000 138.185626
0.000000 29.423570 140.515546
0.000000 40.873934 144.651120
0.000000 3.723464 145.563176
35.812265 0.000000 137.588494
42.413845 0.000000 90.306480
65.754176 0.000000 60.404199
68.404827 0.000000 61.023441
80.000000 38.910569 42.662597
62.374783 50.000000 27.414159
55.485741 50.000000 157.946613
66.283286 50.000000 148.155944
61.585538 0.000000 152.404968
80.000000 46.202665 113.181457
76.542661 50.000000 53.891833
80.000000 44.491932 55.979857
80.000000 35.755151 135.238378
38.671304 50.000000 150.103318
0.000000 19.454754 81.675251
18.592233 32.829810 160.000000
66.818884 0.000000 126.385782
27.529776 15.650048 0.000000
28.806111 50.000000 152.542066
44.871516 0.000000 12.062414
80.000000 16.185441 93.335417
5.563482 1.819538 160.000000
78.431657 50.000000 119.558672
5.659427 8.758864 160.000000
72.202244 50.000000 43.929827
66.326710 40.413191 160.000000
68.745760 0.000000 89.674730
1.919620 28.727185 0.000000
1.004937 0.000000 143.038733
42.574287 0.000000 67.526581
62.467224 4.273912 160.000000
36.678973 0.000000 1.875645
80.000000 12.388411 12.012503
69.341116 50.000000 77.494573
80.000000 47.910675 47.323189
17.950053 29.651954 0.000000
77.970752 0.000000 98.723408
1.573482 0.000000 95.357181
80.000000 12.241797 114.345981
0.000000 2.424448 137.140315
36.190704 0.000000 77.333476
47.992451 28.250512 0.000000
0.000000 9.469567 24.177321
0.000000 32.402584 79.060705
80.000000 28.310183 71.555675
0.000000 32.888737 152.561776
43.029068 50.000000 120.729528
53.429866 0.000000 124.977258
0.000000 42.174480 120.893598
24.031431 0.000000 84.868827
0.000000 25.334178 118.056143
78.412380 0.000000 143.399639
57.126606 0.000000 63.542169
0.000000 24.728588 124.872866
17.143922 0.000000 9.073571
30.878664 1.093617 0.000000
30.132581 50.000000 77.998483
30.751283 50.000000 47.259084
6.571224 25.323812 160.000000
62.018193 50.000000 123.777960
68.620948 17.995327 0.000000
0.000000 25.029280 20.296052
38.156640 0.000000 19.132681
80.000000 45.296381 97.153602
5.389787 0.000000 111.159971
69.940018 32.334110 0.000000
0.000000 18.777222 95.763122
23.021046 0.000000 81.921141
79.292600 50.000000 26.216074
41.871318 50.000000 53.945682
22.861718 0.000000 40.520959
74.073599 0.000000 57.648098
73.442099 0.000000 14.877942
76.474844 50.000000 118.632943
4.618488 0.000000 12.629374
15.480019 50.000000 121.948920
51.943589 50.000000 85.937643
29.619580 40.969568 160.000000
8.126772 50.000000 33.556182
66.220903 50.000000 117.638283
0.000000 36.612521 123.692581
33.096465 50.000000 83.508405
67.449919 50.000000 139.995065
0.000000 44.825234 139.808481
28.403275 0.000000 24.993897
80.000000 33.385787 101.103665
41.496200 0.000000 94.573782
34.809503 50.000000 87.527353
45.558072 50.000000 144.935071
80.000000 13.110100 42.381265
80.000000 39.007022 66.852749
80.000000 20.505931 15.523385
0.000000 15.456216 65.911676
0.000000 22.748060 8.685054
80.000000 47.435579 152.223925
0.000000 20.899293 10.386112
16.620760 0.203567 160.000000
80.000000 34.061941 24.364093
0.000000 26.108015 136.377261
52.890355 5.601425 160.000000
0.000000 48.973262 124.755051
36.840607 30.869807 160.000000
69.140638 0.000000 54.986365
18.178626 0.000000 89.488291
59.012178 40.275904 160.000000
5.948510 0.000000 38.154543
0.000000 44.694904 94.417091
0.000000 29.335782 152.151954
0.000000 10.889855 84.332416
35.707778 34.939132 160.000000
80.000000 3.240335 29.732582
59.427092 50.000000 71.425994
59.744602 0.000000 69.824037
14.950453 48.003751 0.000000
47.360903 50.000000 131.303612
33.878676 50.000000 20.238269
0.000000 2.948393 65.729253
44.810734 4.151500 160.000000
25.886674 36.723823 0.000000
0.000000 14.135334 28.059274
4.921754 4.362918 0.000000
72.379029 50.000000 131.745058
38.453579 50.000000 70.207427
0.000000 44.646019 152.989840
3.325047 50.000000 56.783082
30.097576 0.000000 7.559633
46.390143 50.000000 38.467975
80.000000 11.041788 146.097357
5.599478 0.000000 146.634141
80.000000 42.950214 113.901061
0.000000 35.339969 147.191347
0.000000 16.189204 56.487165
65.214763 0.000000 151.203050
26.052570 0.000000 99.628333
30.243230 15.471020 0.000000
80.000000 39.414604 1.397385
31.578910 0.000000 33.168978
80.000000 30.806652 31.687149
73.258744 7.243680 0.000000
0.000000 25.436127 24.740434
71.843427 14.401686 160.000000
80.000000 42.486129 151.716750
50.928760 50.000000 104.243155
63.055020 21.814566 0.000000
62.996689 50.000000 29.471591
38.101854 0.000000 8.266849
80.000000 8.854572 12.559352
28.707361 50.000000 112.314339
69.975268 50.000000 121.117728
74.301552 50.000000 29.414871
78.799455 19.466682 160.000000
55.491918 0.000000 124.894268
23.160864 0.000000 132.328494
80.000000 43.805427 102.660302
22.553197 0.000000 1.909973
80.000000 40.544131 151.027607
14.753961 0.000000 81.790368
5.615079 26.262226 0.000000
37.934076 0.000000 78.329616
0.000000 42.358547 36.692238
60.910509 0.000000 119.233710
80.000000 9.494416 127.064467
72.563990 50.000000 84.442087
33.430943 0.000000 90.291269
19.322161 40.875220 160.000000
54.229861 50.000000 85.421487
79.801731 50.000000 127.176597
44.846206 50.000000 157.324075
39.771122 0.000000 154.155528
0.000000 40.606015 23.142450
75.397300 0.000000 89.683759
73.892703 9.423137 0.000000
44.829954 16.912424 0.000000
55.972369 50.000000 150.983673
0.000000 23.447310 122.939653
80.000000 38.255743 25.869373
0.000000 9.764109 51.066301
65.732210 0.000000 95.370338
80.000000 9.458361 88.172136
42.273070 50.000000 33.666906
48.350512 0.000000 83.293940
11.737662 50.000000 81.321503
11.583263 0.000000 23.237752
0.000000 34.164656 5.292176
61.054543 50.000000 154.884618
45.399909 2.494649 0.000000
2.410486 0.000000 45.028375
44.758120 0.000000 97.049769
56.199423 50.000000 35.786740
49.800721 50.000000 40.400672
50.262490 28.510240 0.000000
25.796043 22.933669 160.000000
21.558380 50.000000 136.821438
13.779562 31.346699 0.000000
24.151667 50.000000 83.621965
65.802898 50.000000 23.989281
20.916025 12.253356 160.000000
42.779875 50.000000 17.283879
73.746159 0.000000 34.815982
67.980579 16.063674 0.000000
80.000000 16.196284 55.725330
80.000000 28.599084 43.848344
54.548780 0.000000 44.284323
35.605735 42.177800 160.000000
7.881375 50.000000 83.374238
80.000000 2.428376 51.565919
80.000000 38.210220 129.652768
64.729556 6.868692 0.000000
45.993276 40.107581 160.000000
58.906898 50.000000 132.492916
63.072509 0.000000 150.268783
80.000000 40.946832 90.991242
66.208467 50.000000 92.676762
0.000000 6.965532 50.713683
11.402775 0.000000 44.332740
48.022499 0.000000 118.482167
21.967996 26.127989 160.000000
5.101399 50.000000 90.542000
30.338421 50.000000 113.862907
79.310331 50.000000 80.959621
12.036480 0.000000 34.643488
9.206814 0.000000 120.575236
0.750914 50.000000 18.845390
51.868020 50.000000 74.440026
80.000000 14.112891 151.100146
25.770843 50.000000 131.276382
52.107497 0.000000 27.962503
18.797526 50.000000 51.139235
0.000000 37.496504 111.530340
9.279909 50.000000 70.093222
23.306082 50.000000 29.066875
68.024403 50.000000 62.246874
29.264717 6.759344 160.000000
41.845158 50.000000 76.536495
80.000000 6.720838 64.522831
0.000000 49.713239 40.587747
6.465982 0.000000 4.493082
72.767257 50.000000 68.966380
0.000000 26.638391 95.976443
68.033400 50.000000 127.394315
40.029247 50.000000 141.520799
80.000000 31.675128 148.605923
61.333457 39.835410 160.000000
80.000000 14.069506 109.544875
37.888068 50.000000 54.419991
0.000000 19.166844 142.254306
63.244327 0.000000 130.634198
0.000000 41.554264 59.938430
68.073021 50.000000 98.136528
61.142059 50.000000 144.446074
73.831150 0.000000 51.153230
80.000000 33.352162 103.989243
70.028693 0.000000 18.330346
37.930141 0.000000 84.372363
7.230068 0.000000 25.484986
0.000000 0.476884 97.740867
73.180745 50.000000 54.091263
49.588417 16.445545 160.000000
37.488915 23.754918 160.000000
80.000000 42.896624 58.053365
46.839553 50.000000 82.553862
9.138952 50.000000 95.696099
80.000000 45.300890 30.170220
0.000000 13.700464 41.337861
60.234009 50.000000 83.230861
9.499793 22.449158 0.000000
67.987880 0.000000 2.596609
58.567272 18.947843 160.000000
80.000000 40.320810 29.483855
2.192462 0.000000 55.117174
79.899168 50.000000 129.858352
0.000000 24.141303 32.484085
80.000000 19.180455 58.046551
80.000000 45.752755 39.537815
49.751684 0.000000 147.686100
78.831926 0.000000 46.240360
61.475062 50.000000 132.330707
80.000000 37.915952 92.888402
56.576380 0.000000 7.959261
18.279431 50.000000 25.528740
39.434192 0.000000 139.114552
0.000000 42.642736 141.468161
79.911872 0.000000 21.360647
5.824966 0.000000 95.112918
80.000000 19.878968 0.487024
26.771058 50.000000 65.143303
80.000000 17.159689 31.653605
77.549107 12.667151 160.000000
72.276187 50.000000 17.965094
75.561489 50.000000 14.473242
80.000000 31.083469 54.190166
23.127245 50.000000 6.765719
34.899303 24.318037 160.000000
0.000000 5.069808 106.728662
0.000000 23.665287 67.559832
80.000000 24.158189 69.610431
80.000000 35.524396 99.162850
21.560408 50.000000 118.597965
73.858126 33.460288 0.000000
21.772381 10.185474 0.000000
0.000000 42.924206 100.041105
0.000000 17.026374 7.008984
80.000000 0.088653 129.406813
80.000000 6.957122 11.098404
7.438474 50.000000 39.261340
80.000000 7.040993 105.234782
13.915129 0.000000 146.095011
0.000000 7.318923 143.441535
0.000000 40.603917 99.183538
80.000000 32.959008 60.202545
75.562581 0.000000 55.626787
77.581476 26.219230 160.000000
16.103369 50.000000 114.924831
50.313636 0.000000 16.554873
0.000000 47.813456 74.718250
2.824223 0.000000 153.709221
0.000000 6.774257 150.672338
2.443500 50.000000 50.065992
0.000000 28.755065 7.946180
75.299095 0.000000 79.016305
0.000000 23.843190 136.697162
70.662721 50.000000 141.626509
61.154993 46.309180 0.000000
0.000000 25.777160 133.709866
0.000000 31.031051 77.318484
18.855312 0.000000 53.874483
23.421990 50.000000 45.402715
12.109144 45.251505 0.000000
40.466191 0.000000 33.579352
0.000000 33.132781 143.187351
41.953131 0.000000 92.360696
4.378022 31.240075 0.000000
67.679342 50.000000 104.261996
12.930653 16.857144 0.000000
0.000000 22.503992 116.245509
0.000000 35.940828 67.248374
28.142775 0.000000 158.250215
49.464404 0.000000 76.252075
53.969782 0.000000 15.844777
0.000000 23.344573 148.490538
80.000000 21.457253 147.168260
0.000000 14.504381 32.216719
41.259465 50.000000 125.246179
33.562236 0.000000 143.893208
20.752781 0.000000 134.835267
70.412804 0.000000 119.308903
28.394305 50.000000 54.789175
15.485952 50.000000 79.065525
0.000000 9.750970 102.544323
52.097919 50.000000 144.134918
0.000000 16.918252 9.661017
68.338234 0.000000 116.941981
28.304734 50.000000 76.742798
16.995566 50.000000 129.895307
12.604307 35.587121 160.000000
80.000000 33.746505 9.650834
56.030091 0.000000 16.251192
69.891905 0.000000 150.526201
56.304585 0.000000 143.707830
0.000000 33.815543 66.361495
0.000000 2.341904 118.430220
60.313465 0.000000 48.785652
0.000000 35.493340 14.434730
35.234982 45.004719 0.000000
80.000000 10.566401 6.928830
0.000000 16.813070 14.748947
80.000000 45.934862 57.546329
0.000000 27.176497 36.899580
77.976644 0.000000 111.436497
0.000000 4.423467 115.010002
0.000000 36.091028 108.097468
49.254125 40.790327 0.000000
80.000000 26.328333 149.254156
80.000000 8.426938 94.946855
0.000000 7.588416 87.946271
80.000000 21.696224 70.973525
40.918945 0.000000 74.183158
0.000000 16.901545 76.891892
23.600291 0.000000 72.240747
80.000000 36.146007 138.178349
0.000000 3.403936 57.799390
0.000000 6.867589 11.977364
38.125403 0.000000 111.416239
0.000000 45.472797 92.539841
70.035963 50.000000 44.020817
31.401844 0.000000 120.448140
28.299510 0.000000 97.072429
44.795560 0.000000 148.127634
68.167413 0.000000 50.362064
80.000000 7.423446 124.135650
21.180556 0.000000 42.162412
39.792113 50.000000 76.304778
80.000000 28.140496 127.615203
6.229501 50.000000 134.208826
49.277140 50.000000 48.276370
1.863740 0.000000 150.598515
0.000000 23.850494 86.036113
54.914276 50.000000 60.353371
49.873195 50.000000 46.127304
45.028059 50.000000 120.958537
49.001523 50.000000 97.005118
26.719565 50.000000 139.165224
49.561717 44.384505 0.000000
30.355923 50.000000 56.432345
6.268385 30.742833 160.000000
0.000000 42.378405 132.083622
0.000000 30.920958 93.755408
45.227141 50.000000 55.539359
56.408947 26.534830 160.000000
46.151898 50.000000 106.321520
46.951614 23.990775 0.000000
0.000000 33.567394 92.162694
0.000000 37.788051 118.938847
6.839513 0.000000 69.494323
80.000000 46.004016 106.254843
51.167351 0.000000 82.759512
80.000000 47.148080 78.220018
0.096021 29.536705 160.000000
0.000000 43.052989 143.664591
51.679739 0.000000 45.242748
28.444049 17.535688 0.000000
3.802046 49.831395 160.000000
61.237730 0.000000 102.837793
0.000000 5.075331 44.502304
0.000000 14.181453 75.298811
80.000000 1.624243 97.486375
36.067109 50.000000 20.571207
54.716887 50.000000 25.268581
80.000000 3.166643 99.637586
42.344601 0.000000 6.401862
47.201826 0.000000 159.707837
0.000000 26.173736 32.254379
49.890203 50.000000 130.316366
0.000000 11.460260 113.886567
39.537689 50.000000 132.896940
25.380173 4.273651 0.000000
71.172806 50.000000 148.291197
61.338532 0.000000 25.753361
30.486694 50.000000 72.776313
0.000000 19.734512 89.881204
0.000000 3.206287 153.183009
80.000000 45.455287 20.584224
72.713932 50.000000 107.638296
29.464522 50.000000 64.974071
80.000000 5.080463 136.793403
42.231727 50.000000 14.738274
72.949130 0.000000 103.962583
75.114999 0.000000 112.715253
42.650796 6.856618 0.000000
28.233340 0.000000 6.436741
79.700254 0.000000 159.805115
73.208001 50.000000 0.157400
21.235439 0.000000 26.045485
58.675680 50.000000 1.945954
77.851818 0.000000 145.393891
43.294483 0.000000 41.206663
9.457188 0.000000 131.168106
25.792131 25.665027 160.000000
0.000000 18.897985 92.096147
35.719841 0.000000 144.111725
21.181225 0.000000 155.894945
80.000000 5.960937 138.918755
63.700591 0.000000 15.365321
80.000000 16.713735 100.274502
30.248015 0.000000 16.807863
0.000000 1.853673 116.470626
16.129681 0.000000 108.492371
51.638104 21.685847 160.000000
41.878595 50.000000 44.370482
80.000000 27.826256 4.956507
42.396956 50.000000 36.147186
58.707597 0.000000 55.172497
44.222911 32.820576 160.000000
80.000000 9.184247 152.758456
28.648609 49.924469 160.000000
44.418544 0.000000 59.029291
52.457065 12.568535 0.000000
0.000000 38.145673 103.223241
8.860704 50.000000 53.603559
25.595029 29.890629 0.000000
0.000000 39.312512 18.708443
12.158314 16.435650 160.000000
49.614282 50.000000 101.826270
32.988736 0.000000 50.018628
63.638543 0.000000 83.083662
28.349340 0.000000 8.538921
58.856540 7.301191 0.000000
75.523446 50.000000 93.123241
7.625566 0.000000 43.857803
0.000000 45.247487 14.515013
80.000000 17.458536 95.129907
21.337115 50.000000 90.308612
74.808879 50.000000 89.893285
0.000000 38.212020 139.367748
13.767729 0.000000 59.478704
7.638437 50.000000 154.756792
58.407681 0.000000 65.216145
37.427964 50.000000 9.089700
44.591560 0.000000 6.568289
27.845209 50.000000 129.658584
4.534426 0.000000 5.226693
59.841564 38.265289 160.000000
56.907397 50.000000 37.662700
8.579479 30.821187 160.000000
80.000000 9.843066 147.718103
0.000000 2.195594 9.182170
68.325234 21.238093 160.000000
80.000000 16.412980 96.956604
0.000000 49.577693 115.169740
56.417599 0.000000 23.525811
61.699396 0.000000 83.773228
71.580637 30.925840 160.000000
80.000000 14.328342 78.993223
0.000000 12.304162 29.293907
13.539621 28.220623 160.000000
80.000000 25.915209 77.301849
0.000000 27.529068 55.576071
80.000000 13.031837 16.081426
80.000000 9.496313 118.007861
80.000000 36.139777 158.277618
21.374772 0.000000 53.581747
72.275585 50.000000 56.326102
80.000000 49.857042 28.820610
53.989144 50.000000 123.478487
67.845708 50.000000 32.639905
33.428116 50.000000 85.715865
7.763502 50.000000 90.704153
47.542764 4.868848 160.000000
19.031956 16.127592 0.000000
0.000000 11.598829 59.837375
9.553273 25.459230 0.000000
66.453590 50.000000 6.540556
51.381004 50.000000 141.668016
28.198303 0.000000 80.071596
80.000000 9.313404 129.391337
16.692418 49.421552 160.000000
43.098021 0.000000 131.825622
17.710171 12.000131 160.000000
58.850360 45.259776 160.000000
0.000000 47.847935 67.456379
47.165309 0.000000 94.950756
80.000000 10.668723 69.508512
