73.594848 0.000000 147.303501
0.000000 33.342306 39.718756
0.000000 39.050375 158.058073
70.850827 50.000000 153.506845
38.910309 0.000000 144.266910
37.200969 0.000000 48.678028
80.000000 0.109030 43.370975
80.000000 7.341487 51.757754
80.000000 40.387424 83.556103
77.249607 18.590448 160.000000
80.000000 33.120651 9.941646
29.836440 50.000000 31.983201
80.000000 10.811988 158.534642
7.745978 50.000000 119.319808
77.805306 0.000000 127.126797
21.252782 50.000000 136.956055
55.640825 50.000000 1.880230
80.000000 33.451911 27.667180
0.000000 26.174282 73.061891
38.827076 0.000000 64.323786
0.000000 1.077442 90.292322
24.520031 0.000000 92.375589
17.948952 50.000000 32.274582
33.639582 0.000000 124.101401
0.000000 37.008629 55.898279
12.983443 50.000000 66.798838
80.000000 17.416937 88.197828
23.886303 1.765765 0.000000
69.288605 50.000000 120.390502
0.000000 28.914225 34.410235
80.000000 28.640238 66.439734
67.039398 50.000000 155.950306
64.003347 0.000000 56.061342
18.047774 50.000000 112.491727
20.879183 50.000000 46.881894
66.596577 50.000000 57.741834
45.266830 50.000000 87.524657
0.000000 4.840565 152.896747
51.097035 0.000000 132.657615
0.000000 35.643980 62.950798
57.179458 50.000000 53.637356
28.951605 50.000000 125.914848
0.000000 44.596835 69.371753
24.497692 0.000000 64.859557
64.914874 0.000000 71.023311
61.869960 12.114416 160.000000
31.343319 0.000000 92.061459
57.772314 50.000000 4.547248
68.553859 50.000000 75.050796
80.000000 45.914313 79.878714
3.808088 14.394943 160.000000
80.000000 14.935362 78.281097
23.707931 0.000000 131.226192
12.993019 50.000000 85.496341
50.624915 50.000000 22.306423
80.000000 24.662559 94.703676
40.243829 24.620956 160.000000
69.802371 50.000000 136.896839
55.639434 0.000000 16.392281
0.000000 40.443185 19.759874
80.000000 11.591128 134.338989
0.000000 16.604981 158.320079
0.519334 0.000000 137.528509
58.488688 0.000000 150.502742
44.446229 50.000000 10.411226
80.000000 16.633265 0.803714
35.216772 50.000000 149.939274
6.461889 15.359858 0.000000
16.724369 0.000000 151.667945
58.027827 50.000000 60.845893
80.000000 42.692930 56.946542
79.334867 37.529480 0.000000
0.000000 20.814131 91.603580
70.070334 50.000000 119.562197
34.261116 0.000000 114.467950
80.000000 48.312460 135.215388
48.676892 50.000000 40.842410
77.890927 50.000000 131.306210
75.186141 22.507381 160.000000
37.967056 16.969108 160.000000
42.033004 0.000000 104.656307
47.597519 0.000000 83.936329
9.171147 0.000000 126.325733
54.077634 50.000000 94.871859
28.306103 38.542148 160.000000
75.077643 50.000000 94.644373
67.430815 0.000000 96.380260
7.507988 0.000000 60.488713
0.000000 40.689967 65.829772
17.839949 0.000000 84.895396
80.000000 16.197017 75.360288
80.000000 47.680652 125.209223
59.761401 50.000000 117.459677
29.982940 1.064056 0.000000
66.943527 0.000000 51.943693
28.275674 50.000000 78.993435
61.628271 50.000000 89.535364
0.000000 25.726912 142.149588
52.163413 0.000000 103.561020
21.947270 0.000000 12.691570
51.317033 0.000000 72.563537
20.571927 0.000000 76.764663
80.000000 13.429776 130.299634
52.541068 50.000000 77.589228
14.581678 50.000000 109.840307
0.000000 33.118090 1.217044
47.406985 0.000000 58.341704
80.000000 11.492459 34.275116
73.410658 50.000000 32.401939
35.277431 0.000000 49.872823
32.261491 41.492717 160.000000
30.159116 50.000000 38.410257
39.654279 50.000000 25.946871
15.103433 50.000000 156.406461
0.000000 37.310358 108.931034
44.124712 26.372221 0.000000
11.576598 19.492212 0.000000
0.000000 37.735082 82.973679
64.660996 0.000000 105.453577
0.000000 0.557517 63.107529
0.000000 22.884940 147.667352
30.277005 50.000000 71.798194
32.862798 48.122757 0.000000
0.000000 41.932618 93.703183
13.866481 11.384817 160.000000
30.044135 13.556934 0.000000
77.764238 21.910262 160.000000
58.538665 50.000000 33.038766
0.000000 6.999495 155.952155
24.885773 22.014477 160.000000
0.000000 46.094146 79.986532
0.000000 22.287911 48.521061
18.768182 34.229865 160.000000
0.000000 7.865171 79.059169
71.871749 0.000000 3.461422
32.216198 50.000000 7.153257
5.880125 50.000000 57.175677
80.000000 16.126240 66.427620
77.040799 50.000000 57.724120
0.000000 42.125591 33.104893
56.339816 50.000000 118.083924
45.138168 3.177435 0.000000
68.321829 0.000000 76.950699
0.000000 43.859427 117.989918
4.602874 27.170364 160.000000
77.473624 33.743327 0.000000
38.470352 50.000000 155.961620
79.071224 39.842084 160.000000
62.416402 0.903550 160.000000
54.064211 1.792257 0.000000
80.000000 32.695062 149.194009
0.000000 25.718139 102.250315
68.990346 50.000000 130.565423
30.691432 23.901030 0.000000
80.000000 33.250484 135.279511
35.025550 16.903816 0.000000
30.283687 50.000000 94.977410
0.000000 35.711965 26.379706
80.000000 6.638527 157.616918
80.000000 12.088891 134.032922
64.635477 0.000000 70.456172
72.593590 50.000000 147.843760
6.885828 50.000000 6.934504
41.363539 0.000000 27.209861
46.130714 0.000000 113.142184
50.236637 0.000000 52.050746
0.000000 27.825098 60.225988
24.824068 50.000000 133.394997
46.453143 0.000000 102.634707
49.669697 0.000000 95.218257
1.248976 0.000000 79.588845
79.045569 0.000000 77.198028
19.033104 0.000000 68.780207
52.112838 50.000000 17.541547
80.000000 1.718261 145.094935
26.060889 43.396991 0.000000
27.977523 50.000000 13.813591
80.000000 20.986173 9.506861
80.000000 2.189737 116.977741
0.000000 25.495530 98.887012
59.857937 1.470937 160.000000
80.000000 11.154948 123.309574
53.071367 50.000000 62.542766
80.000000 40.188936 89.058010
73.210241 0.000000 32.037090
0.000000 34.997492 86.631758
0.000000 4.068688 98.481584
26.080067 50.000000 120.164889
0.000000 35.098396 11.346997
6.841467 50.000000 14.652477
0.000000 36.304753 42.823239
80.000000 29.433664 101.502064
0.000000 9.442214 130.464642
0.000000 33.141672 24.138095
70.220116 0.000000 63.604719
78.132468 50.000000 145.507112
13.377976 50.000000 125.000866
72.106117 50.000000 77.960902
42.290842 50.000000 142.844849
21.680001 25.154742 0.000000
0.000000 25.227234 27.033767
15.653196 8.797855 0.000000
37.160371 0.000000 71.181795
53.709793 50.000000 140.425470
32.786400 18.874249 0.000000
52.693988 50.000000 84.761999
50.268133 50.000000 5.327245
11.820825 0.000000 129.235699
63.304951 0.000000 92.377512
33.862472 34.016890 160.000000
75.752314 6.652572 160.000000
16.763566 32.195716 160.000000
0.000000 36.114504 99.971708
0.000000 28.011878 130.020807
22.523189 0.000000 147.657836
59.029675 50.000000 126.776447
76.451459 50.000000 127.834155
78.517827 31.345171 160.000000
69.197678 0.000000 33.905717
80.000000 49.641897 109.657847
0.000000 28.005528 156.549196
24.931224 50.000000 71.410984
1.787609 0.000000 107.966841
54.807787 50.000000 120.849181
31.626874 10.211141 160.000000
78.447192 50.000000 154.026358
51.647875 0.000000 69.559302
34.398699 50.000000 154.717241
2.996142 0.000000 106.532958
80.000000 17.649846 87.709710
6.134079 0.000000 110.323006
64.105833 50.000000 20.841527
35.627437 50.000000 12.518678
74.587230 0.000000 103.719715
67.847221 40.798816 0.000000
39.519718 50.000000 102.829732
69.507045 39.447348 160.000000
0.000000 24.610357 116.876328
49.252528 50.000000 105.836132
80.000000 39.876876 151.395584
13.560832 0.000000 69.319927
0.873606 50.000000 67.634625
30.463180 29.541582 0.000000
80.000000 23.709376 83.769504
0.000000 32.186340 122.777609
60.637794 6.770168 0.000000
65.602537 25.415209 0.000000
79.326164 0.000000 9.659937
0.000000 35.863845 117.244843
58.958021 0.000000 141.445690
35.088547 14.973671 0.000000
80.000000 41.437148 23.641099
15.474258 0.000000 146.380327
11.713078 50.000000 132.554377
60.298608 39.162522 0.000000
57.984044 13.120890 0.000000
80.000000 19.725601 51.634130
80.000000 34.878018 96.940215
0.000000 24.644225 147.923215
80.000000 4.887778 55.126375
0.061076 0.000000 150.923555
0.000000 24.312582 65.725253
50.516803 50.000000 86.862361
7.859266 4.733137 0.000000
80.000000 16.748965 92.997810
16.690545 26.184179 0.000000
38.242960 24.273210 160.000000
69.963078 0.000000 64.534039
80.000000 14.758633 94.181129
33.696991 50.000000 41.842051
19.854194 0.000000 67.560178
80.000000 39.244858 120.165893
55.052481 0.000000 86.776847
80.000000 14.826244 110.947062
6.882230 50.000000 139.816880
19.846158 50.000000 117.216716
25.392715 0.000000 57.832372
49.771633 50.000000 58.964580
0.000000 5.489297 83.581815
70.741269 50.000000 14.834365
80.000000 24.714889 19.154882
34.109257 50.000000 99.193218
76.580223 50.000000 41.204067
39.886633 20.054915 160.000000
18.520903 50.000000 110.315507
80.000000 47.080281 75.632368
37.968030 50.000000 130.486955
30.202294 50.000000 36.991893
38.181038 50.000000 125.088589
5.032917 50.000000 8.277828
0.000000 19.216852 155.034954
11.027621 0.000000 7.051764
44.951912 17.925532 0.000000
67.785880 50.000000 66.865909
59.621929 50.000000 151.225702
0.000000 41.245062 46.304053
48.148977 19.947177 160.000000
14.519759 50.000000 133.649068
0.000000 26.351252 152.864098
30.359178 0.000000 146.191498
79.054882 0.000000 54.856436
50.522412 45.547334 0.000000
27.074633 50.000000 37.018294
42.306202 33.417166 160.000000
19.110611 0.000000 25.649652
77.985491 50.000000 129.482236
20.936043 30.084813 160.000000
80.000000 34.877713 21.770576
68.363292 42.176359 160.000000
0.000000 19.650048 95.154783
0.000000 3.643670 97.675285
53.883934 0.000000 141.273828
80.000000 11.128272 124.346531
76.208499 50.000000 158.594587
0.000000 31.816716 10.425802
62.932877 22.311051 0.000000
37.680573 30.535346 0.000000
0.000000 11.062862 96.336094
38.363720 0.000000 68.155207
0.000000 18.823783 13.378811
0.000000 40.891996 131.044978
22.225224 0.000000 157.398892
80.000000 25.738081 140.323045
18.117920 50.000000 41.567585
0.000000 7.873855 46.068307
0.000000 47.527769 131.067082
66.553195 50.000000 141.713332
0.000000 2.899322 119.535992
15.185687 50.000000 10.750798
0.000000 30.278476 5.481152
17.358706 19.678669 160.000000
71.694709 0.000000 15.563385
5.200695 0.000000 54.904640
0.774290 44.837842 160.000000
80.000000 43.108305 42.913104
9.734960 7.095244 160.000000
80.000000 22.789126 149.540210
8.106399 7.919217 0.000000
21.730038 0.000000 84.171791
17.422215 19.572203 0.000000
56.716797 0.000000 140.286808
57.982700 50.000000 43.774086
0.000000 0.950436 131.807042
59.021154 0.000000 154.193460
16.291313 50.000000 52.476054
77.788977 0.000000 2.265600
80.000000 44.652897 124.519683
41.043845 27.689968 0.000000
80.000000 34.912786 105.824283
79.517437 0.000000 78.832727
31.866757 0.000000 110.640668
0.000000 30.759906 111.890936
77.779788 50.000000 35.115614
0.000000 12.783433 101.417239
66.685999 0.000000 134.794461
0.000000 47.497075 135.013315
0.000000 4.230348 131.924460
70.378552 50.000000 82.210329
50.365099 0.000000 12.725614
4.652717 50.000000 127.925684
28.016727 0.000000 37.662379
70.256360 50.000000 142.163145
56.633401 50.000000 149.354678
50.990328 0.000000 40.320949
25.413595 50.000000 47.123579
80.000000 21.979536 8.743356
7.346033 50.000000 41.480839
19.619280 0.000000 68.712181
80.000000 22.050450 115.635923
80.000000 29.163431 137.884409
61.617537 50.000000 88.287015
0.000000 43.891290 110.136545
80.000000 21.526557 98.547274
29.072899 50.000000 51.190896
0.000000 35.925762 106.003434
48.628275 50.000000 0.983363
0.000000 30.984592 159.439606
1.941321 50.000000 115.765701
77.712906 0.000000 68.492676
25.927664 0.000000 29.485981
0.902808 50.000000 22.265674
80.000000 4.731958 140.198455
80.000000 45.647157 58.393296
62.492187 50.000000 143.964010
0.000000 9.886039 136.198151
72.266564 26.283124 0.000000
29.032105 30.912313 0.000000
51.138834 0.000000 13.193087
0.000000 47.965810 135.745009
7.475994 50.000000 12.121832
42.267910 50.000000 83.565613
0.000000 49.462386 80.176853
0.000000 16.268164 1.740736
60.999267 0.000000 140.588498
0.000000 48.483094 124.483622
44.294535 50.000000 111.473260
76.440161 50.000000 30.543652
80.000000 35.815713 10.353696
20.079566 49.465306 160.000000
57.245875 20.206464 160.000000
51.300851 0.000000 107.202508
44.062849 14.557088 160.000000
60.338762 50.000000 154.771658
4.994780 50.000000 156.214374
14.990963 0.000000 58.388685
5.352158 1.099810 0.000000
39.465161 50.000000 85.435518
35.317626 50.000000 98.069762
68.007841 50.000000 130.167820
66.376650 0.000000 123.665133
15.355980 44.820018 0.000000
46.465871 50.000000 150.120535
30.503849 0.000000 92.447231
14.145656 50.000000 86.987528
71.996399 50.000000 53.507630
0.000000 46.998020 91.066690
75.856188 0.000000 62.349031
65.446714 0.000000 157.916588
0.000000 46.639826 59.054263
0.000000 19.244937 2.714751
80.000000 20.399722 19.825930
21.020133 37.051034 0.000000
0.000000 25.719497 46.899259
80.000000 2.283707 47.285016
80.000000 2.144806 78.592154
15.547309 50.000000 124.417110
3.888416 17.941554 0.000000
67.253607 50.000000 40.206238
2.132720 50.000000 5.408557
80.000000 12.568202 73.923568
46.162676 26.749048 0.000000
38.982291 0.000000 148.610076
12.508118 50.000000 144.147208
29.784586 31.917677 0.000000
0.000000 27.092249 132.789665
54.948273 0.000000 124.154996
51.846439 0.000000 39.617932
0.000000 45.716258 66.404178
57.603058 22.325476 160.000000
55.098018 0.000000 58.690649
20.238299 0.000000 130.195658
29.480648 0.000000 24.326265
55.485795 50.000000 58.748625
3.975817 0.000000 121.260919
80.000000 23.798489 134.955849
0.000000 37.591808 23.178966
0.000000 33.988973 45.162421
39.033984 50.000000 65.453961
20.368967 0.000000 51.807904
0.000000 7.377320 96.037868
0.880613 0.203982 0.000000
1.802369 42.514517 160.000000
33.944712 0.000000 111.331305
47.697366 50.000000 144.373524
21.823560 50.000000 149.976287
0.000000 33.891822 103.517685
80.000000 26.323680 58.391749
29.754958 50.000000 125.242737
80.000000 44.205306 75.786213
0.000000 5.578219 134.503419
10.953826 0.000000 32.048395
35.451152 0.000000 150.076944
69.515648 50.000000 82.244030
5.270377 0.000000 81.987646
57.341069 19.704901 0.000000
33.621516 50.000000 95.734642
62.160426 50.000000 99.287177
74.580324 50.000000 132.773921
0.000000 13.517457 86.079350
1.689992 50.000000 68.331029
68.529185 6.228838 0.000000
80.000000 31.197142 84.203066
63.314920 0.000000 83.859469
16.241040 50.000000 110.824738
51.105253 50.000000 28.228323
33.616676 50.000000 128.382209
80.000000 48.256198 31.010548
42.733494 19.579455 160.000000
75.848050 0.000000 6.643176
38.367205 0.000000 124.398739
0.000000 34.938596 107.576770
73.663607 50.000000 15.461259
80.000000 6.268112 47.130442
0.000000 11.214862 97.051490
0.000000 12.182376 32.796895
28.405944 0.000000 62.037468
52.249625 5.897593 160.000000
17.445410 0.000000 108.765841
44.368675 50.000000 32.688452
65.886720 11.593018 160.000000
0.000000 13.679562 32.634203
73.944981 50.000000 66.812410
54.167029 0.000000 66.515327
7.551854 50.000000 82.610363
19.721880 50.000000 72.196280
44.011124 50.000000 117.579533
25.961006 22.007791 160.000000
36.049798 0.000000 66.427497
21.987338 22.244611 160.000000
69.062208 0.000000 151.972923
71.993093 0.000000 28.856249
23.676266 0.000000 13.548766
0.000000 48.789254 120.918513
23.073427 0.000000 159.999903
0.000000 26.170111 116.465465
80.000000 9.801431 43.802666
80.000000 29.203997 104.717624
0.000000 16.211164 46.981889
12.887579 38.188265 160.000000
13.957827 50.000000 99.744832
54.758782 50.000000 5.326644
31.580899 0.000000 42.867367
2.917498 2.923283 160.000000
59.171037 50.000000 18.153912
22.656463 32.496938 0.000000
0.000000 25.503605 92.493659
0.000000 37.630125 155.268047
78.971463 50.000000 118.913851
14.866226 0.000000 61.035087
18.053073 50.000000 35.704623
75.343655 31.123689 160.000000
56.079467 50.000000 10.325699
0.000000 20.946714 72.667494
79.467259 0.000000 0.546031
80.000000 45.383690 122.697546
16.858327 50.000000 67.403369
23.495688 50.000000 156.873028
13.421366 0.000000 155.090439
71.207804 0.000000 141.071630
55.871423 0.000000 54.643548
68.446405 0.000000 102.487832
74.477480 50.000000 10.303911
25.136806 50.000000 11.765636
73.829888 9.806406 160.000000
80.000000 18.539920 46.252844
18.014748 20.726341 160.000000
60.862259 0.000000 42.242171
37.311237 50.000000 63.877674
44.196039 50.000000 122.078588
24.482372 0.000000 107.531593
0.000000 26.107743 18.684815
75.527302 50.000000 106.956060
67.223043 50.000000 60.092213
0.000000 8.038241 36.678551
8.132513 0.000000 141.431614
80.000000 33.605994 56.442709
80.000000 42.694707 152.748670
17.153012 0.000000 93.616086
0.000000 29.915879 36.172605
39.209300 8.217542 0.000000
67.027969 50.000000 126.714073
34.226554 0.000000 103.867275
26.761105 50.000000 153.626508
60.965503 50.000000 7.664068
9.657332 50.000000 38.156665
12.835454 0.000000 27.458814
52.639550 18.614184 0.000000
0.000000 35.834378 80.985605
50.102013 0.000000 146.114687
56.486632 0.000000 61.284942
27.498099 0.000000 37.187821
22.263330 0.000000 19.104665
19.071493 50.000000 64.948492
34.342678 50.000000 54.539061
80.000000 17.485944 31.559519
43.370323 0.000000 39.518666
30.831652 41.397222 160.000000
80.000000 14.383411 86.561121
12.828760 0.000000 149.281831
19.146437 0.000000 20.651989
19.085258 50.000000 48.648232
36.291535 0.000000 72.561710
75.758058 50.000000 44.919448
22.481503 50.000000 151.073814
25.849732 50.000000 80.961353
67.665356 50.000000 141.842041
48.871321 50.000000 12.514232
80.000000 17.425338 30.356912
80.000000 29.717125 159.438915
80.000000 16.391417 112.494797
0.000000 37.467477 54.143299
27.319413 50.000000 111.484728
42.144334 0.000000 57.379606
9.220868 0.000000 26.138093
80.000000 37.236839 116.279814
51.015090 50.000000 118.454497
80.000000 6.408587 42.910409
23.344573 0.000000 128.172086
80.000000 35.570121 132.735312
53.471988 31.472364 0.000000
3.621758 0.000000 86.416249
70.190652 50.000000 63.983040
25.095926 0.000000 137.729351
73.146536 50.000000 27.319657
11.549772 50.000000 153.298994
0.000000 28.720870 127.699366
80.000000 7.067468 0.747010
26.053125 50.000000 98.135592
1.357624 50.000000 42.493987
78.950719 14.187444 160.000000
25.621886 50.000000 66.954274
77.904148 0.000000 12.991854
13.465992 50.000000 121.577179
22.152594 0.000000 114.046341
42.258815 1.056298 0.000000
23.329652 0.000000 23.879761
0.000000 25.502150 87.083250
69.016315 0.000000 66.323906
15.444627 50.000000 107.733057
14.940410 0.000000 60.344343
38.182781 8.055862 160.000000
78.499283 0.000000 63.202012
70.843170 16.525085 160.000000
24.681421 50.000000 68.241099
4.069450 13.661692 160.000000
69.389555 26.648233 0.000000
9.830328 0.000000 108.483003
80.000000 21.082202 132.263327
49.206479 50.000000 54.940690
6.423342 0.000000 51.426925
64.981972 50.000000 79.020047
80.000000 13.901586 28.166862
30.894724 50.000000 77.614303
55.300820 49.575066 160.000000
48.028620 0.000000 31.222030
0.000000 44.444040 100.758787
80.000000 0.719682 110.918457
40.663834 23.775661 0.000000
0.000000 4.445722 2.111675
80.000000 0.000209 34.490425
0.000000 10.416307 154.759084
67.864135 0.000000 7.536318
13.379035 0.000000 44.692412
57.108329 0.000000 127.663271
58.443525 50.000000 63.108889
80.000000 34.809342 96.429239
13.529725 15.083174 160.000000
12.082223 47.803709 0.000000
0.000000 48.425668 117.088600
44.374414 23.407894 160.000000
80.000000 35.981814 22.623524
80.000000 38.728027 123.643114
80.000000 38.704902 72.539409
6.929596 0.000000 23.041513
50.207075 40.634049 160.000000
13.408084 50.000000 118.996426
64.135987 50.000000 39.336816
13.693263 50.000000 28.891729
24.663824 0.000000 29.575812
0.000000 37.804624 71.902965
0.000000 35.970851 4.158064
61.027291 0.000000 88.443492
27.320295 0.000000 52.527528
29.868672 0.000000 152.820163
67.980252 19.456721 160.000000
0.000000 26.984980 139.392316
11.576525 0.000000 43.193829
80.000000 45.585265 111.919752
80.000000 3.894675 117.875671
10.325290 0.000000 50.410452
52.248253 50.000000 28.714752
80.000000 1.278779 34.556546
56.725207 0.000000 49.017795
10.552177 50.000000 64.469285
19.023802 0.000000 106.287710
34.460901 50.000000 93.720362
69.669125 0.000000 25.601491
0.000000 41.377778 136.088894
80.000000 44.868688 82.996396
39.446805 50.000000 104.443652
51.598584 50.000000 20.335129
57.968021 0.000000 87.260530
38.911283 50.000000 12.268276
19.214549 50.000000 38.280721
2.784866 10.743327 160.000000
26.998065 0.000000 106.923099
25.655790 0.000000 135.431385
80.000000 3.328134 110.300587
64.899024 0.000000 68.733358
19.845506 0.000000 9.813193
70.522038 50.000000 26.004430
80.000000 42.103102 8.844145
0.000000 22.209261 151.060793
69.436024 46.857800 0.000000
12.246390 0.000000 43.061038
80.000000 11.253973 121.257468
0.689490 0.000000 101.444626
13.191450 29.067580 0.000000
4.627690 50.000000 34.141825
80.000000 9.858506 75.888864
43.384813 50.000000 151.150845
80.000000 0.238745 106.068753
55.765005 50.000000 16.282830
20.721647 50.000000 12.802086
76.234989 0.000000 82.039960
74.757180 50.000000 29.394996
14.935257 0.000000 83.606204
73.085092 0.000000 145.360894
0.000000 6.162733 31.091233
46.133780 0.000000 136.821900
0.000000 13.668731 64.051811
0.000000 48.527315 148.155068
66.162517 0.000000 54.875207
60.039391 50.000000 57.398403
80.000000 20.060128 24.754362
0.000000 36.812802 9.755866
80.000000 17.716568 100.570510
80.000000 10.791320 64.753070
1.627021 0.000000 156.265827
52.854458 50.000000 16.244235
14.055667 8.995695 160.000000
0.000000 4.424675 54.171742
39.666478 0.000000 157.060995
77.016089 50.000000 67.417242
72.523080 0.000000 71.183220
0.000000 21.406209 54.373274
80.000000 3.046707 126.503536
14.463939 50.000000 92.307489
38.449666 50.000000 84.521353
14.953795 45.140244 0.000000
0.000000 43.965857 92.911838
80.000000 9.447448 16.777261
80.000000 45.313000 82.553485
63.194277 0.000000 141.389570
0.000000 36.458680 81.878508
53.323694 12.001261 0.000000
35.318915 0.000000 110.259635
77.150524 0.000000 128.331502
37.530302 50.000000 47.067522
19.033445 50.000000 96.130140
25.928786 13.499639 160.000000
0.000000 47.156964 63.705322
0.000000 7.712504 76.095532
36.397938 50.000000 79.148630
80.000000 21.283584 94.050061
71.238574 0.000000 119.783283
80.000000 28.572963 127.015212
0.000000 40.096633 57.018275
80.000000 12.936129 65.344119
0.000000 1.680696 72.978105
57.500967 50.000000 80.881881
0.496544 50.000000 51.001407
31.724284 50.000000 114.139921
80.000000 0.125323 57.314227
0.000000 48.318933 149.133742
80.000000 35.279294 159.471351
37.660052 0.000000 158.004168
46.641849 21.590818 160.000000
76.140374 0.000000 31.234348
55.468901 50.000000 153.206542
66.860855 50.000000 44.134620
67.847689 0.000000 150.681771
0.000000 21.909575 26.202822
23.163528 0.000000 132.239415
80.000000 30.099960 8.948316
23.638201 0.000000 0.577273
78.102144 50.000000 11.299739
55.034034 0.000000 67.520997
0.000000 30.541753 136.835252
66.693559 50.000000 148.495144
32.158959 50.000000 100.880598
0.000000 33.161126 157.793135
72.953911 50.000000 22.723980
15.142808 0.000000 92.387222
80.000000 28.827338 150.732195
40.260624 0.000000 77.907004
8.689941 0.000000 66.869770
80.000000 6.490587 2.441745
80.000000 23.185255 147.577191
80.000000 29.528133 44.124138
76.941601 50.000000 128.601807
49.719320 39.421302 0.000000
42.474942 0.000000 124.508888
20.277860 0.000000 146.274349
80.000000 5.591472 110.430699
7.029577 50.000000 102.197335
15.513732 0.000000 113.771529
80.000000 13.712577 159.361883
80.000000 13.000126 64.061613
80.000000 47.933148 15.625909
12.190609 25.126106 0.000000
80.000000 4.658366 145.153405
79.444568 0.000000 81.103802
80.000000 20.568711 101.434911
0.000000 2.985046 125.530684
80.000000 13.973216 127.027217
24.731072 50.000000 116.961411
60.042772 0.000000 45.186761
2.673648 0.000000 147.238162
11.816485 50.000000 105.651488
80.000000 8.586801 6.121138
43.771985 0.000000 23.707718
68.554986 0.000000 15.241686
58.297040 0.000000 10.483982
10.771261 50.000000 9.948104
51.674105 41.408032 160.000000
45.686039 0.000000 1.621523
21.120064 0.000000 30.300563
40.565147 50.000000 159.272270
0.000000 1.160906 114.575423
0.000000 1.304220 75.296177
80.000000 7.227884 101.659823
80.000000 33.346928 16.381467
59.489481 0.000000 152.562082
5.623832 0.000000 51.589046
80.000000 48.115465 5.231496
7.058820 50.000000 63.034009
80.000000 25.880804 120.782039
29.820560 24.000342 160.000000
53.199727 15.335472 0.000000
35.989604 50.000000 135.259892
67.445426 4.336556 160.000000
13.447881 0.000000 47.212089
46.387295 50.000000 156.611660
80.000000 31.084866 93.711897
80.000000 10.142402 67.366945
29.254990 50.000000 73.908272
21.979711 0.000000 60.166391
45.577465 11.559709 160.000000
78.386312 0.000000 110.037918
0.000000 12.055513 23.720212
67.514916 50.000000 70.134734
59.458222 0.000000 16.920926
11.061974 0.000000 94.220433
16.294752 50.000000 143.336114
0.000000 40.750054 145.115545
26.063714 0.000000 46.233945
1.133879 15.107137 160.000000
26.637601 25.557500 160.000000
54.512620 42.696663 160.000000
0.000000 6.662873 16.424189
0.000000 17.640098 30.958126
11.119270 18.745748 160.000000
24.485702 33.652582 0.000000
0.000000 2.392038 6.874482
80.000000 36.469020 152.656370
10.547108 42.427424 160.000000
27.812957 50.000000 159.367613
80.000000 13.334926 110.964012
53.147688 34.484043 160.000000
37.305801 50.000000 72.629807
0.000000 31.524039 80.705952
39.374409 0.811775 0.000000
80.000000 27.593990 88.817252
0.000000 30.342130 96.543906
58.772637 50.000000 115.781524
80.000000 3.554716 7.806967
8.186848 0.000000 71.881637
0.000000 21.473800 11.036444
11.545030 37.171276 160.000000
52.823949 41.411538 0.000000
16.809046 0.000000 23.459446
41.372697 45.968067 160.000000
55.031797 0.000000 124.867086
53.886862 50.000000 40.859682
70.207550 50.000000 124.150312
48.892912 0.000000 52.443694
0.000000 28.742068 74.533988
55.589581 50.000000 24.821836
50.214658 50.000000 19.694807
24.232115 3.478377 0.000000
37.529450 11.305535 160.000000
7.895538 50.000000 110.619202
53.953130 35.291836 0.000000
65.018301 0.000000 134.605209
49.874628 0.000000 103.021598
80.000000 9.923057 73.225324
75.967908 50.000000 130.606110
3.130954 50.000000 107.000703
66.490928 50.000000 49.550320
37.925709 0.000000 76.381046
44.521917 35.809052 160.000000
0.000000 12.032416 119.310421
12.317439 0.000000 91.072933
7.853889 0.000000 24.414412
80.000000 27.522936 150.721148
30.607088 50.000000 60.160360
41.700324 0.000000 68.435359
55.258046 0.000000 38.021206
0.000000 48.523433 120.010641
65.018397 0.149983 160.000000
6.353483 0.000000 14.204241
80.000000 35.835996 45.057191
27.149006 50.000000 92.428524
18.000077 0.000000 51.939751
19.093611 0.000000 84.188754
22.203871 41.774878 0.000000
48.638876 0.000000 141.103516
80.000000 17.509598 132.162498
27.230214 0.000000 73.936535
31.471835 50.000000 28.774822
40.588229 43.270095 0.000000
27.219857 0.000000 57.366722
80.000000 40.693814 106.138497
77.247212 0.000000 127.138205
80.000000 17.757847 62.988842
43.144204 0.000000 11.247098
32.239821 7.970561 160.000000
19.926889 7.450037 160.000000
37.828474 50.000000 1.350410
68.954958 50.000000 156.747048
0.000000 48.021130 135.136151
0.000000 23.902800 66.443934
5.718710 0.000000 136.818460
45.782704 0.000000 157.235639
2.923625 47.869161 160.000000
0.000000 1.809205 114.280526
80.000000 40.521669 16.913724
72.504690 0.000000 65.883513
27.177940 50.000000 33.581461
1.495618 50.000000 65.580544
0.000000 30.224175 36.681035
64.351555 50.000000 129.446513
21.807353 0.000000 149.638252
36.260409 50.000000 23.327226
49.696518 0.000000 74.175198
79.163395 0.000000 87.878878
80.000000 8.972898 101.743016
59.351497 0.000000 137.425822
29.305198 24.998707 160.000000
7.310629 0.000000 143.998704
6.993702 50.000000 132.238030
20.861107 0.000000 11.180022
0.646215 10.619933 0.000000
0.000000 21.297593 40.471805
70.726543 50.000000 10.772543
22.520387 0.000000 25.929376
0.000000 9.846477 143.197158
7.230030 0.000000 147.370203
0.000000 25.754416 42.090334
39.465201 16.458678 0.000000
0.000000 34.860475 142.885569
80.000000 46.983207 46.051700
20.568637 50.000000 117.339225
0.000000 20.932326 31.972843
5.786479 0.000000 124.850659
20.315294 0.000000 94.931074
21.476029 0.000000 58.128396
0.000000 36.129919 90.815507
40.612154 25.029018 0.000000
28.094192 0.000000 75.786119
80.000000 24.844251 83.733786
70.081374 50.000000 135.645913
0.000000 19.071687 61.824612
8.796587 50.000000 144.296604
14.845901 0.000000 46.996533
58.427836 0.000000 135.248334
53.923701 14.292258 160.000000
65.730505 0.000000 57.994369
0.000000 43.190501 158.417827
41.215195 0.000000 109.659638
46.526490 50.000000 50.006378
54.272386 50.000000 12.656347
58.809428 50.000000 128.306431
80.000000 1.818981 150.172882
63.789639 50.000000 63.446514
31.407620 0.000000 100.689493
10.426833 0.000000 69.678421
70.592670 50.000000 29.090506
29.348903 46.113048 0.000000
73.057711 50.000000 74.468630
18.843231 0.000000 19.010528
0.000000 49.534804 103.563365
11.585130 50.000000 84.802912
0.000000 41.446149 154.840228
57.908221 0.000000 19.844838
21.965494 50.000000 37.257835
0.028043 50.000000 95.718931
0.000000 40.799604 81.184005
80.000000 44.780566 95.442699
80.000000 10.581654 63.411214
0.785297 50.000000 110.995242
54.288736 50.000000 33.295024
46.882657 50.000000 35.903329
11.737865 1.860308 0.000000
80.000000 1.188863 45.352351
34.305953 38.702577 0.000000
48.762843 32.971850 0.000000
56.303034 0.000000 157.594962
62.181376 44.190510 160.000000
67.726602 50.000000 150.902828
36.806118 50.000000 132.282837
0.000000 32.439092 50.691299
20.223036 50.000000 66.301358
40.621884 0.000000 158.897920
38.285389 3.514469 0.000000
2.658810 0.000000 58.175842
34.941562 50.000000 157.908947
14.376576 50.000000 36.923040
24.557513 50.000000 115.752823
61.263193 0.000000 44.831846
33.442527 42.118552 160.000000
48.456760 50.000000 57.695994
32.404514 50.000000 5.584393
71.726776 50.000000 102.888760
0.000000 37.256974 67.432812
80.000000 49.140397 52.067987
0.000000 2.951198 67.963030
80.000000 3.742966 29.837500
80.000000 6.781928 114.211938
53.399907 50.000000 14.331154
30.521793 0.000000 23.273580
11.116634 0.000000 142.385484
80.000000 48.656568 27.052597
63.948775 0.000000 32.772470
15.149770 0.000000 28.962982
58.677212 0.000000 69.516466
17.656191 50.000000 84.154430
53.070068 0.000000 42.884784
14.395856 0.000000 60.818439
12.147373 0.000000 47.362172
30.759719 24.630970 160.000000
0.000000 10.047683 145.047184
6.506226 0.000000 0.093308
39.859557 49.147619 0.000000
80.000000 39.056883 55.339878
39.295774 4.316010 0.000000
57.931865 50.000000 157.256809
33.302406 50.000000 79.158476
25.587158 0.000000 113.643708
80.000000 4.150275 40.873640
80.000000 10.989793 52.461782
65.836791 38.582827 0.000000
4.893947 30.394430 160.000000
48.491390 0.000000 95.983375
68.976224 0.000000 155.263061
68.356043 0.000000 32.100748
53.120460 50.000000 71.688467
80.000000 5.644605 65.938231
0.000000 32.339591 154.469142
36.968494 50.000000 113.032819
80.000000 22.135253 58.116104
45.537401 0.000000 44.463153
7.692202 4.229076 0.000000
14.215072 0.000000 143.815923
52.919083 0.000000 17.462283
0.000000 35.925665 80.373737
80.000000 44.226983 115.906534
21.358342 0.000000 0.810206
0.000000 15.187526 37.952376
80.000000 36.194031 82.237782
0.000000 19.580849 50.333847
80.000000 0.579415 117.522092
42.860177 11.770024 0.000000
27.814703 0.000000 128.979814
14.723541 50.000000 8.121478
26.241334 50.000000 128.474466
80.000000 22.337620 105.904654
80.000000 42.930320 129.506662
17.442557 15.684848 0.000000
63.035649 50.000000 109.851110
33.000593 50.000000 105.075204
54.430603 0.000000 47.846058
0.000000 34.991806 150.656922
0.000000 19.245380 23.860185
36.694071 0.000000 139.377760
80.000000 23.520713 145.870930
62.694006 45.922056 0.000000
80.000000 44.544885 159.136180
80.000000 13.752420 98.729272
24.110349 0.000000 116.084246
39.361503 0.000000 96.729478
55.128590 17.164333 160.000000
74.326549 50.000000 81.257741
13.311353 0.000000 0.204690
30.246535 0.000000 20.825052
0.000000 42.111424 112.353204
23.375732 50.000000 155.212036
80.000000 11.015489 12.020452
31.140533 50.000000 12.902433
80.000000 37.486799 4.347355
17.243139 0.000000 151.013014
70.628743 39.250866 0.000000
80.000000 8.592846 119.140498
52.324604 0.000000 115.321321
80.000000 3.380029 76.460469
19.614133 50.000000 30.756422
15.616221 50.000000 16.575374
57.173119 0.000000 112.881182
60.101005 0.000000 144.133816
0.000000 28.711208 155.494545
80.000000 20.692145 28.373670
47.092480 21.950513 160.000000
15.374846 0.000000 120.169467
80.000000 38.897699 121.860557
62.950154 0.000000 18.143906
80.000000 43.380622 142.119928
45.091343 50.000000 48.239217
41.483748 50.000000 0.558831
80.000000 23.760973 98.376809
69.975058 45.870399 0.000000
37.483493 13.409602 0.000000
71.882466 50.000000 42.147731
80.000000 45.318632 142.701951
0.000000 40.856007 158.179045
0.000000 26.248485 59.000246
45.002758 0.000000 93.361322
80.000000 8.387456 96.424749
49.233239 50.000000 92.454145
76.757196 0.000000 113.334447
0.000000 20.832436 131.673629
79.539235 0.000000 103.504378
77.239844 33.226670 0.000000
0.000000 34.657171 22.078908
19.765122 0.000000 157.693010
36.791180 50.000000 104.639097
15.765870 12.281464 160.000000
0.000000 47.081549 58.793110
7.653172 11.351468 160.000000
16.183742 50.000000 157.916644
36.128866 50.000000 108.655414
0.000000 13.850170 1.693937
57.763499 44.134316 160.000000
43.671263 50.000000 30.451552
15.083563 0.000000 39.876111
62.111569 0.000000 87.772623
0.000000 30.199370 83.149879
3.465847 50.000000 157.621974
67.781073 50.000000 71.986546
0.000000 42.929757 138.002397
13.504587 0.000000 86.278656
0.000000 39.826123 144.144731
0.000000 33.264446 113.820425
73.548926 33.242749 0.000000
60.354879 50.000000 123.815068
0.000000 48.116872 76.639002
10.862235 50.000000 42.228886
0.000000 35.955139 61.542895
71.436208 0.000000 106.307627
41.108808 1.699986 0.000000
33.273152 31.928758 0.000000
76.043310 50.000000 93.738378
19.925540 0.000000 14.191796
0.000000 1.627158 124.765400
3.802085 50.000000 100.596104
0.000000 14.711825 51.958981
3.824261 50.000000 134.387029
33.442065 50.000000 48.329824
25.386404 46.427592 0.000000
62.678476 0.000000 79.819714
0.000000 29.528324 105.368219
0.000000 28.500612 85.291511
18.906494 0.000000 70.692012
80.000000 7.721067 67.504454
73.937191 29.103635 0.000000
69.372548 50.000000 113.203238
0.000000 19.357448 107.509120
18.042914 0.000000 50.603910
0.000000 38.915984 141.350866
0.000000 40.610560 41.225769
18.638921 0.000000 149.348162
0.000000 21.647045 84.846334
12.189588 0.000000 125.443867
71.480570 43.620453 160.000000
69.391914 50.000000 25.530359
0.000000 39.998003 92.274843
60.896257 0.000000 27.759948
30.370873 0.000000 82.417382
0.000000 28.150175 92.837607
25.158313 50.000000 60.923973
57.056455 31.945185 0.000000
30.205208 50.000000 122.924803
54.927395 10.465969 160.000000
53.777421 50.000000 95.280119
73.836260 50.000000 154.496308
80.000000 33.230852 34.163245
0.000000 29.823126 125.871546
80.000000 31.206083 19.343453
80.000000 44.628699 139.858460
57.954988 0.000000 64.609868
0.000000 15.593710 73.367968
80.000000 25.580344 128.281614
51.475605 50.000000 88.998345
68.404345 36.782528 0.000000
0.000000 13.107218 29.670901
60.033718 50.000000 112.293841
0.000000 19.328021 65.843904
62.997681 50.000000 62.177615
28.336551 50.000000 150.629031
80.000000 16.601924 86.530095
64.043137 50.000000 4.254512
0.000000 47.518321 113.151234
0.761142 0.000000 79.729773
45.168760 39.378045 160.000000
35.952300 39.416307 0.000000
0.000000 28.206926 157.245600
23.038477 0.000000 115.068846
42.966635 50.000000 136.507053
6.089531 0.000000 54.494390
33.519926 50.000000 37.414773
24.374424 29.670177 0.000000
61.370722 50.000000 143.041352
0.000000 0.008452 123.608787
80.000000 13.372862 147.228337
0.000000 42.324173 156.099578
65.867424 38.029083 0.000000
80.000000 36.892639 41.153049
0.000000 4.258313 82.293997
28.955384 0.000000 154.315109
51.821562 50.000000 46.411557
80.000000 36.092496 146.621018
31.605171 0.000000 83.219180
0.000000 16.460232 26.001005
0.000000 9.691484 119.686269
80.000000 37.541042 64.067004
50.928943 0.000000 19.734491
79.981635 0.000000 132.701132
28.329726 44.257221 160.000000
0.000000 11.548054 82.865602
59.744951 0.000000 48.913229
7.172420 0.000000 43.435527
80.000000 1.752690 44.262359
0.000000 32.055121 151.189184
0.000000 8.890690 65.924242
80.000000 21.000244 113.607813
75.452816 50.000000 107.561384
1.618615 20.101253 0.000000
68.451701 50.000000 70.867149
62.558575 50.000000 65.517056
14.080149 0.000000 45.727529
56.551145 37.931577 160.000000
80.000000 9.013370 16.465637
35.963028 0.000000 80.777798
3.588624 50.000000 157.124417
73.672720 50.000000 99.182966
29.605870 50.000000 31.371849
41.374875 21.368526 0.000000
37.936493 50.000000 96.208443
0.000000 26.024783 18.091424
0.000000 35.409262 97.674112
36.319687 50.000000 28.951163
16.046088 0.000000 124.068297
58.181100 50.000000 122.604405
80.000000 9.123779 133.216480
0.000000 28.241120 46.637026
30.787875 0.000000 141.827279
80.000000 11.718749 71.279958
4.039333 50.000000 153.940220
48.535301 50.000000 151.064806
17.233971 46.460403 160.000000
13.860165 50.000000 107.119602
53.671039 10.061197 0.000000
36.854569 50.000000 103.104572
80.000000 18.776620 2.702966
13.857879 50.000000 113.674592
0.000000 6.725669 24.783616
0.000000 21.374514 99.977387
8.730805 0.000000 146.036318
46.495974 0.000000 3.885369
49.049875 36.066527 0.000000
0.000000 4.764458 11.210716
54.665128 22.926965 160.000000
44.085874 49.998734 160.000000
15.221885 31.548009 160.000000
80.000000 45.891967 128.442963
0.000000 26.210109 66.778650
0.000000 2.300430 140.892397
23.096797 0.000000 0.950073
12.876095 0.000000 84.314919
80.000000 29.952003 127.923918
80.000000 34.435394 123.894586
80.000000 16.206466 1.552224
11.646652 22.798762 160.000000
38.492033 50.000000 83.393575
3.957122 50.000000 0.261290
52.726674 50.000000 149.042052
74.083394 50.000000 53.420526
0.000000 23.746927 42.721502
0.000000 17.378310 7.032986
67.363582 31.662522 0.000000
77.826739 50.000000 103.814252
42.759449 50.000000 107.847426
0.000000 21.629699 143.559715
75.342839 35.042916 160.000000
36.754751 50.000000 100.326567
37.761676 50.000000 94.287647
0.000000 20.626964 102.818386
80.000000 46.595790 96.497075
6.858722 0.000000 157.691994
3.518334 50.000000 34.737797
68.701192 0.000000 60.615167
0.000000 44.660817 30.575054
15.247693 42.578176 160.000000
2.716575 16.848701 0.000000
0.610895 33.592148 160.000000
36.880575 50.000000 106.442675
26.293339 50.000000 37.771183
80.000000 16.548480 66.832735
80.000000 38.993453 124.268068
50.404124 50.000000 103.746054
34.584900 50.000000 89.506099
0.000000 30.300286 130.586247
61.023674 50.000000 31.686772
32.495337 0.000000 151.196848
80.000000 1.416346 118.663060
24.884471 0.000000 13.560590
15.538442 0.000000 148.691448
5.393143 50.000000 136.130383
33.435644 0.000000 21.405958
58.413133 0.000000 6.018944
0.000000 10.127158 0.659512
17.923415 50.000000 34.064959
0.000000 12.290282 42.423743
0.000000 6.059877 86.329202
10.109114 0.000000 81.124596
77.677486 0.000000 41.248234
0.000000 35.760920 97.022527
18.171024 50.000000 118.835415
0.000000 40.892519 100.030648
48.231460 50.000000 50.707314
50.458652 50.000000 21.308991
80.000000 4.168337 126.984141
68.180543 0.000000 51.264318
7.449441 50.000000 88.805720
62.370428 0.000000 111.182707
21.984694 50.000000 34.802483
0.000000 26.057926 111.321484
79.946902 0.000000 53.312094
80.000000 27.555676 38.030736
80.000000 38.835486 156.684491
12.520049 0.000000 83.858747
0.000000 14.969729 136.123104
42.447927 50.000000 145.449311
80.000000 30.470102 36.742637
0.000000 8.430579 94.489934
68.480769 50.000000 140.229177
11.669880 0.000000 55.419405
80.000000 49.498225 4.816025
71.517706 13.856445 160.000000
34.679239 50.000000 115.887596
60.307337 2.670949 0.000000
74.266207 0.000000 50.977769
1.438077 0.000000 113.168743
52.852157 0.000000 120.239580
73.069983 0.000000 85.529696
0.000000 37.152462 58.468455
70.488293 50.000000 85.733979
31.529857 40.458980 0.000000
68.683141 0.919843 160.000000
80.000000 5.692251 103.517585
53.127022 50.000000 7.271085
15.080992 50.000000 128.622042
21.565380 23.404144 160.000000
80.000000 42.144228 104.144580
28.941517 23.852645 0.000000
0.000000 22.663949 61.489546
48.548532 0.000000 47.959150
18.917294 30.818015 0.000000
80.000000 32.484529 128.305927
16.551165 0.000000 20.608764
24.422057 50.000000 133.733232
11.992917 0.000000 2.842549
45.138179 50.000000 137.053427
33.790221 27.643688 160.000000
14.788526 43.004642 0.000000
27.047545 0.000000 26.525219
10.969422 50.000000 43.800828
80.000000 33.067343 20.667447
80.000000 7.746201 145.565062
49.617988 50.000000 2.177756
31.581255 0.000000 101.401637
34.096710 0.000000 142.328657
27.894676 0.000000 3.392718
0.000000 5.642664 65.592602
80.000000 5.377721 72.807380
0.000000 44.844221 35.618799
64.683339 0.000000 98.617916
0.000000 3.589439 119.370885
0.000000 36.448718 117.202533
65.252146 50.000000 14.129636
64.894386 15.077677 160.000000
41.116259 50.000000 60.620865
60.205701 50.000000 60.812453
0.000000 29.868034 91.323740
56.234414 37.293925 160.000000
46.145859 0.000000 86.988241
13.971796 0.000000 124.386739
80.000000 12.702283 21.941190
75.911942 50.000000 39.377658
47.197000 0.000000 77.713642
62.733422 0.000000 11.642440
50.543351 50.000000 104.578747
0.000000 36.028383 98.293252
80.000000 8.292769 109.756924
47.504315 6.169777 160.000000
0.000000 5.035602 116.189910
79.515657 0.000000 133.033791
16.271704 50.000000 7.039180
0.618044 0.000000 117.744004
80.000000 32.956464 152.433489
80.000000 19.170060 82.910887
43.740971 12.203181 160.000000
0.000000 48.811556 132.926360
10.526368 15.574051 160.000000
41.195267 50.000000 107.377003
80.000000 13.298006 142.396156
49.570414 37.694391 0.000000
16.448502 50.000000 4.373958
16.090507 0.000000 151.933456
61.879065 30.600284 160.000000
10.907462 50.000000 107.713200
67.987883 50.000000 73.721481
57.263416 21.003336 0.000000
0.000000 9.515866 141.420787
33.519203 0.000000 114.327364
0.000000 27.366273 67.699974
21.153520 50.000000 94.364171
77.955950 0.000000 149.176098
15.968068 50.000000 104.898266
19.151803 3.032038 0.000000
6.906067 50.000000 28.620335
33.915027 0.000000 47.850334
69.331714 0.000000 62.841961
80.000000 42.418907 71.048642
39.230200 50.000000 102.418238
58.347847 50.000000 8.759176
80.000000 18.363488 74.369749
17.344201 50.000000 105.151230
21.669029 0.000000 9.950069
45.719592 50.000000 21.334761
22.502574 0.000000 50.234616
80.000000 45.423494 132.976378
38.111141 50.000000 18.068015
49.358664 0.000000 147.640471
24.374321 50.000000 91.195149
2.430510 50.000000 136.721604
72.197349 0.000000 47.421307
28.993386 50.000000 100.205471
70.190712 0.000000 46.129251
23.153285 0.000000 40.761096
75.012329 37.038124 0.000000
56.555951 0.000000 144.024718
0.000000 16.844787 74.501121
14.477410 0.000000 111.714948
80.000000 35.790434 114.708457
68.938802 50.000000 143.793697
80.000000 34.563585 145.608499
32.787226 0.000000 102.920974
62.288891 50.000000 9.158634
13.770686 0.000000 113.841184
0.000000 11.928214 37.116921
0.000000 46.508075 121.284005
4.050509 50.000000 132.660868
0.000000 19.466103 94.677598
80.000000 11.115172 35.245770
0.000000 45.449825 55.057254
57.984955 49.587683 160.000000
1.044545 50.000000 63.177258
17.065699 0.000000 36.770020
43.670915 50.000000 46.507622
0.000000 33.322456 18.252024
68.865898 0.000000 26.915338
66.611524 0.000000 133.261805
77.538040 50.000000 35.649717
50.068456 50.000000 62.992892
7.959551 6.093220 160.000000
31.697887 0.000000 79.330560
80.000000 44.367615 10.235519
54.642551 24.974517 0.000000
80.000000 31.436081 144.827269
39.786605 50.000000 45.785337
17.335952 50.000000 74.529401
5.835167 44.327116 0.000000
0.000000 17.167775 148.466519
58.326031 0.000000 36.946493
10.455560 0.000000 131.466306
25.324296 0.000000 115.145556
79.987665 0.000000 45.098365
80.000000 17.482408 84.262832
8.921800 0.000000 75.178703
23.015446 50.000000 25.313533
80.000000 45.156604 156.534800
57.222081 0.000000 117.417668
0.000000 20.404782 20.149432
0.000000 4.469792 101.317268
22.878095 0.000000 113.772988
0.000000 47.930816 13.194937
36.524202 50.000000 124.010293
80.000000 32.426653 4.652016
30.622989 32.812825 160.000000
58.386198 41.132200 0.000000
11.527357 50.000000 56.302655
80.000000 15.576474 102.412723
0.000000 28.528069 149.529338
54.027740 50.000000 74.044620
41.941361 50.000000 128.460447
0.000000 22.422704 28.225621
80.000000 47.000380 33.221779
80.000000 12.835842 114.895877
50.401195 50.000000 106.926372
46.202669 0.022834 160.000000
41.834330 0.000000 91.078648
24.370800 50.000000 80.235033
64.459766 0.000000 142.601968
22.453992 50.000000 100.941432
80.000000 43.812028 80.452099
18.325607 50.000000 75.258551
63.914559 21.755449 0.000000
61.870702 0.000000 72.216566
53.914140 50.000000 156.636970
0.284751 16.201904 0.000000
0.000000 33.098326 79.373458
0.000000 5.618875 115.785373
80.000000 41.205260 63.467735
0.000000 49.089505 131.754249
80.000000 16.842629 141.082026
26.722709 0.000000 114.454928
68.051846 0.000000 100.996200
0.000000 36.505354 24.057535
28.951461 50.000000 109.915868
23.478059 37.276690 160.000000
0.000000 29.705767 133.466084
9.516231 30.826059 0.000000
45.100878 27.791906 160.000000
21.665954 50.000000 63.030730
7.510239 0.000000 57.904312
76.547951 0.000000 93.938077
0.000000 25.624378 134.575231
13.801635 5.134412 160.000000
19.222046 0.000000 118.203610
29.951811 50.000000 138.148041
29.545351 50.000000 65.990374
60.075312 0.000000 16.880106
26.692754 0.000000 60.415132
80.000000 41.783510 62.999124
80.000000 49.835976 49.146061
73.330539 16.534297 0.000000
80.000000 43.286532 1.122479
8.035760 9.467868 160.000000
0.552246 0.000000 32.375406
44.722462 0.000000 27.159377
13.345602 50.000000 73.532605
27.043598 50.000000 31.844536
75.131936 50.000000 4.106799
71.411105 50.000000 16.630908
55.720037 6.539128 0.000000
19.330680 0.000000 29.535327
73.712133 50.000000 144.530325
64.067415 50.000000 115.950856
34.342116 27.775833 0.000000
0.000000 12.322627 100.880255
0.000000 13.021961 133.634348
28.269326 0.000000 6.612497
80.000000 41.250789 123.102294
80.000000 2.226827 105.748837
80.000000 2.621490 97.661274
80.000000 9.579443 89.543952
40.163698 18.293878 0.000000
0.000000 13.652118 48.633184
0.000000 25.768300 17.250250
80.000000 39.982553 134.808142
30.237571 50.000000 18.323957
24.297403 50.000000 58.312781
80.000000 37.372457 40.685825
24.828619 45.869452 0.000000
80.000000 42.742680 54.546227
74.853200 22.910658 160.000000
0.000000 45.933704 46.294565
14.552255 9.306314 160.000000
0.000000 4.107683 57.813646
0.000000 20.167775 16.197692
25.156930 50.000000 95.469959
66.546738 26.363048 160.000000
70.543943 0.000000 52.098400
41.916358 0.000000 105.172681
80.000000 1.517966 155.507080
0.000000 19.724995 133.379206
0.000000 17.464319 53.191349
17.154233 50.000000 82.087296
0.000000 42.009459 30.576456
0.000000 49.349418 81.825479
76.524334 50.000000 121.613501
61.624449 50.000000 98.092554
77.998941 50.000000 94.163039
79.188631 50.000000 66.660721
39.956512 0.000000 3.375601
0.000000 0.550639 2.583102
0.000000 39.329363 46.870990
43.560065 45.499709 0.000000
33.719312 0.000000 28.113872
80.000000 48.109145 148.335447
4.680806 29.017914 0.000000
6.480744 50.000000 118.975891
38.651564 50.000000 0.089030
26.827512 50.000000 84.654007
71.121463 50.000000 138.332438
11.606679 45.732578 160.000000
29.896440 0.000000 101.403811
24.747989 0.000000 81.160770
12.239774 0.000000 96.235714
26.562806 0.000000 151.524284
36.846359 0.000000 62.639082
61.120223 0.000000 4.784867
34.297902 24.660967 0.000000
55.328670 0.000000 119.308979
53.566511 0.000000 73.813652
0.000000 16.851988 76.742875
56.742284 32.590388 160.000000
80.000000 30.872764 21.736450
80.000000 38.648998 55.789358
35.621645 50.000000 114.175721
0.000000 48.724120 79.922321
0.000000 22.044680 113.827494
28.428828 0.000000 157.070472
17.999732 50.000000 6.601826
80.000000 26.295812 75.536581
51.500941 28.723826 160.000000
80.000000 48.158674 134.737514
77.099136 42.104311 160.000000
10.264055 0.000000 91.389711
67.771724 32.501403 160.000000
50.044515 32.231087 0.000000
23.157005 30.662410 0.000000
72.654129 41.212331 160.000000
5.454480 0.000000 128.471831
