12.709514 86.813191 40.732324
14.275777 59.586467 8.629931
30.616968 53.585568 49.801829
54.090745 87.978178 17.126788
45.375143 25.106874 22.340415
39.432474 101.199419 0.351496
45.237019 25.260012 38.001425
93.745664 79.035909 50.000000
88.237386 69.234506 0.000000
70.743102 77.982428 40.172580
84.457319 91.047114 38.774736
18.325631 91.942965 12.781248
35.845203 61.658430 0.000000
75.499623 66.943484 0.000000
45.571495 29.876689 0.000000
80.821338 53.654976 0.000000
20.347964 52.854287 34.926693
90.516578 96.810187 39.119503
83.070499 64.783734 0.000000
87.972777 94.390731 0.054929
88.618216 52.374927 50.000000
119.302521 75.732834 49.912027
105.532600 54.765209 49.533979
78.114990 53.611515 0.000000
35.683042 104.581273 6.063760
4.042497 70.932014 28.422840
93.754595 30.085835 11.931008
90.460416 26.234575 29.619320
60.828208 26.598662 0.000000
93.878460 86.212538 0.000000
70.978742 40.707682 0.000000
16.112491 57.550118 1.586241
46.815110 23.510395 21.421748
78.672995 18.422454 47.875794
106.878151 45.428725 24.792672
27.869608 44.515106 17.314572
93.728452 41.154086 0.000000
7.118673 67.521485 26.102912
102.983350 40.875271 30.985871
83.839768 56.159179 0.000000
53.602160 80.259084 0.000000
65.284277 68.427845 49.538221
65.332882 77.838168 26.637478
33.340404 55.101943 0.000000
98.841367 53.566748 0.000000
51.372869 18.457249 28.132002
35.742639 35.786346 22.455585
27.557587 89.275117 0.000000
30.775100 103.171944 19.239352
5.773968 80.621809 24.332212
23.158730 49.738015 23.248088
55.723556 39.748877 50.000000
70.293306 70.159886 0.000000
78.788034 64.044308 0.000000
96.664104 92.650954 0.000000
108.280838 82.752356 50.000000
124.926746 74.174278 47.814566
117.134793 57.419874 37.322822
7.339783 82.034119 10.972234
73.615226 10.522383 0.000000
63.242897 33.095076 0.000000
105.870074 44.377626 40.946973
2.056547 77.268827 13.047106
122.908994 84.560807 28.220044
28.710937 47.305359 46.595740
23.547187 96.652623 5.770302
83.517070 90.152826 13.894022
24.448143 97.465254 31.286924
31.802820 40.465453 0.000000
48.597980 36.330784 0.000000
15.766297 57.933941 18.643669
123.757558 69.073675 0.000000
62.417730 77.567445 0.000000
81.999427 16.342742 21.745330
107.424688 53.584476 48.580399
48.542688 21.595046 24.976722
116.740473 56.958870 20.164597
92.283199 98.037573 42.440348
49.775103 67.576357 50.000000
68.859590 76.211823 21.678597
31.745783 40.217625 32.755934
14.967793 68.013733 49.213731
92.604863 53.485649 50.000000
74.382130 19.852877 49.796280
123.815573 75.944518 0.000000
36.007713 58.876357 0.000000
127.084441 80.189048 7.570352
121.509419 82.507055 0.000000
78.022972 66.308899 50.000000
79.340754 86.042165 41.340337
61.789402 42.769491 50.000000
84.844398 30.433292 0.000000
116.455174 90.699153 23.372060
2.539752 77.556720 41.415593
109.647824 63.121783 0.000000
8.986834 65.450271 31.127619
21.047243 52.079003 4.492578
120.429991 61.272326 24.124333
108.134931 75.801269 0.000000
17.620874 91.307299 0.360334
5.039695 79.959521 19.391947
77.106046 76.397409 0.000000
46.374396 77.613444 50.000000
3.864993 78.899981 20.787808
44.160683 96.934742 39.766759
121.267637 86.121931 12.179318
70.191451 5.469513 1.428034
81.685202 88.410501 39.053919
75.359478 23.817811 0.000000
67.816195 63.722745 49.907048
106.836399 63.280997 0.000000
68.899272 39.100042 0.000000
59.476356 83.120548 27.663336
20.439829 52.752437 13.753109
96.493362 98.014869 47.223073
93.168501 29.400626 4.124197
41.095954 32.153067 45.311040
61.897906 80.936395 19.212791
73.968084 7.290025 21.528912
24.863496 65.853212 0.000000
72.346448 33.180996 0.000000
2.852001 77.986299 3.038629
85.367609 25.847609 47.693014
28.120550 44.236889 29.944511
94.666133 31.151524 10.442727
31.389750 79.234539 50.000000
47.028615 59.478285 0.000000
113.552849 71.395772 50.000000
3.562624 71.464045 0.309079
51.052040 18.812948 16.069750
100.589820 38.076969 3.109487
39.427056 101.204306 11.523494
115.467210 91.493014 41.342460
101.704564 39.380229 30.198398
41.667539 29.217462 19.478617
48.993983 21.094698 6.566245
82.729926 89.404158 28.005695
119.310156 61.891069 44.814364
44.358735 42.747394 50.000000
106.139488 44.565145 29.051094
27.997424 44.795714 42.316159
91.548188 93.976598 46.891249
17.452041 56.165077 0.000000
101.146904 89.355832 50.000000
32.317533 39.583731 7.585470
115.288671 55.261553 13.144285
66.855693 38.862976 50.000000
39.522877 101.117879 7.881818
70.869080 51.367995 0.000000
61.725669 46.557265 0.000000
44.536313 72.774566 50.000000
10.811820 63.426926 32.799646
110.487435 49.648376 23.604658
91.479898 89.380443 49.165538
66.501429 76.784180 21.094370
59.623762 40.232909 0.000000
1.633108 73.603282 19.235058
74.614373 36.613006 0.000000
101.194713 102.240285 4.957435
39.303454 98.558701 0.000000
57.787788 11.345084 25.686667
62.245236 80.623116 8.601674
116.919147 73.390173 0.000000
25.393008 98.317488 29.304679
35.851387 95.096787 0.000000
10.804321 63.435239 10.666200
25.684394 85.126885 0.000000
51.695705 20.735307 45.655609
31.802463 40.154785 3.496425
95.203928 100.871697 21.653606
28.406942 47.656604 0.000000
16.980128 79.232482 49.882660
122.078551 85.350656 18.489413
38.275201 78.972504 0.000000
84.061126 25.575275 0.000000
9.111017 65.312591 9.400398
111.897734 51.297173 3.526122
49.771742 47.601139 0.000000
40.210388 63.139388 50.000000
113.093157 91.468797 45.646119
24.803617 50.055945 45.145723
34.204379 105.914975 37.358132
84.457167 58.512838 0.000000
81.549420 48.752337 0.000000
123.086836 83.304844 43.844352
17.236677 82.086421 49.400368
20.197915 53.020644 21.208222
87.104162 75.924680 0.000000
118.187194 78.351958 49.720801
30.826195 41.237165 31.011033
44.844242 90.074513 48.419867
109.093038 93.630498 0.000000
105.716214 78.734628 0.000000
35.829051 49.340383 0.000000
110.070821 49.161309 7.217432
62.196431 27.427670 50.000000
30.529747 41.565834 13.829000
0.207969 75.183321 16.791193
73.569775 33.917888 50.000000
108.976221 75.364869 50.000000
108.592899 68.434219 0.000000
57.008951 12.208574 21.316365
111.221381 95.677109 38.688685
50.368024 57.332052 50.000000
44.555291 35.273488 49.232000
97.520391 96.633846 48.552990
81.223808 63.931338 0.000000
104.434812 72.776681 50.000000
111.161701 74.009898 0.000000
54.112066 15.420325 37.866102
68.730673 5.228921 28.676238
108.907996 78.769474 50.000000
49.158866 62.276919 50.000000
88.135763 94.545750 11.820016
39.929423 61.808021 0.000000
53.277418 19.251918 45.924793
56.386526 21.370214 49.003072
62.823756 16.474782 0.000000
46.497718 23.862286 9.350617
41.950409 54.833882 50.000000
39.907582 100.770888 30.320599
116.802256 82.213673 0.000000
82.117953 84.225084 47.439725
54.736256 59.668309 0.000000
97.310777 101.809787 27.698729
105.717942 95.407111 0.000000
31.376127 103.688552 40.335907
125.731575 72.382646 46.719283
65.763239 52.698993 0.000000
110.662275 49.852784 18.592133
81.508811 37.926504 0.000000
106.778875 93.697785 48.332868
25.502194 51.216712 0.000000
124.394862 65.907699 10.840666
3.354191 71.730630 40.605042
88.257276 94.661323 29.829553
80.759494 87.530043 4.607793
84.320985 56.266672 50.000000
97.448201 40.102274 47.752689
75.010956 82.062502 0.858641
92.037328 39.629309 49.645720
72.176988 29.188966 50.000000
72.673228 12.387401 0.000000
41.692394 30.507035 44.062087
73.407780 80.537691 19.504254
46.613404 24.270787 42.592556
44.191730 54.706746 0.000000
76.815246 43.922654 0.000000
98.700559 89.519119 50.000000
51.750639 46.906606 0.000000
35.168516 105.045358 38.901958
91.325290 42.790864 0.000000
32.762820 104.964798 17.966606
84.478687 81.814186 49.439985
106.843610 45.388342 33.391483
90.416004 64.459003 0.000000
128.067781 78.272287 6.940639
114.135588 58.650394 47.167346
124.287914 65.782665 14.130042
93.382259 72.857540 0.000000
11.233474 62.959442 20.530354
92.722409 28.879095 22.126380
86.139231 78.930928 0.000000
8.495117 83.076189 8.951466
32.739065 39.116383 25.292812
119.265792 85.679224 45.555370
12.425054 68.565801 48.426538
101.095068 64.380273 50.000000
76.723080 83.217883 42.555113
62.318251 49.321174 50.000000
46.826361 85.170828 49.505678
35.217531 72.442118 50.000000
100.718835 41.289939 45.929241
56.980540 33.784730 0.000000
88.831185 81.853189 49.974519
22.941142 92.278546 46.950405
58.668544 83.645954 41.730327
3.134891 78.241455 32.425808
46.093104 25.218958 0.000000
40.192397 30.852939 22.230331
90.514926 26.360277 40.460456
112.557517 76.946001 50.000000
3.464422 71.572921 9.256240
111.786989 53.111086 44.835876
73.873748 57.983387 50.000000
89.635196 47.873824 0.000000
50.070206 90.481189 0.000000
26.589312 48.504042 45.587019
89.651251 89.493285 0.000000
78.542484 71.548877 50.000000
78.916307 12.738234 8.513504
56.687477 85.636018 37.483093
48.881403 37.320929 50.000000
29.843358 83.363757 0.000000
53.615126 42.679303 50.000000
38.731472 49.592968 0.000000
60.726377 67.262178 50.000000
31.463882 56.269519 0.000000
23.463928 71.563270 0.000000
60.834810 30.705971 50.000000
49.883326 20.108692 39.354722
78.241681 50.249789 50.000000
103.074896 101.412999 42.771482
92.720582 28.876958 35.483875
93.531551 82.186349 0.000000
128.407557 77.226656 23.815866
34.750537 85.002712 0.000000
103.979610 74.464154 0.000000
27.759976 77.351458 0.000000
29.889493 102.373158 37.985983
25.567668 47.067247 36.654330
20.233990 69.237108 0.000000
18.107462 55.338311 2.986770
124.875153 66.469212 20.403692
19.148680 75.928598 0.000000
105.979177 82.289367 50.000000
12.019371 64.938686 45.876910
97.125136 100.442060 44.771560
35.928975 104.359451 19.601648
63.653881 66.616808 49.957297
95.051717 66.775499 50.000000
88.707018 24.184659 17.752306
1.190429 74.094077 4.381487
26.990748 73.399193 50.000000
46.988057 82.339586 0.000000
113.226764 52.850956 30.824446
50.428574 89.428942 45.056489
53.572602 16.018424 17.224510
50.484270 29.317403 0.000000
24.167602 48.619488 6.880773
12.861837 61.154089 30.683563
35.395319 104.840790 9.094508
109.500216 62.448849 49.918687
2.654361 74.597006 45.129610
89.098290 24.834833 41.431970
57.893126 11.228297 28.815441
52.199445 65.353686 0.000000
43.183193 97.816403 1.517215
19.051170 54.292030 38.536426
56.896995 32.656250 50.000000
84.607487 91.189941 34.283690
2.107883 73.076903 21.440565
125.856350 81.721846 2.172628
34.221640 67.386653 0.000000
29.919657 77.845626 0.000000
6.405355 81.191298 38.409034
116.527632 65.531009 0.000000
76.398734 49.297649 0.000000
92.812960 28.984958 10.333136
32.786679 90.478807 0.000000
82.886410 17.379724 23.499280
93.829563 68.549781 50.000000
3.105321 71.971053 18.548267
51.296863 90.498160 14.959300
6.219534 68.518353 24.332800
58.843865 10.174221 30.307717
109.061446 97.146683 42.826620
69.721370 50.847243 50.000000
83.232281 89.881957 22.042024
52.486713 51.878483 50.000000
51.665834 18.132441 24.036132
30.863742 41.195537 39.514866
100.131076 46.232465 0.000000
92.291185 70.337071 50.000000
111.307778 57.414849 0.000000
120.113755 60.902610 30.448397
14.513281 88.504360 3.992910
109.485309 51.357433 0.000000
23.033586 58.197214 48.959359
114.564191 76.921860 0.000000
116.007484 91.124958 8.163971
47.737224 90.702604 46.290631
113.522638 93.488341 36.267747
91.684401 77.512845 50.000000
85.347584 32.437936 0.000000
99.893203 37.262547 5.219227
39.624929 80.362788 50.000000
51.872949 35.702551 50.000000
68.022302 75.415463 25.995741
121.304962 62.295263 31.502988
3.635484 71.383265 12.749935
29.495451 42.712549 27.366710
92.229978 47.408360 0.000000
70.557514 36.269992 50.000000
126.536188 80.436541 42.421689
30.393776 41.920311 41.641311
107.181465 45.783332 27.125322
8.359978 66.145260 35.463969
35.977468 56.569565 0.000000
125.627541 67.348837 32.603861
15.655222 58.057089 8.522038
64.927143 36.305252 0.000000
110.934811 81.361727 50.000000
51.005610 90.760860 24.864001
97.308617 84.843589 50.000000
65.151299 9.400920 47.706921
86.576663 21.694037 31.668140
120.148667 70.201064 49.134730
67.921841 75.503019 7.961049
47.667324 22.565553 31.953169
4.773392 79.719325 10.746075
42.418998 28.985889 42.773700
69.478947 44.006759 0.000000
67.381668 8.813038 47.696305
70.565998 17.982321 49.978507
37.563311 33.767784 16.111007
36.866233 103.514078 8.804414
23.555494 49.905333 42.801590
86.007293 49.845283 0.000000
44.461018 63.999707 0.000000
106.618525 99.973383 11.363078
88.807344 24.301951 36.595321
6.903978 67.759515 21.019707
74.067036 7.358918 9.029225
47.036848 28.071269 0.000000
102.150309 73.240596 50.000000
92.978797 99.152049 20.968412
101.042396 102.253517 20.856565
16.298577 90.114634 34.965304
94.816529 99.006511 0.000000
48.558487 42.674618 50.000000
27.679257 71.467168 50.000000
100.213772 102.253517 34.403835
47.811798 23.814765 44.204202
103.761646 41.785184 26.566023
128.530746 76.676021 4.926615
38.127245 96.582014 48.177576
10.692079 85.057771 8.124988
114.421270 81.667132 0.000000
49.217946 57.012999 0.000000
63.796256 54.249045 0.000000
99.341790 36.617884 1.429155
112.615546 94.351093 32.107233
104.774104 101.187453 17.564752
31.520926 103.844653 11.245799
100.533769 102.253517 23.753796
34.207638 51.532553 49.953313
124.194324 65.673248 8.015768
29.461621 42.750056 11.739060
114.114094 92.925797 2.847173
94.946023 31.478746 12.747373
68.414203 45.715422 0.000000
108.017225 72.382792 50.000000
128.728401 74.901261 14.497532
101.556342 91.386964 49.981861
98.364406 35.475214 4.214690
47.422199 45.686094 50.000000
88.861842 95.236337 9.400724
7.360669 67.253186 23.098472
89.936300 25.621825 25.226222
97.601908 77.592847 0.000000
31.489989 40.501222 9.330683
102.620803 40.451413 8.127043
96.420611 33.202702 17.637687
126.517341 68.424016 19.688143
96.503457 52.524157 50.000000
42.383349 71.334940 50.000000
51.635237 38.408395 50.000000
45.320309 42.487240 0.000000
88.657784 78.653522 0.000000
72.104951 23.889720 50.000000
49.531971 49.900754 0.000000
81.800425 75.053597 49.980935
33.768654 105.872024 22.958284
100.247404 76.664658 0.000000
61.739368 7.225893 38.754406
64.941933 12.715054 0.000000
51.120299 90.657415 7.503141
46.258179 95.042875 2.518585
128.265238 73.420721 42.574160
111.489915 95.421701 12.769601
19.865482 64.455933 0.000000
60.399376 28.569203 50.000000
78.085527 45.586720 50.000000
44.560192 37.574882 0.000000
99.127685 102.202030 18.798710
53.983081 73.229604 50.000000
107.680430 99.044972 15.959987
28.014826 100.682275 17.386207
22.860174 80.892264 50.000000
84.424953 78.010109 49.954687
77.496561 84.426607 39.757613
90.870348 78.966194 0.000000
85.856870 20.852520 33.747055
103.134644 95.077218 0.000000
34.073441 71.604464 0.000000
36.693899 103.669516 27.928270
45.574707 95.659342 0.322763
95.113955 100.821736 12.443911
15.292742 58.458967 22.999527
51.676295 73.353184 0.000000
45.175510 48.222586 0.000000
33.828525 37.908508 26.677090
95.539959 65.911067 0.000000
37.703309 69.623492 50.000000
127.720604 79.119854 3.479364
56.621199 22.059401 0.000000
80.935934 68.962015 50.000000
122.030435 63.143422 9.972347
60.013015 47.795755 50.000000
63.146040 6.320725 34.558807
60.768388 18.698591 49.566291
63.431687 47.597597 50.000000
50.385061 38.440146 0.000000
85.034406 76.955357 0.000000
120.646474 61.525418 9.274776
97.843803 88.055998 0.000000
37.129529 62.519641 50.000000
74.843249 42.579060 50.000000
58.518341 49.656072 50.000000
25.698934 46.921714 31.736210
56.090999 13.684361 42.365228
61.559935 69.499416 0.000000
56.131678 27.397196 49.960989
59.391441 83.197138 20.679153
54.870814 86.478082 43.386463
39.570688 31.542222 19.885769
87.814494 93.906400 42.084436
107.621676 84.740408 50.000000
73.297111 80.432432 13.280899
108.402272 47.210591 14.451123
114.183203 78.117111 50.000000
111.837429 59.877681 0.000000
39.670183 93.666787 0.000000
81.100255 15.291510 0.655769
32.180994 93.798357 49.753164
101.504777 39.146655 4.717393
95.781835 101.192610 31.012992
60.730461 57.644708 50.000000
73.289959 67.085514 0.000000
35.612812 46.680416 49.583020
77.980741 27.153993 50.000000
1.563291 73.680687 24.541479
68.239899 56.620263 0.000000
56.069278 86.193612 27.684644
90.550941 96.580782 41.882235
21.200129 86.652993 0.000000
88.644118 24.111122 20.480103
36.534712 103.813097 3.526491
63.266950 6.267904 14.168973
85.596747 92.130844 36.208077
95.605597 55.497463 50.000000
68.399197 53.863122 0.000000
67.888741 5.156943 22.036352
103.340774 97.782345 47.740116
49.431935 92.107232 40.979868
86.319211 92.321570 42.553591
100.352805 102.059441 41.896391
80.274704 87.068951 11.672304
73.966757 19.255597 0.000000
63.408110 53.394576 50.000000
58.134636 34.267091 50.000000
83.785470 22.955798 0.000000
59.882914 9.022237 12.489530
90.556062 56.177135 50.000000
115.115136 55.058672 18.722776
79.033901 12.875714 14.393763
113.070528 84.759952 49.416319
6.014445 68.745733 6.564702
29.565812 42.634540 38.798477
64.541430 5.711137 8.344682
49.113523 86.938814 48.053691
56.378024 85.915133 30.008159
99.473667 44.574975 48.693798
73.300451 63.219458 0.000000
111.393967 56.454659 47.774645
84.917748 63.238378 50.000000
120.507850 86.844578 39.335975
66.813358 19.212910 0.000000
54.669480 70.106691 50.000000
92.477199 85.210163 49.980838
128.590584 76.408556 33.648442
12.627561 86.803508 8.171406
84.933762 54.078905 0.000000
96.915765 56.461400 0.000000
24.435684 93.998957 46.671190
38.351671 102.174265 28.506522
111.251622 95.648346 33.468883
2.225939 72.946016 2.568980
120.951761 78.598060 0.000000
32.374158 99.906197 47.587308
16.831802 64.510660 48.766639
1.969586 77.190392 23.138610
82.395055 44.701067 50.000000
90.376382 55.450661 0.000000
19.123940 82.750837 49.621693
43.998269 97.081234 14.101819
42.435117 61.675084 50.000000
68.814279 16.377320 50.000000
74.454908 25.299679 50.000000
108.458255 80.735377 50.000000
40.007773 97.243789 46.649801
116.794937 57.022545 16.803820
66.398671 76.876864 8.655821
8.411943 68.425818 45.348453
6.280265 68.451020 33.036644
93.342115 75.434177 0.000000
114.909583 88.721540 46.600951
42.049090 72.757952 0.000000
87.280931 66.981401 0.000000
77.477603 84.408575 16.418111
31.155322 103.514891 28.409263
83.025457 17.542285 20.422684
92.750195 98.216101 0.000000
107.538578 97.870451 44.215336
23.503715 96.613412 24.371742
108.228612 98.523586 17.830519
18.881182 54.480495 9.835628
44.321584 26.274946 4.298278
100.727400 75.901408 50.000000
110.242557 49.362087 28.284948
93.525134 74.499852 50.000000
110.795618 50.008676 2.156063
60.946139 61.215128 0.000000
104.667597 42.844341 35.257490
17.255823 90.978036 17.438208
73.586551 7.024393 19.553546
79.780085 86.598509 23.683600
57.518456 53.189993 50.000000
102.758679 97.159120 0.000000
41.870400 98.837324 41.495428
91.714294 45.087563 50.000000
70.188921 31.720613 0.000000
75.517385 82.544176 23.367610
92.435004 28.543087 32.938166
71.464002 78.688928 14.885857
119.366924 87.929734 4.445427
31.434169 91.935368 49.895340
94.928413 52.265408 0.000000
81.635301 34.268915 50.000000
38.201427 91.117019 49.853956
24.040137 63.509775 0.000000
46.712351 23.624323 33.513518
113.858951 93.168468 9.233019
52.782292 16.894634 38.420637
115.502742 55.511826 23.096809
91.750774 65.902501 50.000000
23.641247 52.655497 0.000000
69.864924 26.068478 50.000000
113.361978 53.009036 3.846899
88.215604 23.845122 0.000000
54.590454 38.109409 0.000000
90.824352 97.102917 26.522649
23.183725 89.218882 48.803876
80.853730 87.619673 25.130629
39.181908 51.866684 50.000000
96.031548 101.331275 23.531365
66.437731 9.587124 0.000000
120.704657 86.657391 23.408087
106.599440 45.750663 42.740932
33.758635 37.985994 30.722093
88.118758 94.529576 27.588104
96.250101 33.003357 7.690765
91.389821 97.640745 28.381357
78.694874 84.921042 43.013968
22.497644 50.470955 27.881166
53.369935 81.937975 48.639519
78.738746 48.995770 0.000000
12.081838 67.072167 0.000000
57.115029 85.250381 2.060714
48.875052 88.692640 0.000000
2.641815 76.475410 44.291223
43.045191 94.563264 46.610700
15.566917 89.454702 36.809319
56.521997 50.095558 50.000000
92.147437 94.297915 0.000000
79.214763 13.244256 41.167168
17.662097 55.832084 19.496725
60.796865 65.224182 50.000000
45.975207 24.441588 19.275451
89.549904 63.821807 50.000000
33.084034 77.828590 50.000000
34.429297 105.712108 15.168883
21.869524 64.153340 0.000000
72.830154 21.840650 50.000000
43.078431 27.653219 26.129885
64.134066 50.514331 50.000000
28.134442 100.790164 22.968342
56.076569 74.182631 49.913905
122.639652 63.855663 12.766829
88.490435 87.758876 48.748300
107.693278 99.032752 6.598964
37.620007 60.570615 0.000000
78.930226 12.754506 0.784114
111.627683 61.985305 0.000000
50.325675 19.618263 37.435579
124.468173 65.993407 25.031744
64.658477 76.945604 0.000000
50.723678 27.108119 0.000000
65.228759 70.634750 48.887453
24.553652 48.191477 38.273303
8.618111 75.043757 0.000000
106.461670 80.110912 50.000000
100.913588 66.688427 50.000000
32.225530 104.480181 20.109206
119.057849 83.063243 0.000000
66.985916 35.959424 0.000000
30.499758 46.124620 47.164953
22.875688 50.051821 39.566170
24.690938 48.039269 11.817762
94.540356 37.331972 48.039105
43.934723 47.580114 50.000000
20.752689 52.405572 9.030101
93.866666 48.923785 0.000000
60.033924 16.509464 48.729116
103.932904 41.985405 23.123062
58.514204 38.544142 0.000000
37.127478 55.661137 50.000000
22.182164 95.421420 7.388006
65.588443 35.523895 50.000000
85.582923 20.532245 25.787845
59.564910 63.107083 0.000000
107.907681 46.632359 29.013105
39.418218 31.711265 5.357024
59.854682 47.266810 0.000000
90.469634 71.366727 50.000000
76.013306 80.208759 0.000000
125.639239 67.362513 30.507728
109.875193 48.932598 39.558086
58.732197 10.298027 33.608051
63.957665 5.966159 23.104822
78.859199 85.722637 38.993671
18.450326 92.055435 23.198745
1.157567 74.130511 33.329522
25.281822 74.790645 50.000000
44.403487 61.502501 0.000000
16.748567 56.844906 10.220792
110.537681 76.432033 0.000000
53.143080 58.799931 50.000000
54.613350 75.660531 49.903041
91.402574 51.620499 50.000000
85.866245 21.949852 0.000000
15.619333 58.096878 38.818769
50.457356 45.203644 0.000000
33.482133 53.766318 50.000000
56.775709 75.316949 0.000000
12.371796 77.449431 0.000000
97.621009 101.918806 21.685303
42.753921 31.398237 46.335433
89.929648 25.614048 9.438709
58.755407 83.770818 6.302444
60.266874 44.624615 0.000000
95.719004 43.681058 49.601736
94.111958 30.503631 21.727981
105.544655 91.673488 49.477311
15.984588 89.831427 30.631648
57.993918 81.093704 0.000000
128.640104 73.397317 29.308069
69.089803 41.682358 0.000000
128.204252 71.498649 30.740786
30.728886 48.110774 0.000000
107.021880 45.596760 10.604878
20.977572 94.334921 29.031144
90.060596 96.376494 12.015923
81.402716 15.645120 5.779051
24.955954 61.180377 0.000000
113.886190 59.236040 0.000000
14.431929 88.430984 6.598654
95.583049 33.337097 43.679202
21.919665 68.088045 50.000000
34.592882 88.546725 50.000000
43.047641 48.953088 0.000000
73.247729 73.610365 0.000000
98.808688 51.047775 49.981158
2.043323 73.148480 31.573397
81.251828 87.998312 35.632120
14.020734 88.060100 31.414917
80.092433 21.299147 0.000000
102.080459 39.819691 16.504264
87.222375 90.647650 46.242925
65.850870 64.341849 0.000000
96.117130 54.095717 0.000000
13.229374 87.346321 14.170311
63.360612 40.599659 0.000000
75.494750 8.738055 11.576861
101.962100 39.681316 37.595246
18.839835 57.676714 0.000000
10.015228 64.310100 13.232101
103.720281 49.492570 0.000000
66.031563 77.207983 37.381903
96.181346 68.809499 50.000000
90.803055 35.230214 0.000000
87.311787 93.762051 2.504979
55.621725 86.597288 4.845814
56.969598 55.430306 0.000000
64.179756 69.447626 0.000000
71.598320 5.917762 8.364179
65.995838 5.339199 23.669428
111.739499 70.623224 0.000000
69.659469 36.952464 0.000000
122.500299 63.692744 21.196655
54.873557 87.272109 19.310733
29.822288 51.775333 49.280778
108.723528 47.586174 24.896838
80.382166 75.414053 0.000000
116.973605 57.231428 24.441009
39.348344 44.486512 49.876066
61.012851 81.734683 36.873064
99.624247 82.100044 0.000000
73.112484 13.774071 48.699326
5.075082 69.804610 40.296824
26.407523 95.552433 0.000000
120.969936 74.116680 49.698796
90.273904 91.396802 0.000000
15.737970 88.640410 43.700641
114.593782 54.449150 29.422964
104.070809 101.511923 40.048261
66.107829 14.801829 0.000000
101.691044 75.278898 0.000000
79.116488 40.235448 0.000000
11.652914 83.380028 0.000000
105.408067 86.306570 50.000000
3.321191 78.409491 34.642136
79.354068 86.193317 19.752159
29.033452 99.821237 44.966617
43.380530 84.830810 0.000000
37.072404 86.976231 50.000000
25.452730 47.199884 40.088752
2.180429 76.510520 0.000000
32.064668 104.335089 2.235779
99.656259 37.026688 40.305772
58.190156 65.350676 50.000000
108.452133 47.826254 42.521607
62.877839 28.187428 0.000000
40.362500 43.346924 0.000000
114.314212 62.774700 48.951280
76.632577 36.612888 0.000000
99.314315 63.474854 0.000000
55.630572 52.488965 50.000000
53.788665 88.250643 37.168863
54.714219 87.415826 7.363516
89.316026 45.688549 50.000000
21.997959 51.386200 0.000000
106.508761 100.061397 8.042090
118.060372 58.501978 17.288949
82.225408 58.912081 50.000000
24.427814 74.086385 0.000000
117.252853 89.940466 16.065290
71.340682 43.249127 0.000000
17.362148 76.475987 50.000000
101.680250 50.534896 0.000000
26.293129 99.129365 22.208072
106.108648 61.397914 0.000000
24.680690 59.741386 49.740035
24.025049 79.820438 0.000000
50.073524 91.601569 11.233170
21.776149 95.055209 14.493787
105.935971 44.327211 14.847834
118.463378 88.789113 18.846233
116.089157 91.047278 29.631076
57.916032 28.315593 50.000000
97.291609 63.211434 0.000000
10.594227 84.969512 32.448671
109.064746 47.985096 22.656767
41.243256 68.436494 50.000000
80.704292 71.475558 50.000000
19.864279 93.330771 30.906806
39.671819 31.430099 30.653185
99.782028 98.568324 0.000000
122.484394 63.748439 40.551960
46.429257 94.888568 33.623537
124.477267 83.069194 14.413923
43.311078 79.902970 0.000000
92.460579 28.572986 7.593975
128.662988 73.747416 40.209074
81.994858 16.337400 19.153653
115.487661 86.808882 0.000000
70.794978 5.635355 14.841100
47.583795 93.217905 42.977474
50.645813 19.263329 18.419376
111.886839 51.284435 24.129006
57.641818 84.775236 28.935447
29.411200 55.785671 0.000000
36.806503 34.606850 2.388027
86.650960 93.133526 19.300158
44.490910 62.933767 50.000000
92.631776 98.821991 17.587441
39.165453 34.028804 45.038153
50.391585 47.565521 50.000000
49.321493 70.746209 50.000000
43.260141 97.384952 42.263918
77.610298 69.660064 50.000000
75.963354 53.948868 0.000000
33.420552 45.059251 0.000000
90.780137 97.060863 35.303802
93.729679 76.718654 50.000000
65.917785 5.358454 33.606969
98.237872 47.294069 0.000000
12.328437 61.745465 32.545818
76.499483 83.478268 9.785925
76.188972 83.182935 28.482092
68.747776 51.709446 0.000000
14.480696 88.474970 39.586590
13.677405 60.249876 32.527338
77.409659 78.588987 0.000000
34.179454 70.651234 50.000000
34.372876 105.762997 27.273228
33.612143 61.761260 0.000000
70.518891 34.615933 0.000000
93.811855 30.152778 24.982775
65.739517 5.402431 25.676959
38.571094 101.976353 9.766587
94.218753 30.628486 2.738208
23.567383 96.670839 21.968561
126.682866 68.654281 6.427038
75.751503 82.766850 7.513060
110.525285 96.339178 25.640935
84.875535 91.444886 30.376824
18.823289 54.544680 29.026788
121.001684 85.408523 43.643622
65.042733 11.202875 48.733288
15.796443 57.900517 32.460728
27.711571 72.868455 0.000000
74.432475 81.512298 31.956055
116.074211 56.179936 7.362965
83.309342 18.050346 41.308886
111.086275 50.348487 16.196425
39.195613 66.911105 50.000000
26.744331 55.623900 49.405508
63.870922 71.791086 0.000000
89.930617 25.615181 34.749900
126.465073 68.351303 38.648432
52.340835 54.715987 0.000000
76.503513 9.917410 14.415826
78.619970 58.931349 50.000000
39.629246 31.477300 37.355922
32.173497 104.433249 35.472324
91.144020 87.284799 0.000000
44.160487 45.453102 50.000000
54.865426 14.585081 18.323043
74.816612 45.970210 0.000000
63.146722 6.320427 32.339366
104.133533 50.861801 48.948079
88.732570 95.113384 15.543093
103.451155 52.804702 49.616349
2.241148 72.929153 10.087354
28.276513 69.108979 50.000000
88.820180 95.196712 22.666538
93.600224 99.710460 6.670885
81.433271 15.680843 9.889294
55.115983 14.307291 20.555741
27.101216 91.260448 0.000000
52.738275 85.066050 0.000000
103.469679 84.328197 50.000000
86.253970 92.755942 38.218519
48.277057 72.045940 0.000000
29.036415 81.250455 0.000000
64.662357 76.856083 44.702650
87.184020 22.404105 34.070630
117.213027 87.904184 45.251272
48.539134 92.985534 12.387216
23.620020 96.718316 37.816927
11.520957 62.640711 27.008706
106.165546 100.336601 0.031978
61.428637 81.359659 16.335569
55.698294 64.957618 50.000000
16.637711 90.420520 23.753764
69.761499 64.675541 49.919812
128.667122 76.066443 17.001855
53.691016 36.300049 0.000000
45.345453 34.661878 0.000000
119.630822 60.338009 11.333353
59.854379 9.053873 21.587664
79.061227 12.907661 16.799584
4.357979 70.582242 22.043597
128.552440 76.579052 30.450762
70.585707 66.599636 0.000000
83.701903 90.328623 23.987825
44.692254 60.081204 50.000000
10.599822 74.582929 0.000000
103.158072 66.508133 50.000000
16.604659 57.034242 40.507699
79.641997 83.907338 45.793265
111.634190 50.989060 7.755870
118.290889 58.771479 34.813357
91.160804 27.053405 8.040206
84.418991 19.171480 34.910691
30.413341 89.010667 50.000000
125.667125 81.934954 39.975730
44.962438 95.848982 42.265802
65.059558 74.789248 0.000000
117.604315 57.968797 22.448165
76.208978 60.592597 0.000000
25.322253 47.339336 14.334781
69.306846 32.092113 50.000000
41.685210 70.720607 0.000000
21.799056 51.245474 2.098124
61.879602 80.952905 11.347670
31.005438 41.038440 27.780501
27.602119 66.193164 50.000000
60.326014 45.413189 50.000000
29.413007 53.549880 0.000000
49.144568 20.927746 17.914983
23.765342 78.112701 50.000000
31.510331 67.727377 50.000000
80.460854 14.543979 23.265657
113.690151 53.392707 12.017860
83.280145 89.927481 4.948153
113.281728 78.667425 0.000000
15.217676 58.542192 5.536105
59.680470 36.293631 50.000000
63.769013 6.048574 39.956605
121.721423 85.690327 9.534811
8.062907 70.538346 0.000000
102.050777 102.094245 1.918678
93.333970 99.489862 23.361479
111.126472 78.345779 0.000000
84.389601 19.137120 3.892671
10.277857 72.198248 48.918400
32.497354 39.384365 11.449774
94.150317 93.156608 0.000000
34.416116 37.257051 15.774924
90.722819 34.643551 48.784513
61.920355 16.937204 49.477613
48.678772 53.647715 50.000000
121.128762 62.089266 39.928861
1.437884 74.658044 43.299404
101.363264 38.981211 22.473961
114.900021 61.461766 0.000000
41.857387 99.012233 27.322412
77.849570 22.844219 0.000000
59.567174 63.586371 50.000000
94.658020 41.598970 49.455141
44.827402 78.976524 50.000000
32.026920 84.903976 50.000000
65.539186 77.652090 3.897095
62.943630 45.601029 50.000000
103.084133 40.993097 0.135243
125.913745 67.827004 41.066651
13.812463 71.646202 0.000000
83.613067 18.229265 5.686688
119.872993 60.621133 36.080093
7.797539 82.446998 1.698510
30.639007 41.444699 19.246522
53.171102 83.041221 0.000000
43.900193 97.169695 16.851939
119.879930 72.137143 49.638187
75.475144 8.715133 4.476101
38.537185 32.688058 18.581172
70.165481 29.207768 50.000000
42.945186 27.800946 28.156665
32.443167 104.676482 26.712284
44.197802 67.880394 0.000000
99.936748 102.253517 14.658917
48.189017 38.476906 0.000000
26.267650 78.466491 50.000000
101.415772 39.042599 18.358069
36.481698 34.966958 4.613558
58.083265 11.017491 36.200283
12.497333 86.686047 23.123280
33.423542 48.775757 0.000000
50.466909 50.808330 50.000000
11.737645 84.261113 44.911813
30.074537 89.463631 0.000000
121.126131 86.256520 27.815423
65.905356 22.268259 0.000000
26.387000 46.158861 15.640993
82.249922 80.561365 0.000000
86.185592 21.272447 40.264609
44.752490 77.710518 0.000000
2.872719 72.228936 25.433890
36.200922 96.091527 49.108955
54.695408 87.432793 34.313941
58.986114 54.564741 0.000000
21.614855 51.449696 21.358230
93.444977 53.763702 0.000000
12.862857 81.952168 47.807106
42.120543 45.773456 0.000000
56.808822 76.795944 49.354909
73.923857 75.600091 47.942541
49.234682 74.931421 0.000000
122.997324 84.476794 16.800933
69.500784 53.034249 50.000000
76.774555 10.491420 41.793276
88.594160 24.052715 6.647379
51.662321 60.098940 0.000000
83.676778 62.787821 0.000000
127.540949 69.977342 18.516755
69.048505 76.391504 27.655035
105.241368 43.515144 33.131612
89.483624 95.827726 28.568751
117.044013 90.139097 20.662218
12.223997 62.220256 42.152979
65.894661 25.560712 50.000000
55.070401 87.094563 25.258250
47.971248 93.461889 40.620533
6.983095 81.712399 6.155978
17.870742 91.532671 30.245568
3.523161 71.507797 23.670229
104.999329 43.232173 0.977576
52.052705 62.741140 0.000000
62.041454 55.996190 0.000000
71.902628 59.094363 50.000000
84.287935 19.018261 18.045292
109.065321 97.727777 7.664149
69.869110 5.380938 22.877563
57.105167 50.296715 0.000000
26.563635 59.336810 0.000000
116.408533 90.743513 18.598332
40.535974 70.457754 50.000000
95.952045 61.640143 0.000000
95.466282 32.086987 23.487639
57.353530 17.184688 47.673400
62.554877 62.693412 50.000000
19.597167 93.005040 0.000000
46.817825 30.880864 48.620338
17.579627 71.188798 50.000000
70.347275 5.512332 30.289603
23.579812 55.567101 0.000000
72.832716 71.537349 0.000000
99.796152 60.927074 0.000000
59.465864 83.130011 32.855547
83.833242 83.997202 48.451511
19.947416 53.394448 41.025416
10.199890 83.789573 43.441927
2.465507 77.637694 19.389532
62.502700 60.472146 50.000000
89.581543 25.207075 3.607550
63.693082 38.048287 0.000000
45.813553 71.418426 0.000000
121.721278 75.330541 0.000000
56.771914 85.559859 25.484601
89.186450 75.554476 50.000000
52.129246 61.274033 50.000000
71.053229 38.549871 50.000000
109.021920 97.769056 27.046007
17.950403 91.604523 25.243076
96.163083 76.371238 50.000000
93.000541 95.379690 46.874064
32.674815 104.885420 29.404251
102.906391 72.612251 0.000000
94.986676 31.526273 0.545268
87.554895 31.767560 0.000000
26.916683 45.571606 13.723414
125.636985 67.359877 13.058596
46.535734 23.820138 35.922145
67.235395 49.722679 50.000000
28.044396 100.708946 2.656712
118.341640 66.532555 48.663133
109.956256 60.302149 49.597585
67.037564 38.199095 0.000000
10.748335 85.108512 29.987848
109.642157 54.765204 47.937860
98.210167 38.536739 46.096067
57.075407 85.286119 4.206627
111.477800 64.570703 0.000000
67.466272 36.747595 50.000000
83.357153 88.915221 43.842172
51.273315 18.567623 13.169257
121.874641 62.961282 29.233234
113.586852 53.271938 9.987531
77.239312 13.593915 45.701006
6.515285 81.290450 13.682448
46.306675 53.907907 50.000000
35.845535 45.035895 0.000000
41.951493 60.619201 0.000000
90.244438 96.551349 14.516166
59.298650 83.280832 9.513739
64.310179 78.760610 30.602105
65.871587 47.238460 0.000000
85.989184 27.422004 0.000000
21.053861 52.071665 37.769106
24.785182 55.708801 48.772447
75.078720 82.126953 33.766865
106.855084 45.401757 20.889338
23.576545 83.019860 0.000000
80.841082 87.607643 16.050604
103.683253 77.200199 0.000000
72.542652 6.360235 31.309192
112.385631 58.644017 48.243436
48.867683 24.118176 45.905267
43.288892 97.721067 28.451897
67.074915 28.942666 50.000000
63.611238 14.465943 49.325080
77.946005 84.854081 8.406392
47.139370 59.478992 50.000000
40.819844 80.625316 0.000000
92.680104 83.188394 50.000000
70.867654 71.107398 48.705060
101.532062 39.178555 12.327146
61.626799 81.169399 40.199596
53.014563 88.948856 6.289484
109.172899 70.746005 50.000000
21.037346 52.089975 16.198982
33.338953 61.015501 50.000000
71.744006 16.324739 49.718970
106.222496 58.419078 0.000000
39.322775 76.422000 0.000000
106.696022 99.911242 24.241198
43.564029 95.702583 0.000000
45.328342 95.881555 15.015833
44.159856 96.935488 4.123730
29.128094 101.686403 5.883431
2.875626 78.007608 26.069533
124.099772 65.562706 28.188926
78.869795 16.648183 46.665158
45.668258 24.781900 15.744934
12.922645 61.086672 8.245307
9.401258 81.696128 45.452724
19.059475 54.282823 26.201174
44.428925 76.933505 50.000000
33.701585 92.266284 0.000000
22.727958 82.938190 49.971304
11.064372 85.393566 3.990585
76.149454 58.637849 50.000000
104.278529 83.792993 0.000000
116.330411 68.594864 49.743995
45.233383 95.967204 28.292407
121.885225 71.645445 48.957157
79.168642 13.033241 24.055239
48.284055 91.978982 0.000000
103.433474 85.660758 0.000000
54.979514 51.884824 0.000000
90.272651 71.060979 0.000000
26.790487 45.711518 18.531629
106.176326 85.920298 0.000000
43.718603 52.252453 50.000000
46.346357 39.945457 0.000000
22.099808 95.347139 32.176750
16.026290 57.645688 15.770221
46.032728 80.559667 0.000000
31.791788 104.088961 24.810328
29.646800 85.954331 0.000000
110.296881 96.416657 41.286769
39.816214 49.718784 50.000000
55.422948 86.776578 2.157831
46.927792 89.389267 47.799049
85.563745 79.812230 49.913692
81.918636 27.974247 0.000000
36.726344 77.289477 50.000000
10.199116 64.260464 41.385056
4.593378 70.321257 5.296231
82.389298 73.859322 0.000000
21.048363 94.398773 9.780776
92.145577 63.256300 0.000000
55.646224 86.575191 17.180435
91.452671 85.290382 0.000000
110.105604 66.727251 0.000000
67.712739 6.901284 0.000000
41.394922 29.519710 6.829547
28.155649 44.197975 38.654283
51.688517 85.959188 47.224426
26.099749 93.383307 0.000000
113.566535 66.025122 0.000000
109.716591 90.334503 48.600691
128.483429 76.887522 14.614913
95.855658 73.589256 0.000000
87.477300 22.746982 30.121797
37.762236 100.110991 0.000000
18.735882 54.641588 13.108942
86.682778 71.417369 50.000000
16.182415 69.592131 0.000000
109.749995 97.076571 33.927372
100.245023 37.673864 29.683060
53.879908 26.037460 0.000000
56.879166 45.539598 50.000000
76.756531 10.213216 10.977395
53.283207 88.706549 18.857537
64.801601 5.633807 35.994643
27.102425 75.689967 50.000000
66.767344 76.544335 13.399672
79.442496 73.058218 0.000000
39.494946 47.215250 50.000000
58.908532 83.632704 0.368960
104.057530 80.045066 50.000000
0.650988 75.182565 0.000000
34.066817 37.644316 39.547504
77.583759 48.091166 50.000000
100.970318 94.513726 0.000000
44.787518 74.810556 50.000000
106.200840 58.076339 49.889390
69.484376 25.132886 0.000000
27.085643 99.844184 19.348989
118.371595 88.876410 14.708668
20.189578 53.029887 17.878869
13.564693 87.648767 1.003486
99.483422 102.253517 36.788877
55.310093 18.023090 46.747874
45.091137 89.959424 0.000000
126.335643 76.221631 0.000000
6.070234 80.889031 4.430695
76.896790 83.856153 1.172031
118.624726 67.204971 0.000000
101.884536 102.122605 15.101402
87.323503 78.840235 50.000000
128.661735 76.090523 19.878767
115.416173 55.410617 15.586516
76.646854 10.084992 32.876443
114.704116 54.578144 34.590816
24.610346 97.611555 12.962124
72.092983 79.287163 3.807010
86.862755 93.334968 29.108693
104.094709 99.815011 0.000000
107.268755 99.436524 39.468574
7.750298 66.821208 31.930282
85.477305 46.483569 50.000000
103.597876 41.593720 33.002661
50.775624 59.403868 50.000000
107.013129 99.656972 37.410241
15.696814 89.571865 25.343216
106.672929 56.380031 0.000000
100.694027 58.575133 0.000000
60.577614 11.240423 0.000000
85.484174 52.294761 50.000000
47.434610 29.004127 48.101647
107.946023 77.983124 0.000000
9.605043 64.764868 20.799808
72.189867 40.477755 50.000000
56.897114 12.435326 40.812090
26.850129 79.234490 0.000000
26.800800 99.587267 30.371466
41.762942 96.230315 46.155782
79.345852 86.185503 26.207057
74.550540 81.624592 37.635273
82.756756 89.429677 25.766015
16.930053 75.053998 0.000000
63.840683 42.826672 0.000000
53.484591 88.524907 0.899753
71.819963 31.258541 50.000000
27.453032 54.483871 0.000000
49.106998 64.425862 50.000000
123.311179 64.640753 19.055011
48.506300 93.015149 10.362922
36.951086 34.446552 12.550193
98.993840 68.825741 0.000000
112.498988 67.733891 0.000000
61.669469 81.142437 5.316434
75.533928 78.589824 47.013605
123.976232 71.191730 0.000000
91.780693 63.815771 50.000000
66.483171 5.258110 37.571920
104.109522 80.686999 0.000000
44.913715 25.618456 28.739024
114.942814 92.137586 37.697299
17.009569 90.755923 3.260791
97.191402 34.103842 24.147678
98.621499 53.086846 50.000000
96.752723 34.368292 0.000000
50.971978 40.657627 0.000000
115.645714 91.469044 35.882992
22.447739 95.660960 39.263807
42.861244 78.181754 50.000000
43.538503 68.799730 50.000000
12.712219 61.319970 4.211390
85.751380 20.729190 11.006609
96.487795 94.980363 0.000000
99.762846 55.569493 0.000000
91.213189 53.238625 0.000000
67.420660 62.803304 0.000000
49.033583 27.395814 48.173079
22.540399 50.423553 35.866242
120.928816 86.444189 7.233040
21.728300 90.592907 47.391966
49.947396 20.037658 25.052510
124.930660 67.895891 44.025158
82.762479 71.284851 50.000000
128.082075 78.237393 28.514046
117.751160 58.140476 13.122452
36.353157 35.109471 34.207411
113.247099 54.324986 44.148483
37.637604 102.818328 20.968541
21.903818 51.374855 41.795507
83.727523 53.580917 50.000000
116.120921 57.316961 43.635735
26.403584 80.788651 50.000000
63.747947 72.108363 48.831866
47.214722 23.067349 13.251340
71.879379 79.084001 35.824377
29.252974 76.862270 50.000000
39.609092 92.552340 49.273564
14.634604 60.479225 44.021198
15.565618 61.108237 45.963863
80.190138 36.134908 50.000000
29.574387 66.537111 50.000000
94.473290 96.041074 0.000000
126.069837 67.865930 21.796685
26.182321 98.955358 40.969183
54.367017 87.728991 12.453407
0.056303 75.464678 26.207244
24.962194 82.696512 50.000000
41.685037 46.884774 50.000000
113.996377 81.042875 49.897014
24.580503 48.161708 9.536271
77.774731 11.403604 13.408947
37.245061 103.172388 6.726023
46.458767 87.656935 48.836519
54.816469 34.632042 0.000000
54.765567 32.001994 0.000000
90.317075 96.620437 31.232953
106.373301 100.170014 18.596859
79.395294 38.008818 50.000000
55.020805 56.752900 0.000000
63.603060 14.602352 0.000000
78.061035 11.738326 21.917718
55.551063 49.024250 0.000000
53.943944 61.783820 0.000000
29.541510 96.487922 0.000000
45.987218 51.556328 50.000000
82.045103 88.752810 33.714508
125.451204 74.094727 0.000000
70.596448 77.863781 22.130209
37.301678 92.425636 0.000000
110.977785 50.221650 9.568075
30.086396 69.550701 0.000000
59.679998 57.574764 0.000000
102.141243 79.243311 50.000000
12.007002 62.101837 25.005893
64.486620 23.832091 50.000000
89.092957 74.949802 0.000000
102.440162 102.027818 22.687093
35.120463 54.936389 50.000000
23.203713 49.688143 9.633053
86.245987 92.748349 5.891909
0.459433 75.828287 34.955706
97.918171 101.995693 9.790557
66.336743 76.314571 42.980809
54.512813 14.976020 39.962003
85.107981 48.872708 50.000000
38.423301 32.814320 39.554655
55.264966 84.721588 0.000000
56.833249 85.504536 39.510598
40.646723 99.456476 43.027054
116.872322 57.113016 9.731372
104.874934 43.086742 30.498409
4.845141 70.042130 8.920919
87.415417 48.200271 0.000000
72.704885 6.436250 38.963857
128.152550 71.322774 8.065970
29.149605 43.095985 22.823051
4.773902 70.725576 42.795183
113.534552 93.477009 23.658178
115.455540 55.456642 27.766341
108.038251 46.785009 37.302471
38.391077 65.908645 0.000000
74.455173 10.086628 45.466777
128.178818 71.412130 6.061981
14.372348 80.106243 49.206651
75.306033 57.597954 0.000000
27.756952 97.538695 0.000000
11.498898 62.665168 12.695470
105.508633 67.539963 50.000000
57.465013 30.388905 50.000000
65.037234 5.575678 0.030640
9.728247 64.628273 36.276645
68.421720 22.956534 50.000000
32.343754 81.398843 50.000000
76.438008 9.840827 30.692804
106.948895 45.511432 16.427879
70.119159 56.776715 50.000000
105.219213 97.566151 0.000000
103.541640 41.527974 28.731670
88.766515 53.004445 0.000000
51.338612 18.495229 31.072748
83.226950 49.767997 50.000000
80.648744 14.763644 16.903897
46.183949 95.109828 22.597203
92.118197 77.215100 0.000000
43.278414 27.431500 39.071322
48.876463 21.224992 15.886646
77.930140 11.609974 40.183362
121.187849 86.197819 36.900116
8.236449 66.282216 3.734831
67.330028 74.208165 45.029045
76.457724 75.224778 49.124037
45.674094 68.480536 50.000000
75.977387 71.948617 49.777503
83.171091 73.361729 50.000000
90.185300 47.845005 50.000000
16.512186 66.442130 49.254642
83.184510 52.865498 0.000000
35.781238 104.492704 35.955611
16.892762 90.650568 15.037763
119.003375 88.275512 25.229637
69.333817 8.070039 46.833052
84.128758 28.335020 0.000000
116.369195 56.524805 11.612310
106.095940 48.472181 0.000000
92.874932 99.053262 32.295343
57.637035 24.457583 0.000000
75.195736 13.784393 0.000000
75.307073 29.618794 0.000000
98.348291 102.069069 6.994244
6.183339 80.991047 29.312564
78.016811 11.686623 10.372564
116.454530 56.624571 5.445464
112.919595 69.455999 50.000000
67.003829 7.367716 46.156165
68.084172 75.474309 10.639993
39.957109 78.081301 50.000000
43.137499 27.587730 6.288506
121.588185 70.989274 0.000000
96.222277 97.320193 0.000000
88.619655 55.405490 50.000000
76.789830 10.252146 4.418940
30.872450 61.893872 50.000000
87.917366 34.642401 0.000000
57.644091 62.775335 50.000000
78.816325 12.621344 4.992163
74.478603 7.722836 23.795023
5.576765 80.405233 40.681645
63.290832 8.553488 45.898527
68.342119 67.060141 0.000000
99.295228 36.563448 14.548434
54.203856 47.204440 0.000000
114.377931 73.519600 0.000000
86.059832 24.283056 46.050956
108.342640 98.415131 23.977050
28.661640 45.720153 45.085454
55.560317 73.661584 0.000000
63.918785 57.865006 0.000000
29.476873 102.000989 18.167751
83.394237 90.035996 8.115667
107.808464 98.923196 32.626611
68.216839 16.533554 0.000000
39.316495 71.880265 0.000000
122.994463 84.479515 32.444242
34.265485 105.859860 20.691439
31.583883 40.397123 17.486719
32.443604 104.676876 33.046197
38.059739 102.437577 17.054370
85.997417 56.422915 0.000000
56.969026 15.429621 0.000000
34.484961 74.423083 50.000000
47.049179 94.329421 20.403565
24.245914 97.282850 3.657958
18.918926 56.409906 44.964164
102.912062 40.791927 10.645814
24.948050 97.916152 34.298681
48.469226 21.676491 27.990652
39.976257 63.833706 0.000000
68.846111 76.199003 5.188478
88.239563 65.000223 0.000000
52.811233 58.136671 0.000000
24.469093 97.484150 26.647735
72.801615 36.160284 50.000000
58.199367 84.272346 14.644839
34.410071 83.523315 50.000000
38.021742 102.471850 35.270803
72.609529 6.505674 41.185277
71.221519 20.184681 50.000000
38.994849 35.660335 46.416400
63.306611 10.049337 47.253397
18.016383 55.461139 40.372409
45.776740 92.602503 46.164229
9.728414 64.628088 33.988867
127.675787 79.229266 24.305117
105.689723 100.679009 35.171117
127.761665 70.428960 10.314814
74.621967 78.648054 0.000000
53.069905 88.898940 33.084144
81.593012 38.680292 50.000000
49.296343 82.217256 0.000000
14.507935 81.272039 0.000000
81.210733 15.420671 27.492492
79.759719 23.802901 0.000000
93.378325 55.894365 50.000000
108.062344 85.113349 0.000000
33.860356 38.054113 41.507992
101.357375 98.766489 47.497451
41.163385 29.776413 24.324032
122.896410 64.155842 8.324889
56.557617 82.745343 0.000000
47.667528 66.442897 50.000000
100.273284 102.253517 39.090926
75.361415 67.398789 50.000000
86.760358 33.481025 49.649391
31.977757 104.256698 22.465575
63.632080 22.199541 0.000000
34.587620 99.309863 0.000000
71.976696 79.176561 18.460956
12.910523 85.717503 0.000000
57.623975 78.430102 48.480973
56.763683 26.419860 0.000000
97.099493 101.735539 32.913533
96.178289 32.919401 10.450237
90.161762 76.702903 0.000000
41.056240 55.682707 0.000000
111.539132 62.481002 49.654764
67.087578 43.853714 50.000000
71.861081 26.209088 50.000000
18.626702 55.157464 42.257971
85.967864 20.982284 17.294343
94.661389 39.220610 48.776157
65.806301 40.745719 0.000000
111.705282 51.134916 0.000000
70.574828 5.574909 40.000531
46.137824 47.284255 50.000000
48.363437 21.793779 38.859383
55.724098 13.633080 22.465997
88.258009 37.138383 0.000000
64.243252 43.282832 50.000000
5.234813 80.135511 14.957726
119.919579 73.729489 0.000000
96.292318 79.346866 0.000000
34.738986 47.182657 0.000000
80.849983 14.998914 36.892006
36.332628 82.973506 0.000000
40.240663 73.424371 50.000000
68.767356 5.232533 3.080531
87.607934 22.899707 24.247084
79.810581 55.074939 50.000000
8.500606 65.989348 37.747475
42.743912 98.212619 15.247474
55.155784 31.547051 50.000000
85.643423 63.820899 0.000000
54.892099 67.195600 50.000000
67.848097 54.363279 50.000000
93.664720 90.941212 0.000000
97.854710 101.984867 34.771765
