1.015521 6.329929 18.986354
13.794392 8.633106 5.995690
14.708115 0.000000 13.834955
16.284356 0.000000 6.025861
3.701797 2.933583 19.182548
3.330673 5.658322 20.000000
15.433834 0.000000 7.367901
7.577291 9.928344 16.649293
11.438079 9.622959 6.890998
11.119300 9.712681 18.379158
0.702697 4.645300 17.466302
9.943035 9.923504 17.486359
1.681481 7.067606 12.796147
14.814105 5.152397 20.000000
5.722556 9.529436 15.140602
8.604494 9.993640 1.770524
11.147557 0.000000 17.342284
11.817436 3.366209 0.000000
2.179562 7.537630 8.835067
8.177783 8.109142 20.000000
5.011929 8.916069 19.738941
11.092996 9.714561 5.709343
5.965562 7.919287 0.000000
13.477451 8.807856 18.444459
5.847973 1.674674 13.894488
3.466322 8.488601 18.866386
10.967348 5.348912 20.000000
6.408337 4.354123 20.000000
1.087838 4.422939 6.068463
10.871929 0.000000 1.928791
16.008903 6.868191 11.106940
18.714363 0.433703 19.188811
13.574182 0.000000 9.489092
14.942145 7.844847 13.200521
15.310101 7.543685 17.948962
18.609622 1.589157 2.788165
7.522808 0.707708 0.382433
16.703866 6.057764 16.944026
11.349939 0.582557 0.000000
4.936862 2.200704 13.141954
6.879888 5.828348 20.000000
11.928394 0.000000 0.799179
2.762319 3.456177 0.376857
14.621322 0.000000 5.001144
6.802101 1.123808 2.849158
8.542406 8.329947 20.000000
10.133617 9.891410 5.069275
11.084687 8.579295 0.000000
13.349765 5.057330 0.000000
17.663479 0.000000 8.782188
5.827617 1.686427 16.570199
17.944096 3.820589 19.255452
17.229020 3.998747 0.000000
11.787755 9.525458 14.185132
3.767533 2.875817 1.396955
10.194444 9.887929 18.690768
6.790816 9.801298 2.646807
18.676523 1.182311 16.581450
18.576092 1.823126 16.525615
5.525329 6.532578 20.000000
18.652967 1.331823 6.485829
3.752012 8.662125 1.024780
4.533994 2.433300 12.288795
11.164860 9.691766 0.861304
13.158689 7.374097 0.000000
5.950678 1.615377 13.277302
3.134827 3.241110 17.298032
5.541372 9.471419 14.617671
13.841654 8.602066 4.601204
15.410781 3.436323 20.000000
3.751521 2.885061 14.062728
1.446949 4.215606 9.748492
15.151704 7.669795 5.663060
6.910097 1.061456 4.506850
4.484234 2.691477 19.597125
8.281880 0.269457 12.435869
2.647272 7.911708 2.987033
17.843285 4.156504 17.134398
4.407122 6.164208 0.000000
7.941499 2.482010 0.000000
11.166619 6.134066 20.000000
1.644521 7.025698 7.505050
11.080877 6.361556 20.000000
18.711404 0.722955 1.148481
13.852112 6.589178 20.000000
2.559501 3.573274 5.163175
18.160552 3.317245 0.000000
13.744396 6.375739 20.000000
1.219011 4.347206 14.223089
1.892525 3.958353 12.462681
10.449423 0.772890 0.000000
14.680471 0.000000 15.697150
15.817660 0.000000 14.347261
11.112952 9.712928 10.798469
6.489698 1.304174 0.559863
17.234763 5.280027 9.325280
12.031026 0.000000 15.187902
14.550394 5.195476 20.000000
14.642494 6.656940 20.000000
18.571939 1.645743 19.248882
4.796642 9.008889 19.536574
17.368698 0.000000 15.258161
14.665867 8.059537 8.420710
16.382412 0.030362 19.244052
3.522317 8.518695 10.535281
16.080270 6.794428 16.996457
3.038813 3.296543 9.844266
12.150586 9.396246 13.911707
11.674470 0.000000 8.442280
16.470445 6.342389 17.849857
16.938933 5.733549 13.556601
10.394416 0.000000 2.713821
7.782697 0.557660 3.466887
4.281532 8.864301 19.360798
10.466400 0.000000 2.190690
0.416198 5.513881 6.878054
4.495946 2.455267 8.716699
12.871471 0.000000 0.662782
7.712958 1.097733 19.818997
18.737275 0.292921 6.627995
2.707949 3.487568 12.783255
8.262059 0.280900 12.882559
1.507498 4.180648 12.145039
10.915654 0.000000 4.550619
16.721470 0.000000 12.869901
1.986170 4.349946 19.788514
4.746844 9.164105 10.899624
18.146524 3.408610 14.252757
2.555589 3.575533 7.276278
11.175815 9.699348 17.649817
9.833939 0.000000 4.587246
14.031812 8.476966 2.457280
5.139015 7.253689 20.000000
13.289374 2.728261 20.000000
12.939280 9.076469 16.723064
9.302132 9.979497 14.880231
5.156824 2.073709 2.511735
18.690393 1.072390 14.247662
13.756393 8.655631 2.425150
12.302443 9.337753 11.696613
2.837906 3.412537 5.096426
9.041921 9.987879 5.096341
17.503494 4.814918 0.681531
14.586085 0.000000 18.258667
11.167354 0.000000 2.042569
0.876751 6.084867 19.309699
16.003640 4.562838 20.000000
18.542327 2.010935 10.296242
2.748887 3.463932 2.302520
18.668298 1.247496 10.840273
18.425322 0.767877 19.704758
5.547390 1.848216 12.748125
0.789072 6.052381 15.571018
2.436839 3.644093 13.933833
9.336672 0.000000 9.970885
18.170037 3.326395 2.014189
9.474148 0.000000 10.362921
7.642142 1.301971 0.000000
7.236819 0.872823 3.266897
13.608659 7.829845 0.000000
18.000690 0.000000 3.250612
18.171708 0.000000 2.781519
16.334967 6.499991 13.211375
7.194304 0.897369 5.205788
18.366284 2.701984 9.918896
16.647189 0.805867 0.000000
0.439434 5.550849 7.784027
7.973581 6.052917 0.000000
7.389115 0.869102 19.369928
11.113872 2.897689 0.000000
3.896828 2.801168 7.475175
4.731734 2.319135 8.660350
14.014226 8.489731 6.768784
18.702346 0.949595 12.155113
4.168439 2.644353 8.508357
18.027488 3.697054 1.669792
4.451984 9.025210 15.581017
15.369307 1.229111 0.000000
17.111918 1.217012 0.000000
7.184964 0.902762 17.103847
12.845054 9.121539 10.363531
5.069202 9.289366 12.284029
15.202643 0.000000 15.190023
18.018241 0.000000 2.935027
5.399340 1.933692 16.305357
12.500009 9.187880 19.364636
18.693866 1.044690 3.349599
11.913194 9.485848 16.489594
1.959705 3.919567 17.370791
4.456578 2.477996 13.557385
18.685006 1.115084 17.689555
0.196691 5.172660 4.431050
10.840464 0.000000 18.105030
7.811422 6.745100 20.000000
13.381503 8.860087 17.153263
13.651138 4.796852 20.000000
18.643499 1.374440 2.600626
0.549492 5.720217 13.279792
12.195791 9.376298 6.159468
15.004225 7.793866 10.956695
11.357136 0.000000 11.417093
8.884718 8.008632 0.000000
17.169196 5.371525 1.944716
18.694231 1.040596 4.897040
9.044306 0.000000 18.230510
1.171342 6.514924 15.629860
6.921798 9.821888 2.421870
2.545505 5.751751 0.000000
18.566268 1.873323 5.151621
7.777579 2.637000 0.000000
12.578120 9.229909 6.986663
10.517524 9.837512 14.176972
18.027754 3.706110 6.514170
7.756311 7.777014 0.000000
10.898105 0.000000 11.480143
18.698244 0.989787 2.502924
18.462868 0.000000 5.463180
10.838369 9.778961 15.205454
14.414107 8.229259 4.614974
6.161697 1.493545 13.452866
17.920574 3.600521 19.511081
9.381883 0.000000 6.706912
10.712796 0.000000 5.452891
14.129659 4.414869 0.000000
16.409821 0.000000 3.295055
16.780069 5.948510 19.053198
4.194164 3.331122 19.916207
15.749468 3.685982 0.000000
8.389722 9.988833 11.351734
1.238320 4.336058 12.530078
15.317716 7.533306 3.321634
16.139631 6.733075 5.965377
6.678918 9.783363 2.997279
7.476928 0.734197 10.603193
18.740320 0.226093 7.080924
16.132362 6.740587 5.751502
14.456406 0.000000 15.681803
9.429944 9.970588 18.976961
17.345427 5.102420 6.046307
9.898225 2.311038 0.000000
0.599482 5.792557 12.319734
16.520312 0.000000 7.342528
18.705620 0.862943 3.699279
2.910539 6.002515 20.000000
7.024045 0.995668 14.040465
9.747209 1.924391 20.000000
11.816925 0.432763 0.000000
4.876177 9.211036 1.763964
7.674646 9.941353 3.639586
8.783961 8.207686 20.000000
9.491741 9.966280 15.598364
17.669027 4.493418 4.113762
13.531002 0.000000 17.972626
5.924193 5.211616 0.000000
1.762943 7.151898 15.824186
9.612950 7.884661 20.000000
15.250511 0.000000 0.463168
16.625202 6.141579 1.199646
17.959234 3.885667 12.296889
11.748799 2.300504 20.000000
10.807890 0.000000 8.997841
14.124489 7.733510 19.904264
16.096730 0.000000 17.691907
3.390723 8.432347 11.999737
12.845195 4.931108 0.000000
18.708202 0.883930 12.825388
9.316887 5.761690 0.000000
0.487500 4.769545 1.715020
5.864066 1.960692 19.666456
6.175310 1.485686 6.190262
9.349963 3.261078 0.000000
17.534488 4.765240 16.513760
8.091004 0.379660 14.189820
2.405345 7.726944 18.100514
13.379715 1.251422 0.000000
11.634457 0.000000 18.298359
1.353818 6.729370 14.735232
7.018691 0.998760 12.988563
7.134830 9.862166 17.512880
16.114380 6.759173 18.627827
6.619752 9.769634 5.581552
10.810831 3.118606 20.000000
18.737646 0.260349 4.432281
17.051470 5.571429 16.687372
13.565344 4.925833 0.000000
2.253937 7.595283 5.487900
16.579456 0.000000 4.757717
10.353638 9.862859 16.173727
9.400304 0.000000 15.379644
14.780333 7.970588 9.124564
0.290257 4.883423 11.003343
3.030855 3.301138 4.457369
7.953861 0.458839 3.408998
4.942154 2.443051 0.000000
17.317405 5.147674 10.401638
15.473265 7.400394 4.373522
0.840271 6.109931 11.428941
18.727149 0.490750 7.025467
1.151584 4.979505 0.000000
8.958859 9.990207 1.923320
6.428103 1.339736 11.758482
11.388881 9.641610 14.383335
16.707613 0.000000 3.107177
10.410610 9.013695 0.000000
12.111693 0.000000 10.639123
3.115938 3.252015 5.900357
7.441053 3.614684 0.000000
9.086529 0.000000 18.438556
17.663440 4.505321 5.065290
7.379967 4.493013 0.000000
3.740008 2.891708 14.487034
9.300455 9.975495 6.922705
15.145227 0.000000 11.923450
10.788203 7.676475 20.000000
13.712035 5.793319 0.000000
17.004557 5.632341 7.631037
18.408117 2.553034 15.039957
7.497878 7.212686 20.000000
11.476106 9.616442 15.030904
4.128619 3.650271 0.000000
15.058172 6.973981 0.000000
11.488334 0.000000 6.262864
16.303985 6.539766 16.074596
6.575443 1.254669 18.760709
7.708135 0.600709 18.436699
18.035991 3.676885 2.654188
5.612376 9.494995 4.973363
18.065775 0.000000 13.231342
2.470154 3.624859 3.686450
2.354882 7.679258 8.154607
6.340740 5.771863 0.000000
1.857634 3.978498 7.347311
5.234369 4.306260 0.000000
8.009701 9.967226 16.506745
6.548259 9.752607 14.490834
3.254735 3.171880 15.998774
11.605073 9.578791 11.409735
16.062216 6.812326 3.625732
10.286226 9.873764 17.611536
16.989358 5.660907 15.991618
10.100730 3.975975 20.000000
14.054509 8.465986 10.832552
1.487255 6.867870 14.442708
9.495479 0.000000 8.260498
15.719481 0.000000 15.891313
9.992527 0.000000 11.834371
8.193911 0.320246 10.861866
15.629980 0.000000 5.705397
15.033739 7.765946 6.375084
2.829881 3.417171 2.015371
17.135792 5.437864 13.562682
7.933783 4.817909 0.000000
16.758616 5.976828 1.207251
18.261284 3.083383 18.954985
13.170528 8.962124 9.071085
9.765103 0.000000 14.972641
6.268171 1.432073 16.586860
12.266564 0.000000 3.199818
7.207892 9.870265 13.057981
14.373995 8.254469 1.375269
15.437312 0.710192 0.000000
7.402738 4.408820 20.000000
12.440284 9.287253 17.959420
4.769258 9.172899 9.882091
18.419970 2.497092 7.327280
6.023860 9.618091 16.513574
1.354047 6.729608 14.533604
6.713761 1.174811 8.823587
0.564410 5.741805 13.519666
1.430705 4.224985 14.348330
10.730636 0.000000 16.494493
8.292724 9.976720 0.907997
15.039822 7.756660 1.407520
4.715603 2.328448 2.637362
5.189249 6.551300 0.000000
13.306910 6.292430 20.000000
3.511310 8.138256 0.000000
8.378385 9.987766 10.649737
7.428282 9.571034 0.000000
4.508521 2.448007 6.059193
17.189018 5.355011 18.502286
13.749718 0.000000 1.667698
10.619774 0.000000 1.764092
7.936992 0.468578 1.079262
15.412027 7.455550 18.806723
5.784386 1.711386 6.593894
10.501611 3.510922 0.000000
15.127681 7.695864 13.202206
17.443735 4.937914 10.132853
11.831038 8.999640 19.854326
13.126420 0.000000 12.324950
11.460763 0.000000 17.209013
9.808294 8.535622 0.000000
14.942973 0.000000 10.088512
6.033922 9.053624 19.888472
11.592881 2.103052 0.000000
3.889107 8.732319 0.588292
12.728537 5.909958 0.000000
12.426801 9.286933 4.634860
13.414804 8.841959 16.932600
7.991421 0.437154 18.641970
12.136509 9.399452 7.049511
17.641321 4.552096 8.482784
17.604630 4.623743 8.113554
17.957676 3.889431 7.070291
17.119905 0.000000 15.800488
13.927663 0.000000 14.210881
8.155921 9.977690 13.001708
13.183311 8.955975 9.521131
15.379833 2.726012 0.000000
12.944393 7.383403 0.000000
17.608310 0.000000 6.115468
16.534548 6.253528 0.257270
1.289015 5.764004 19.901673
18.724503 0.640449 15.573645
18.469445 2.318120 13.199506
2.373725 3.680532 1.141252
18.689145 1.076869 0.477727
11.249775 0.019171 19.191608
15.531474 0.000000 6.036536
18.594281 1.708032 7.773968
10.888950 9.766856 2.451591
17.306133 5.165878 18.358848
9.566692 9.961056 9.593086
13.164142 0.000000 17.480488
18.579019 0.000000 0.322314
15.278877 7.562092 0.284405
17.343143 0.000000 17.341261
6.158840 7.377030 0.000000
18.583016 1.764559 4.468651
0.474966 5.607277 9.090100
9.234597 9.981801 11.398270
17.017025 5.618691 11.958504
3.998720 8.794202 8.154139
11.556643 9.592930 17.600365
2.699865 3.492235 5.302082
14.217466 8.361146 14.655123
5.073420 2.121863 2.205269
6.520211 1.286557 7.660485
5.186589 2.677969 0.000000
18.484772 2.259925 12.170158
3.054315 8.211949 16.137564
18.748324 0.007397 10.536871
14.588792 3.702829 20.000000
1.953972 7.334880 11.006902
13.608392 8.736576 7.688531
6.635569 9.773401 8.070736
2.778839 8.018443 18.044276
7.486277 0.758477 19.221063
10.489923 0.000000 15.612517
7.323810 2.879698 0.000000
13.362246 0.000000 5.245172
1.091519 6.412816 0.576732
1.559288 6.942637 18.443095
17.469060 4.891499 15.082238
5.504844 9.458001 15.089130
7.212703 0.886747 6.952141
8.631714 7.509815 20.000000
18.241619 3.139758 8.748588
11.762071 9.532956 5.460608
0.453686 4.789067 0.722365
1.034496 6.170001 19.466419
2.599593 7.878548 18.016940
16.762289 5.979847 9.056283
0.752791 6.004265 18.789677
4.770118 6.250254 0.000000
13.388955 1.997983 0.000000
3.551892 8.536002 7.773199
6.936547 1.438790 19.748820
3.902021 4.153514 20.000000
11.597266 9.581070 12.893456
18.640540 1.459190 17.560583
9.289350 0.000000 12.306250
13.518453 6.891212 0.000000
12.490176 0.000000 14.788661
4.972956 2.179866 7.706082
17.045693 5.569464 7.995337
2.485510 3.615993 10.243551
8.633018 4.346934 20.000000
13.725582 0.000000 13.874097
15.078195 5.124337 0.000000
6.089247 3.021303 20.000000
9.692030 9.952319 15.556002
4.830856 9.198186 19.020131
3.109005 3.256018 0.336376
17.074388 5.534636 15.292333
16.148129 6.724291 2.118455
4.539334 9.067217 14.332053
5.967028 4.960043 0.000000
2.131478 3.820394 14.071222
3.077243 8.224273 12.965371
7.659086 5.341882 0.000000
12.108082 0.000000 10.410057
12.010061 2.771597 20.000000
15.153243 0.000000 16.370319
16.126476 0.000000 6.660455
0.505822 4.758967 0.934368
18.350208 2.764032 10.222648
7.378220 0.791185 14.537310
7.526858 9.919980 14.618284
3.900652 8.743446 9.260662
5.302104 1.989832 16.584042
16.000673 6.871041 0.414533
4.368621 2.528778 4.387303
7.419218 0.768847 19.026423
9.980352 0.000000 1.448549
8.959459 9.991786 4.446703
18.334465 2.810514 1.437331
3.477288 8.484066 2.782540
8.447270 6.316053 0.000000
12.524444 5.354905 20.000000
11.475296 9.615579 10.443360
13.118464 8.983453 2.637273
0.509304 4.756956 6.206860
11.467778 9.618874 18.081330
14.053474 0.000000 2.950428
10.913645 0.000000 17.253125
4.039236 2.718949 15.087339
10.810516 9.467146 19.716994
13.116035 0.000000 16.067183
12.126233 0.000000 1.419528
5.350581 9.397072 11.041740
5.964951 1.607137 9.221803
16.565471 2.221766 20.000000
15.199060 7.631893 6.172279
8.180083 0.328229 11.072832
18.631779 1.498817 14.008282
6.740969 2.020234 0.000000
10.260851 2.805771 0.000000
15.641949 0.000000 2.974661
4.658596 8.010359 0.000000
8.247069 5.824202 0.000000
15.575850 6.270800 0.000000
17.671402 4.496937 12.422321
8.105701 9.967582 1.893236
14.536985 2.714051 20.000000
16.939570 4.697208 0.000000
13.628269 0.000000 3.765550
2.234328 7.575146 0.398579
5.004388 9.261237 4.090221
6.751792 1.152854 7.201387
10.309912 4.679238 0.000000
0.099189 5.017604 6.991514
7.250462 0.864947 6.734243
5.619880 3.773547 20.000000
2.918503 3.366004 1.358411
0.675180 5.900299 3.286720
8.276271 9.979248 5.945623
4.059015 8.830087 16.614770
10.959594 9.746155 0.023463
18.509156 2.173781 17.198004
9.478520 9.962787 1.632169
8.284522 0.267932 12.647054
17.219273 5.306150 13.766885
14.461911 0.000000 10.739742
1.548203 6.930511 8.715057
7.350642 0.807108 3.866219
16.150939 6.721124 0.811643
7.362949 6.786577 0.000000
9.027284 8.393511 20.000000
0.937724 4.509608 1.614093
1.385454 6.762207 10.185725
1.640265 7.026686 17.091612
11.796638 0.000000 16.575831
6.197536 8.017454 0.000000
17.523666 1.058317 20.000000
5.194285 2.052081 13.037071
8.136960 0.353127 3.444563
18.605223 1.623027 4.168867
15.808549 5.524868 0.000000
8.318493 0.248318 13.830593
4.147279 4.281649 20.000000
10.443705 9.844714 9.639752
2.960923 8.148735 9.926524
4.107428 8.639465 19.583687
17.141872 0.000000 5.723357
1.738520 4.047268 12.302249
18.473868 2.303310 14.956268
4.395232 8.995504 7.236962
1.457192 4.209693 14.105696
7.378820 9.895878 11.084934
6.137624 9.639555 0.791642
14.345768 0.000000 11.238330
13.278495 0.855658 0.000000
15.330502 0.000000 6.698272
0.298287 4.878787 11.219999
12.782759 9.149578 3.050809
5.741165 3.062821 0.000000
10.985027 0.000000 15.084264
9.656521 9.954794 14.631480
16.166840 5.920879 0.000000
5.576896 9.483300 11.465019
6.195688 8.648759 0.000000
10.098014 0.000000 9.259683
4.041420 2.717688 15.816229
4.878795 9.217403 16.305218
13.244829 0.000000 8.739037
7.349776 0.807608 16.742498
14.581552 2.910989 20.000000
12.021989 3.578151 20.000000
9.930121 5.544001 20.000000
13.158371 8.971675 17.559841
5.317735 1.980807 6.693767
10.322437 9.861503 7.778798
0.242625 4.910923 12.684882
14.185496 0.000000 17.559461
11.518725 9.599758 4.710951
12.638331 0.000000 17.059076
7.039894 3.999981 20.000000
9.026814 9.993090 12.024766
16.343685 6.489224 13.844763
17.278286 0.000000 17.139584
15.271669 6.086632 20.000000
18.022566 0.000000 8.256013
10.706149 9.805500 11.047934
16.588453 6.186961 4.501876
11.325631 9.660141 16.552224
16.079969 0.000000 17.992954
4.058763 5.817151 0.000000
7.648515 9.938318 9.596900
10.699886 1.988729 20.000000
4.080385 2.695191 18.368845
0.866226 4.550887 15.088537
8.475331 0.157768 14.550775
14.987583 0.426244 0.000000
11.276091 9.665249 5.365464
2.808506 3.710309 0.000000
12.795270 7.971175 20.000000
18.417223 2.512915 12.517646
12.784437 5.675081 20.000000
0.562079 4.726487 13.877308
18.481506 2.263724 3.486117
4.197803 8.892419 4.115039
15.340031 7.517805 16.778980
15.094762 0.310784 19.722442
18.724557 0.547988 7.696397
1.247271 4.330891 18.844645
18.692310 1.057197 6.562055
1.796663 4.189929 0.000000
15.606238 0.000000 11.374629
13.605100 0.861078 19.989096
9.974767 3.142486 20.000000
9.738958 1.579079 0.000000
10.113132 0.000000 2.567653
5.832231 1.683763 17.078438
9.875739 0.002095 19.047990
18.618710 1.556140 8.303774
0.351925 5.418840 9.874580
11.128747 9.701238 0.580708
7.678451 9.941462 0.974704
3.098652 8.238177 1.247365
13.693171 0.000000 17.564184
7.890813 7.622145 0.000000
14.410040 8.233563 11.041689
17.727858 4.389723 16.517957
17.987687 3.804343 3.461139
1.746690 7.129716 9.482187
14.974861 0.000000 11.072351
18.557737 1.925221 16.933231
10.270070 5.834896 0.000000
1.774669 4.026397 2.307436
5.301134 9.379700 14.915466
5.288778 1.997526 16.019718
4.658044 9.124306 2.768248
0.883392 6.167276 16.324896
15.060364 0.000000 8.938345
10.302005 6.056912 0.000000
13.583469 8.750143 17.711379
7.734051 0.585747 6.264272
16.427680 0.000000 8.140468
7.016346 9.837326 4.918994
6.888252 9.129327 19.946006
7.210315 9.867890 4.069768
17.916759 3.988314 17.433773
11.488357 0.000000 13.823464
9.554984 1.320189 0.000000
10.614421 5.371707 0.000000
5.886733 1.652296 16.305502
5.998792 1.587598 13.709031
17.713973 0.962009 0.000000
10.009163 7.984526 20.000000
6.649612 1.211847 8.602085
16.509375 6.286814 10.892604
14.934033 0.000000 17.281197
4.518306 6.338062 0.000000
7.811212 9.315460 19.927521
12.372743 0.114346 19.462284
11.272122 3.830130 20.000000
8.551319 0.113896 8.910683
9.170217 0.000000 9.509814
7.613102 9.933674 14.805683
1.748290 4.041627 17.784953
8.201150 0.316067 5.158234
3.039471 3.296163 15.412458
9.775398 6.435370 0.000000
3.549455 5.362698 0.000000
16.876171 5.823964 10.392182
4.926419 9.231054 3.490777
10.865528 0.000000 7.768432
14.553762 8.140595 12.456780
5.905739 9.581573 6.378049
7.547946 9.921774 6.272163
5.770557 1.719370 2.784049
12.514070 9.258899 17.097104
18.435462 0.000000 6.688225
9.989653 6.053169 0.000000
13.243301 8.930423 15.726909
13.265856 0.000000 0.748881
9.865358 0.000000 1.272995
10.750220 0.000000 0.958374
14.278183 3.391749 20.000000
4.655741 9.123198 18.790063
18.224831 3.187222 17.903222
10.994901 0.000000 11.814078
13.625228 0.040826 19.281594
13.620224 1.512263 0.000000
7.541904 1.696691 0.000000
6.519031 4.098193 20.000000
10.673070 3.407539 20.000000
18.278855 3.017625 0.996110
16.544370 6.246071 11.854366
1.877856 7.263735 18.446949
18.114205 3.489718 10.897568
5.404666 1.930617 8.681844
9.998773 6.861576 20.000000
4.264542 5.849509 20.000000
4.321799 8.962602 15.839705
13.050544 0.000000 16.482802
4.540309 9.067686 7.981228
18.645184 1.430683 18.704044
11.027810 0.000000 1.726763
9.351247 0.241231 0.000000
6.412691 1.348634 17.140501
0.741123 4.623115 4.888662
17.030216 5.563518 19.192756
8.479507 8.483784 0.000000
4.344230 2.542860 15.104988
18.118072 0.818480 0.000000
18.099531 3.511383 19.127510
2.902004 8.110472 4.999452
14.876521 7.890258 2.956549
1.265597 6.629474 7.768237
3.263484 8.350093 14.847784
3.609553 8.573156 6.342059
17.975368 3.840954 5.705675
6.177800 4.256478 0.000000
17.365709 5.069666 11.272199
3.659422 6.164919 0.000000
18.539702 0.907930 0.000000
9.112174 5.717733 20.000000
10.592655 2.190382 20.000000
4.669624 5.809745 20.000000
11.750503 9.534361 0.200375
12.662960 0.000000 0.496793
5.490444 1.881094 12.023735
15.234721 6.540110 0.000000
18.220141 3.200480 9.535414
0.955058 6.256241 18.470392
13.010689 9.042313 10.247356
17.310560 5.154436 2.406305
0.120488 4.981439 11.483829
8.522665 8.768089 20.000000
18.448890 2.396218 14.530402
8.946713 9.996585 14.882184
11.081029 0.000000 5.906639
2.783168 3.444140 14.481285
16.976817 5.671366 4.753027
6.598219 1.241519 13.890630
18.408111 2.541552 7.536471
17.722830 4.396468 12.894419
12.441798 9.283319 9.378217
15.907759 6.972731 11.248449
13.201780 8.939901 1.275629
17.142268 0.000000 3.791802
14.752529 3.262353 0.000000
9.918239 9.927566 18.082102
8.211373 2.855961 0.000000
12.104189 9.414249 15.007738
18.109796 3.498831 9.717846
16.914090 5.769337 16.460165
14.130637 2.519088 20.000000
10.198161 9.881187 1.957510
10.898477 0.000000 8.171407
14.609825 0.255337 0.000000
0.411775 4.813264 6.810824
6.606995 1.236452 16.453712
18.632686 0.024952 0.000000
17.041431 5.568469 2.101550
15.204209 7.634810 14.246564
4.673686 9.131829 12.058462
4.022266 2.728747 4.879044
0.886666 6.161033 5.640017
2.880847 3.387745 13.440329
16.849715 5.862076 10.188453
6.012100 1.579915 4.425818
15.704242 7.179479 14.046748
8.333059 9.984403 9.181861
0.689114 5.918964 6.658333
11.262132 0.000000 0.715533
9.979994 9.915741 2.171184
12.264153 9.354348 18.142597
11.964088 9.467838 15.852714
15.426066 0.000000 8.300199
1.381674 6.758283 12.544606
7.632954 9.935180 5.957337
1.887784 7.273015 17.486298
6.906993 7.555732 0.000000
17.630182 0.604845 19.916955
11.256979 0.000000 2.426008
18.560426 1.910265 17.847378
11.823389 0.000000 13.645076
7.396374 9.901942 18.567071
18.741823 0.185038 11.053555
16.060016 3.964677 20.000000
17.740594 4.359126 10.376340
17.913383 3.993218 1.127938
16.635164 0.445139 0.000000
17.929333 3.957927 15.959421
0.423634 5.537314 16.012243
8.406487 3.354619 20.000000
17.258132 5.239675 5.920779
2.134905 3.818415 13.072056
7.152742 9.861459 12.176654
10.664785 0.000000 16.720105
11.855137 0.000000 6.607769
7.144418 9.857072 2.014155
4.735728 9.158815 6.618015
9.333554 9.969638 0.462306
15.610810 7.266808 7.117726
18.729593 0.432737 6.044980
8.617848 0.075486 17.384180
8.275403 9.978956 5.579053
1.986617 7.365393 8.000363
11.719606 9.543728 1.690037
0.151326 4.963635 1.954540
12.242437 0.000000 2.635767
15.537923 7.335226 2.043887
16.473548 6.328856 4.396249
3.443944 8.469274 13.732014
13.205782 8.946098 11.466906
10.373373 0.000000 6.703604
2.674764 6.039747 20.000000
7.957699 7.998656 20.000000
10.488939 9.835132 4.531686
13.129483 8.978561 3.531385
14.507843 0.000000 4.129746
5.375328 1.947556 4.136155
6.061275 9.623405 6.588457
9.441219 0.000000 3.174580
4.382910 2.741817 0.000000
16.426937 0.000000 4.204123
7.690561 4.904103 0.000000
5.297674 9.373602 3.578007
0.990506 5.346468 0.000000
1.797456 4.013241 10.366831
5.286839 3.454553 0.000000
11.005351 6.423636 0.000000
8.146687 9.974753 9.357171
2.892133 3.381229 5.824065
8.226633 9.974208 2.322113
5.688191 1.766924 13.650742
9.450341 0.000000 3.977962
11.140719 0.000000 15.770938
11.950759 9.473372 18.980998
18.528163 0.000000 8.122951
8.930093 9.947216 0.000000
5.752613 1.729730 1.570031
3.453310 8.470785 8.254028
1.886078 7.271420 17.859467
14.622761 8.092823 8.740184
10.510005 1.031751 0.000000
14.315106 3.951334 20.000000
3.478458 8.484826 1.654959
2.819565 3.423126 17.072824
17.111616 5.461652 3.084242
18.518784 2.130932 16.424192
0.589255 4.710796 10.412669
8.632331 0.067124 9.250100
3.812613 8.695280 8.391979
11.966531 1.319400 20.000000
12.800761 9.142053 7.732413
12.011828 9.450182 17.489227
4.901694 2.221009 8.565932
3.155677 6.014954 20.000000
5.260641 9.364394 15.765985
18.733406 0.415030 10.997049
3.824673 8.701464 3.066934
9.773651 2.124973 0.000000
11.294979 0.956166 19.996260
14.399706 8.240387 11.477374
3.344982 3.119777 3.292710
6.185388 4.366419 20.000000
1.049243 6.361579 4.701677
6.156798 9.653776 13.014259
10.582823 9.829872 18.938835
7.508617 9.914676 1.582947
17.002813 5.641524 16.868618
10.566454 0.000000 2.538263
10.402481 9.848826 0.872508
3.928482 8.343144 0.000000
2.582936 4.242334 19.909877
13.070320 9.013791 11.257108
0.874407 4.546164 3.745409
12.832136 0.000000 11.121921
17.617511 0.000000 0.556700
11.439809 9.620341 3.940230
11.438127 9.453191 19.546934
4.229869 8.045068 19.969213
2.537880 7.830383 12.408516
17.171232 4.950468 0.000000
10.895155 0.000000 4.120331
14.466669 8.196596 10.301107
12.655934 9.201497 10.213289
18.708548 0.835875 6.180628
18.105695 3.518982 14.422939
10.637976 9.816225 9.281746
15.971589 0.000000 16.257170
2.911038 3.370315 4.287170
12.311178 6.442288 20.000000
12.663710 9.201550 17.493877
17.244085 0.000000 11.492504
18.534692 2.053405 5.350006
6.893505 9.817486 2.846658
17.474488 4.882344 17.560116
17.356873 5.083936 8.633344
16.791722 5.940593 6.815285
3.366535 3.107333 5.323208
0.830766 6.103862 16.557811
17.967548 3.855353 2.738066
18.694381 1.038915 10.745707
14.784460 5.551475 0.000000
16.490421 6.313554 14.030408
8.897538 0.000000 5.326780
0.659151 4.670442 3.900613
17.248074 5.259640 10.885899
16.602084 0.000000 14.892709
10.069229 4.804323 0.000000
0.485910 4.770462 15.222301
3.531075 8.530694 18.434836
16.820401 5.902343 14.355146
4.906524 6.033460 0.000000
18.722797 0.622169 11.193704
2.318065 6.125847 0.000000
12.429169 0.000000 8.315714
13.125885 6.057525 20.000000
6.494452 7.721424 0.000000
11.326609 9.660035 16.766669
15.199990 7.627955 2.542475
1.224165 6.577562 4.586702
9.690406 0.000000 13.119101
17.258855 5.237694 5.243796
10.345387 9.857869 7.521980
16.864968 5.838571 0.833636
3.602649 8.354283 0.000000
1.373808 6.750119 12.077461
14.217957 2.702083 20.000000
0.093442 5.008280 13.714972
16.862140 2.465412 0.000000
4.491282 2.457960 14.048935
2.930679 8.129094 8.986299
8.221133 6.055138 0.000000
11.239544 0.000000 0.510347
15.475760 7.398071 15.435739
15.595606 7.285142 10.672070
15.147440 0.000000 0.674197
15.366108 0.000000 7.879872
9.889323 9.930102 12.830366
0.306987 5.350236 10.326947
9.471499 0.000000 3.761463
18.368123 2.690554 7.292946
14.824558 0.000000 5.544812
8.440243 0.178026 9.215927
6.918641 1.056524 18.885426
12.592148 4.524754 0.000000
18.160079 0.000000 16.022482
4.897553 2.223399 16.097439
3.902988 2.797612 10.429969
8.079182 8.327003 20.000000
8.970893 9.993109 7.460772
3.047820 3.291343 6.747591
2.669057 3.510022 10.747604
4.165847 8.887603 18.955614
17.706789 0.000000 13.464681
16.395424 0.000000 11.691766
8.476034 9.990862 7.645480
9.120247 6.342416 0.000000
4.143513 8.875885 18.070091
17.749902 4.347341 17.282101
2.361576 7.690385 14.975295
1.349694 6.725090 7.009919
8.240061 2.678905 20.000000
18.013963 3.751344 11.140135
1.972926 7.348031 1.009975
6.373605 4.766469 20.000000
13.312193 0.000000 18.014248
1.216403 6.570222 14.146079
12.217098 0.000000 18.313552
1.134875 6.474162 18.846837
6.171097 3.033493 0.000000
18.248166 3.121249 7.526589
15.549201 0.000000 14.232184
3.247618 3.175990 2.537180
17.448919 4.929201 12.558375
1.276481 4.314026 13.946613
8.072353 2.244850 0.000000
13.451894 0.000000 7.091982
2.467617 3.626323 0.774835
9.215131 9.981578 9.450033
1.140089 4.719971 0.000000
12.059216 0.442255 0.000000
17.762804 4.310563 5.322915
14.472003 4.790273 20.000000
5.223985 6.751384 0.000000
14.617740 0.000000 13.172956
12.898735 0.000000 15.609723
2.563890 7.847498 6.946216
13.344448 0.000000 2.210706
5.966488 1.606249 0.382046
4.450829 5.402057 20.000000
9.077499 0.000000 5.418944
11.583938 9.584961 14.589636
9.777548 0.000000 1.532598
13.855122 0.000000 17.418716
7.778007 5.372049 20.000000
10.739588 0.000000 7.316603
13.756033 8.655845 12.750519
11.298881 9.659610 6.005487
10.412204 0.000000 8.163114
4.731816 9.157543 12.880609
14.321410 3.391714 0.000000
16.793368 5.938397 16.449080
16.678939 6.078038 6.656439
11.984487 9.458881 12.047539
12.786277 0.000000 2.913277
4.812501 2.272504 10.275091
3.030719 8.194060 7.308485
3.695029 2.917677 9.442137
8.326024 4.641908 0.000000
13.448952 1.916145 20.000000
0.890577 6.173809 19.040436
18.334367 2.811230 1.802167
15.708177 7.173554 11.787163
15.309380 6.301904 0.000000
17.769552 0.000000 3.163413
18.137368 3.434495 18.501828
12.335846 9.320634 1.950063
17.588417 4.658715 13.300426
1.938526 7.320443 10.165686
18.276901 0.000000 6.543757
18.543637 2.003468 2.267177
15.715705 6.311542 19.912414
11.677596 0.000000 13.889551
11.808103 0.124084 19.480992
2.248320 7.597340 18.112433
8.842364 9.998384 6.494846
7.722739 0.592277 12.518511
6.168854 1.489414 5.394873
14.209398 0.000000 7.459471
8.448800 0.173086 2.498085
17.172139 5.375572 8.633356
6.865378 8.518308 0.000000
10.636758 0.586857 19.906670
14.585580 0.000000 8.530557
4.270915 4.566148 0.000000
18.445170 2.405861 10.242038
18.150921 3.396178 14.865027
3.764019 8.668694 17.410429
12.081034 7.623899 20.000000
0.421411 4.807701 17.132095
2.089102 5.153772 0.000000
14.476006 8.190244 9.185260
6.079957 8.425686 20.000000
9.968121 0.000000 9.549416
8.053032 9.970339 17.413213
9.206239 9.984633 13.507857
3.550377 3.001192 18.747334
16.891904 5.800901 3.802479
12.947042 4.168006 20.000000
16.374732 0.000000 9.280466
12.473590 2.547699 20.000000
10.746163 2.064245 0.000000
11.851704 9.506268 17.010070
17.487899 0.000000 13.648984
15.342241 7.515894 10.329718
14.558045 0.000000 3.657062
0.738137 5.976517 0.962322
7.977627 5.387588 20.000000
9.523991 9.963059 5.793087
18.699074 0.986297 18.584329
5.727699 1.744114 11.133990
13.466714 8.805436 1.926182
11.438156 9.623087 7.095603
5.313850 1.983050 7.937424
15.038871 1.867657 20.000000
4.565823 3.993748 0.000000
6.525948 9.745556 3.415669
3.339306 3.123053 0.322626
12.466376 0.000000 1.003716
11.994528 3.937422 20.000000
10.463478 9.444221 19.799391
5.193751 9.332351 0.369288
13.183543 8.422884 19.849063
18.431615 2.451093 4.698246
15.289570 3.745873 0.000000
8.170911 4.236844 20.000000
10.187745 9.882837 6.723587
10.711716 0.269984 19.679669
6.459803 3.587214 20.000000
11.912161 0.000000 3.375336
6.676225 9.782824 18.914919
17.520730 4.792247 17.032016
2.900125 4.807799 20.000000
1.167404 4.377002 7.987078
9.185315 9.985599 13.302831
7.468415 0.739111 1.500714
6.937752 4.430560 20.000000
16.758816 5.984478 18.013420
10.739433 3.580666 0.000000
4.365895 2.530352 5.359845
10.810402 6.070353 20.000000
2.090945 3.843795 15.568736
12.161229 9.391318 11.115496
12.378706 1.214780 0.000000
9.012818 0.002762 19.063264
1.410047 6.787733 7.811378
18.669594 1.209134 2.476804
3.314033 8.378221 9.456497
17.796979 0.000000 12.172540
7.552629 0.690491 6.010325
12.062255 0.000000 14.693506
8.138969 0.351967 9.490890
12.403032 0.753894 19.966317
7.807438 9.952698 8.424224
3.970568 8.781698 11.282765
7.308455 0.851247 19.182407
4.457866 2.477252 1.311084
18.315925 2.881870 3.680522
6.314015 7.495606 20.000000
17.897191 2.622999 19.849938
17.658778 4.516476 7.103107
8.808984 0.000000 11.007078
10.124285 0.000000 15.959158
17.562728 4.708480 13.082706
14.721960 0.000000 5.312244
15.599269 1.207613 20.000000
8.939310 9.996713 18.717377
10.712803 5.889821 20.000000
14.872440 7.604035 0.000000
18.641029 1.448598 15.861740
15.281840 7.562181 3.120859
15.829273 7.053851 17.562034
2.764796 3.578472 19.444380
11.187035 5.454999 20.000000
4.315606 2.559387 6.484052
0.095330 4.995964 6.235956
1.328046 4.284255 15.378320
16.201389 6.664946 5.481598
10.663943 9.808384 4.031722
4.873211 2.237453 18.768051
1.537494 4.187349 19.198928
13.909981 2.858933 0.000000
11.824045 9.514863 9.289251
16.646252 6.124894 12.649057
12.154453 3.989228 0.000000
2.651621 7.919154 13.555214
4.542108 7.265587 0.000000
16.693849 6.065283 10.670789
15.373268 7.485906 0.569806
4.719691 5.829086 0.000000
7.087635 0.958955 16.543754
3.645287 4.145704 20.000000
2.108803 3.833485 0.364335
9.475299 9.967426 15.911853
11.319155 8.753994 0.000000
13.147817 5.033909 0.000000
7.808285 0.542887 18.644698
10.901138 0.000000 10.071403
12.820037 0.000000 4.835909
18.424065 2.493009 15.459973
10.345455 0.000000 2.407440
14.026563 8.480846 4.279090
15.102770 0.000000 0.317322
2.140349 3.815272 1.880630
18.057736 3.644587 14.754878
3.251813 8.337641 1.380232
9.137247 9.990991 18.633096
8.127077 0.358833 7.772982
8.409846 1.151650 19.985075
10.437752 1.664927 0.000000
14.663334 8.061505 11.166551
3.828974 8.701259 0.061054
0.451788 4.790163 10.712536
18.180407 0.000000 4.238325
17.027213 5.606374 15.484624
8.386776 9.989964 13.261900
16.148978 2.460409 0.000000
1.969487 3.915054 19.027232
14.006333 4.550594 20.000000
13.931674 8.547115 10.970112
2.717227 7.970357 9.868143
16.215542 6.644078 0.000000
12.186927 2.540629 0.000000
8.776117 3.812168 20.000000
17.484264 4.858599 9.044935
8.205708 9.976404 7.214054
14.150610 8.403037 11.475201
2.870722 3.393590 2.666430
9.433723 0.000000 12.143001
15.709198 7.177943 17.929486
11.789978 9.524809 8.143092
0.220898 5.215085 15.640936
0.228217 5.226961 16.800651
15.667438 2.166394 20.000000
5.284455 6.245024 0.000000
16.741205 6.007966 13.111357
15.989737 6.291292 19.801267
13.834168 8.609528 14.084669
11.570260 6.897689 0.000000
5.533716 9.468859 18.526853
6.033350 9.619277 11.101575
0.408533 5.496653 2.742865
9.454059 0.000000 11.835287
18.440742 0.000000 7.401507
7.791085 9.950341 0.775194
18.740949 0.208927 11.513241
5.085060 2.265139 19.492172
11.503259 9.608418 10.896910
7.734409 0.585540 0.652458
8.429738 9.987183 5.784678
15.585044 7.288272 2.233820
4.549826 9.071967 4.344130
17.924173 3.970397 18.072870
7.257196 9.876953 11.980174
13.311190 0.007324 0.000000
10.010475 0.000000 6.920675
6.801973 1.123882 5.018510
12.089945 0.000000 15.867413
17.348276 0.000000 9.070463
14.317763 1.605561 20.000000
11.971177 9.462623 7.826877
8.969633 2.965587 0.000000
17.413425 0.000000 7.454196
10.937900 0.000000 4.750706
13.346617 6.766487 0.000000
17.811907 0.000000 10.483476
18.348012 2.790756 18.884747
11.344408 9.654891 16.263935
15.491893 7.383055 9.395084
14.376116 8.256025 12.709771
18.318436 2.882544 8.877852
8.408296 9.983451 1.908922
16.706755 6.052598 12.860144
1.250353 6.609657 3.543292
10.243775 4.065942 0.000000
14.322410 0.000000 4.287326
16.922399 0.000000 10.712563
5.947134 6.477644 0.000000
4.653298 2.446780 19.368730
10.872554 9.770896 5.313106
3.036871 3.297665 16.828999
7.921121 9.959473 4.218337
10.359800 0.000000 16.645171
11.603359 9.579291 9.546711
15.052002 0.000000 8.492644
16.750751 0.000000 2.906736
6.996306 1.011683 9.230237
3.665264 2.934862 18.587676
10.287625 0.962068 0.000000
5.460205 6.960711 0.000000
0.794039 6.059519 16.795027
1.350507 4.271288 14.673456
9.205502 3.948731 20.000000
4.369887 8.985728 16.607481
17.954641 3.891783 4.132586
12.992219 0.000000 17.331912
3.132841 3.550360 0.000000
2.562190 7.779366 19.322815
11.224629 4.482501 20.000000
13.832291 8.610354 7.633019
3.355468 7.287557 0.000000
9.131385 9.988262 13.047207
11.868510 0.000000 15.517068
18.007066 0.000000 12.303188
3.829418 4.368262 20.000000
12.253874 3.578263 20.000000
15.923512 6.956449 10.846711
6.874979 9.818056 9.227759
18.719003 0.634485 6.017481
10.929692 7.526968 20.000000
6.182682 2.768000 0.000000
7.675386 9.942184 10.380600
15.933702 4.195320 0.000000
1.740302 7.123532 9.701513
6.553286 9.753805 14.795611
4.823509 9.194803 12.675928
18.715028 0.738778 8.468009
0.948338 6.236562 2.960694
17.695156 4.440723 2.676215
10.501928 0.350996 0.000000
13.787540 8.637168 5.211414
9.335026 0.000000 5.519532
18.737437 0.304886 14.995295
14.549811 8.140594 2.536479
8.840833 0.000000 18.747130
3.837110 7.876550 0.000000
16.456882 6.349437 3.452292
6.434963 9.724395 7.746122
0.891098 6.169482 9.603200
11.563102 9.587487 4.189919
2.897963 3.377863 5.306476
18.577368 0.000000 2.494753
18.532785 2.064009 3.442965
9.835761 9.938585 3.373838
15.280586 7.569207 18.146801
18.565653 1.881189 7.308297
12.698878 0.000000 11.324183
18.269287 0.000000 2.984229
10.073167 0.000000 3.683169
18.306114 2.931408 9.726939
7.156211 0.933878 0.000000
11.037468 9.716534 19.150067
11.087319 8.279555 20.000000
1.821741 7.200555 4.978101
9.246241 0.000000 2.243535
9.141059 8.537244 0.000000
3.140480 8.265340 4.961322
6.711204 9.789814 4.258071
13.299896 8.902435 16.776701
6.455797 7.195324 0.000000
11.590192 0.000000 4.238743
6.139605 1.506300 13.245378
9.548384 9.962332 16.558692
1.123840 6.454836 9.549154
18.186396 3.295884 17.667546
8.888154 9.485681 19.867889
10.125866 9.897148 17.737136
7.023373 9.840484 9.603977
17.186696 0.000000 4.066323
16.910280 0.000000 5.783376
13.711462 0.000000 0.398286
12.258428 9.356027 16.548631
17.740949 4.357948 9.888282
12.416224 0.000000 15.118821
3.275344 8.360867 18.184951
9.409428 9.970960 8.766897
6.506677 1.294371 3.461122
17.524914 4.781071 11.574918
11.779189 9.516292 19.111805
4.748766 2.309301 7.493208
7.124557 8.607495 20.000000
5.712853 3.279873 0.000000
16.379123 2.007051 20.000000
8.418780 0.774693 19.868941
16.941382 1.545071 20.000000
13.997222 0.000000 7.503278
17.910306 4.003911 7.582058
9.697623 0.000000 12.408777
10.649945 1.508533 0.000000
14.113624 8.426060 9.498932
14.008372 8.501741 18.473218
15.053601 4.919136 0.000000
6.687428 3.611605 20.000000
18.470575 2.312640 11.890914
2.535337 7.828398 15.008190
14.713712 8.020495 1.129730
12.336627 0.000000 17.071545
5.669572 1.777674 3.584883
7.857391 9.954325 1.532075
18.725179 0.530798 7.237657
13.783969 3.888732 20.000000
13.640357 8.719175 18.563579
5.880885 9.573787 4.861508
13.144031 0.000000 5.951561
9.413747 8.446628 0.000000
2.867717 3.395326 6.194320
13.737402 0.000000 1.466735
6.321291 7.843765 0.000000
11.938417 0.000000 17.737384
0.548780 4.734165 8.558784
13.793151 8.633842 17.703073
1.756819 4.036703 9.592086
10.371910 0.000000 5.151921
13.914454 0.000000 18.207438
18.033022 3.685507 3.095883
14.470951 5.692579 20.000000
12.877475 3.723146 20.000000
3.850321 7.011271 0.000000
7.092666 9.848728 1.216482
13.116608 0.000000 13.258368
11.667574 9.560544 15.544014
5.929447 9.589217 8.114861
18.738343 0.280120 11.773483
16.639579 6.123825 2.351914
12.962925 3.906953 20.000000
17.346671 5.100412 4.399702
4.026265 8.803484 2.193837
12.008012 9.447892 5.561223
17.589946 0.000000 12.815813
17.475258 0.000000 17.094176
9.713564 2.389891 0.000000
16.992591 2.037373 0.000000
4.559374 2.418647 11.233567
12.545242 3.186727 20.000000
16.956378 0.000000 12.816095
4.998767 2.164963 4.580418
14.955163 0.000000 15.767207
18.728349 0.000000 2.254573
5.875930 9.574564 12.119569
11.811878 9.518415 13.922337
18.269083 0.000000 17.957932
0.467074 4.781338 8.110728
11.526001 9.601163 9.306032
7.533158 5.745772 0.000000
1.688217 4.076310 18.534462
14.764494 4.153433 0.000000
15.096855 0.000000 18.524062
7.950659 9.962986 14.432820
8.389661 0.207230 5.066954
8.597640 0.087153 1.935959
0.599723 5.580803 19.468896
18.505597 2.183346 13.352114
1.660018 7.035662 1.586257
0.460911 5.592032 16.395491
4.735405 9.157066 2.049242
13.227024 8.926239 0.287059
18.205246 0.000000 17.505516
16.086007 0.000000 1.420483
18.471689 2.305158 8.447903
9.645762 3.323646 20.000000
16.905528 5.776412 1.065078
18.673321 1.200258 5.794528
1.525297 6.904605 5.504976
1.338055 6.713009 3.385396
12.246862 0.030710 19.244764
0.779174 6.027650 2.910080
1.934658 3.934028 3.189446
7.214646 2.357129 20.000000
12.625947 0.000000 16.202571
0.090479 5.003471 8.986441
11.972759 8.755886 19.939743
17.580274 0.000000 0.775841
17.757834 4.322349 7.388115
3.634979 8.592582 17.080526
1.000196 6.301064 4.930625
13.408876 2.331229 20.000000
16.354067 6.476403 7.237253
17.179223 5.356748 2.460914
15.480278 0.000000 16.742765
10.618129 0.000000 9.850161
14.601667 8.108011 9.704974
8.194940 9.220897 19.967001
0.882946 6.161854 11.711950
2.019233 7.394593 1.283337
17.500455 4.825300 5.721822
13.869705 0.870226 0.000000
18.062161 1.654234 19.883998
16.251310 2.026836 0.000000
4.537146 9.066165 17.924674
7.674166 9.942051 15.262821
1.316509 6.690595 10.662138
18.728061 0.414151 1.926283
4.212555 8.909141 15.658096
17.505513 4.819814 13.483615
16.769028 5.970859 16.226520
4.621199 9.106587 13.841425
17.545789 4.733380 2.176910
4.361186 8.978689 7.904172
5.241532 2.024803 17.042285
16.617137 0.000000 5.834490
17.747595 4.349532 14.587543
5.435947 9.432882 18.341869
15.887633 0.000000 15.705616
10.183838 4.174034 20.000000
0.859753 6.126899 1.814680
15.895387 0.000000 5.007211
14.522099 0.000000 2.396596
7.401668 5.045473 20.000000
9.832745 6.540683 20.000000
17.261225 5.238401 9.654456
2.756818 4.328272 19.966143
7.292274 0.840807 10.442835
13.116638 8.989783 9.318798
9.248825 9.974853 1.674950
17.836090 4.106705 19.202672
3.281546 3.156401 2.154569
15.918706 6.961416 16.933665
14.922395 7.856246 6.530875
13.275849 0.720591 19.957634
4.273395 2.583757 1.413733
2.545251 7.836136 12.837122
1.854070 7.235169 7.421857
9.037187 2.766091 0.000000
13.185900 0.000000 8.940080
0.434558 4.800111 1.343044
12.752438 6.105046 20.000000
12.661378 0.126535 19.485698
0.648281 5.863175 14.680954
1.308030 6.680798 3.187657
13.376283 8.855515 6.879112
18.732266 0.446193 18.501494
13.903244 0.000000 4.224977
18.301787 2.943118 7.450298
8.093424 0.378262 10.647096
13.854732 0.000000 9.563200
17.491332 4.849915 18.067481
16.261043 0.000000 3.536280
4.894846 2.224962 10.074211
4.237753 8.911451 2.454366
12.536175 9.249914 15.629460
1.457414 6.836897 9.638914
0.990168 6.296956 16.811357
11.903772 4.053121 0.000000
13.992858 0.000000 6.219695
13.240425 8.930943 14.556460
11.430642 0.645609 19.934131
18.067779 3.621439 16.253114
14.991286 0.000000 4.122996
16.698196 6.059476 10.206556
5.025631 2.149453 13.440270
1.468403 6.848303 18.606894
17.292570 5.187781 12.110032
2.732800 7.976506 19.058066
18.699380 0.982865 8.585244
13.660815 0.000000 14.452587
11.463366 0.000000 3.777475
16.936373 5.737237 12.239461
17.228735 5.290870 11.128467
7.218918 9.869424 4.995723
17.444248 0.000000 13.919678
4.509995 5.048501 0.000000
16.962205 0.000000 4.132526
4.901662 2.221027 5.477240
17.256060 5.246743 12.946066
2.517426 7.814419 14.785785
3.950731 8.770845 14.130020
17.591370 3.771284 0.000000
7.833419 0.528376 10.952761
9.609420 8.629657 20.000000
10.452585 9.509374 0.000000
10.006233 0.000000 1.786301
11.123264 9.706602 5.916837
1.773774 4.026914 0.949597
8.145516 0.348187 8.143058
8.628447 0.069366 12.443361
6.393243 9.715689 18.637169
16.712811 6.035299 4.999532
18.453048 2.385906 17.162305
3.668279 7.245930 0.000000
11.364134 0.000000 18.245357
13.799646 0.000000 4.649258
17.661676 4.509033 5.319924
14.020669 8.491002 14.699201
7.129877 0.934566 10.166056
17.677779 4.473577 1.405314
7.294832 0.839330 10.232283
4.738413 9.157784 0.891429
3.025427 3.304272 1.749385
8.863593 5.800327 20.000000
4.155655 6.833813 0.000000
6.087684 9.633025 10.010255
11.697369 7.278570 20.000000
0.735137 5.980615 11.896098
1.442441 6.821356 17.956877
18.323952 0.000000 8.528101
8.031652 2.525097 20.000000
7.607923 9.932558 13.207411
9.163389 0.000000 15.937552
11.180489 0.000000 16.703792
11.407105 0.000000 3.406612
2.341552 7.026570 0.000000
6.424724 9.722174 8.450138
4.905581 9.226669 13.326855
7.133091 9.855433 2.848182
6.996992 1.011288 5.463354
12.122438 8.622725 19.961606
10.158185 9.889209 13.550770
11.815107 0.000000 15.841897
15.400563 5.335707 0.000000
15.579244 0.000000 0.988350
0.714672 5.953201 12.167609
4.054839 2.709940 1.821676
5.906911 1.640646 15.530599
7.724174 9.946718 12.223456
13.361493 0.000000 14.368719
0.607434 5.804066 4.362989
1.048098 6.363751 13.709797
16.104416 5.192408 0.000000
8.324035 9.989249 17.085273
14.291299 5.879998 0.000000
4.188104 6.722614 20.000000
14.282897 2.819680 0.000000
6.876835 1.080660 9.648891
5.373364 9.404649 8.283065
12.409191 0.000000 7.265695
18.723116 0.588125 8.784470
7.758996 9.948363 0.334680
10.579620 9.820770 1.859583
16.576143 4.394456 0.000000
6.942501 1.042748 13.673346
12.402734 9.296499 5.360553
12.704159 0.000000 18.920610
14.313074 0.000000 16.895727
2.787561 8.025250 13.833246
17.168810 5.371850 1.734646
2.998573 8.173185 14.688669
3.905215 6.170852 0.000000
2.800020 7.499070 19.815113
7.044706 8.330085 20.000000
18.469702 2.310523 6.327132
7.597791 8.279947 0.000000
12.729289 6.705985 20.000000
7.652799 0.632657 13.474842
17.697468 4.448141 15.448847
5.333375 1.971777 3.407566
8.154939 9.712025 19.673649
15.432668 7.437702 11.238870
11.087919 9.720085 14.189671
11.489206 0.000000 12.210692
2.911711 3.369926 3.487531
12.642962 0.000000 6.651466
15.019504 0.000000 14.794313
9.671910 9.953721 10.119531
2.615920 7.886487 3.188148
15.211363 7.629064 17.306763
15.664535 7.213817 7.950779
8.009725 0.426586 7.144408
10.615597 0.156306 19.535057
9.810267 7.847720 20.000000
6.685213 2.932666 20.000000
17.412026 0.000000 12.018295
11.927661 5.304299 20.000000
0.958081 6.248704 3.426277
7.469987 9.909551 6.943146
8.364531 0.221739 10.009029
9.731640 0.000000 4.409730
5.468679 8.920983 19.856661
12.441670 8.955313 0.000000
5.270702 9.366193 10.532573
10.862332 9.773308 5.967347
16.771469 5.960955 0.404873
17.497102 0.000000 0.370154
12.907867 0.000000 15.367447
5.760538 8.067417 20.000000
8.601835 0.084731 12.763007
10.484738 9.839849 11.050757
6.210867 1.465157 14.801617
13.933362 0.000000 1.420697
3.392070 8.428725 4.269424
18.705516 0.914049 16.134188
1.878167 7.261629 9.949142
2.031567 3.878077 10.407935
9.214418 9.058075 0.000000
2.547846 7.829824 1.350950
9.257904 0.000000 12.042366
0.788673 4.595662 8.943947
15.694006 0.000000 10.943747
5.375516 1.947447 10.063919
12.046432 0.000000 4.243249
18.596205 1.673060 2.605318
6.726621 9.792894 9.779652
12.084726 0.000000 15.492896
14.625921 8.090548 0.710082
15.593058 7.288896 12.728971
14.543107 8.147220 11.319076
14.695289 7.786334 0.000000
18.639737 1.459927 16.579141
4.621950 6.052001 0.000000
18.345050 2.787816 12.150464
17.658412 4.522661 13.073508
8.520154 0.131889 11.062230
5.381007 9.407237 7.466356
8.512137 9.989335 2.565583
11.330494 0.000000 15.317899
7.941570 6.128900 20.000000
12.397671 8.718715 0.000000
18.597840 1.702157 18.148204
6.109307 9.636112 6.368154
1.944766 3.928191 1.964655
9.914563 9.926104 1.978413
5.737053 7.696927 0.000000
18.395513 2.581477 0.194034
10.769648 0.000000 17.098936
14.440787 8.215697 17.346164
9.482551 0.000000 12.480253
15.359269 7.498863 2.416543
1.738938 7.113281 0.195551
4.596174 9.092237 0.148106
17.548347 0.000000 9.046385
6.087085 1.536623 5.933529
18.402231 2.558258 2.111995
16.521115 0.000000 3.483048
8.190385 0.322282 7.476595
14.012417 8.493364 10.272295
18.194187 3.273858 13.947031
1.799623 4.011990 3.348383
18.354706 2.753888 13.546343
4.188912 8.888050 4.316392
10.299228 1.165273 0.000000
3.309574 8.383064 17.498738
10.221902 7.280741 0.000000
12.694490 5.474348 20.000000
16.852447 5.858141 13.757731
5.319081 5.630475 0.000000
18.268787 3.059416 11.832017
7.257703 9.876142 8.097271
14.445905 0.000000 13.023779
18.104164 3.508976 7.469035
17.596214 4.644165 14.358643
5.499759 9.451283 3.833661
5.666249 1.779593 12.531007
4.822793 9.191016 2.878035
0.760741 6.014914 14.338593
12.744939 9.166287 18.573098
