9.664880 18.376658 57.403354
30.817193 14.905136 21.564712
36.968826 4.462369 42.313254
2.903669 13.647216 66.928659
1.825187 9.048234 26.144424
29.868977 0.000000 73.768379
23.615839 0.000000 15.027821
25.420846 1.707186 99.975402
12.591856 2.832094 38.802864
7.608408 17.359310 7.532764
35.009516 0.000000 10.928538
1.225269 11.620827 85.810991
1.685271 9.129014 62.555306
30.699351 14.990077 0.997799
24.700975 0.000000 60.564661
15.010748 1.435546 70.310751
0.238470 10.097172 36.507586
7.507023 5.767824 26.198173
19.607977 8.466758 0.000000
36.502898 6.110026 0.435752
37.401377 1.744149 64.941502
13.096892 2.540511 40.013460
25.854977 0.000000 77.379500
36.943709 4.616785 91.881618
30.585084 7.716551 100.000000
25.861893 0.000000 28.517128
28.138668 16.920666 68.922904
36.247397 0.000000 10.497170
29.484820 15.985524 40.160801
4.409664 15.062689 30.957911
0.809096 10.944622 6.330217
6.673265 16.794257 56.576186
37.300061 2.791106 13.401165
29.597161 14.449323 99.793026
29.445771 0.000000 62.941028
13.898610 2.077639 22.539830
30.985058 0.000000 37.012103
37.318563 2.656041 43.636265
7.456780 17.265359 11.356509
17.133967 0.209705 22.620147
23.511202 13.119668 0.000000
37.235800 3.165038 89.540400
27.505374 17.294241 91.315932
10.710188 18.801403 11.159100
2.965272 13.712705 84.476829
4.491672 15.132146 30.435325
1.564774 11.719866 98.859427
23.386880 0.000000 52.065430
21.313615 19.632134 14.696461
22.066161 15.072128 100.000000
26.434668 17.891546 78.928969
29.388733 16.072311 89.154363
32.374466 0.000000 47.311558
26.649677 0.000000 77.230761
0.467280 10.456996 90.702075
27.951920 0.000000 43.581241
33.807452 11.528149 43.248259
16.485840 0.583901 91.287240
8.414265 8.450345 100.000000
16.785247 19.968444 67.871844
22.679678 0.000000 41.257890
26.342689 17.933359 60.561777
29.261326 6.425189 0.000000
24.260162 5.451089 0.000000
31.920373 13.787174 41.146583
3.109759 8.306586 33.149796
11.030185 3.733725 18.358699
28.663903 16.577696 10.547389
24.284405 18.698876 98.610139
34.810993 0.000000 83.670666
5.693353 16.142973 61.575224
9.845905 4.417470 30.983500
30.886976 0.000000 19.608290
13.273020 19.544029 36.235189
36.504519 6.166308 75.367514
9.776353 18.413007 11.442651
7.795888 16.818409 0.000000
13.939790 11.955423 0.000000
4.270286 12.960935 99.917854
24.712704 0.000000 33.829673
5.424340 6.970262 29.990090
17.503598 19.958709 11.892216
8.861356 5.072571 98.539823
22.003806 10.980114 100.000000
20.937239 19.697818 60.148526
25.008927 12.473867 0.000000
18.103701 9.540053 0.000000
33.733576 4.601859 0.000000
19.717102 19.841278 27.321959
18.535498 0.000000 14.715041
3.561406 14.344251 76.101649
24.545494 0.000000 97.590259
4.772238 7.346753 21.522140
25.135894 0.000000 73.693888
10.685555 18.791449 3.737693
20.226905 0.000000 59.429667
2.777798 13.506861 52.556870
8.240944 17.724769 68.766609
4.686416 15.320344 81.344767
10.156116 4.238369 8.497591
15.356454 19.874219 41.227324
26.355680 13.202623 100.000000
6.124560 16.434903 45.836565
25.373376 18.348029 74.925669
3.475429 14.255046 30.505497
22.499137 19.348896 66.222708
21.424959 19.607772 17.676839
6.803588 6.173952 45.870713
1.359206 11.773622 20.800585
7.482984 5.781703 48.931383
11.067419 13.818670 100.000000
1.596629 12.124541 29.613352
34.335147 10.779734 93.757569
5.832659 6.734518 41.934468
37.461297 0.708027 92.874867
5.811880 6.746515 26.679936
20.429583 19.754702 32.858153
30.428522 0.571418 99.394250
33.641940 11.782059 90.816835
16.240281 16.420823 0.000000
8.940112 4.940430 43.711045
35.726389 8.208055 45.229172
23.418225 0.000000 72.847215
9.024967 18.072261 14.288569
37.466497 0.605441 54.272407
33.171018 0.000000 5.345479
35.172563 9.295206 42.145473
3.727184 7.950115 43.899701
11.174702 18.950201 80.933599
26.187419 18.003545 88.291141
21.265711 19.640494 51.828281
15.664046 1.058364 44.862681
0.722700 9.684755 68.522332
1.302480 9.396160 98.390417
11.938810 3.209131 82.235841
25.844070 0.000000 84.073583
32.651458 13.026808 36.741483
8.978621 18.056226 25.682833
7.156858 7.513508 0.000000
12.836376 19.435863 15.063530
32.812563 12.860748 80.400334
22.503115 0.000000 96.779314
24.191813 18.839961 28.702294
0.421753 10.385401 73.302849
30.781811 14.935034 47.327206
5.020475 15.580020 4.234763
33.884690 1.935550 0.000000
29.100430 6.848161 100.000000
3.499132 8.081781 82.332585
20.767386 0.000000 8.111177
17.739452 0.000000 62.687001
27.307168 13.102212 0.000000
34.155434 11.054354 69.870244
23.927783 18.935422 84.830423
37.343082 2.447308 39.078261
36.146015 2.136893 99.833941
15.557201 19.897805 91.639762
12.560672 2.850098 87.364020
16.454023 19.945027 14.122057
21.504896 0.000000 87.673865
15.241049 18.286460 99.943644
35.877240 7.853888 26.384552
23.884393 18.948479 56.025816
26.271728 17.967257 84.184346
26.273890 17.956940 27.662361
24.800101 18.593559 72.485071
37.168166 3.558600 96.920295
16.541261 5.615861 100.000000
37.339406 2.482513 79.728511
27.182525 17.458030 5.923842
25.207964 5.186800 100.000000
18.572237 0.000000 1.830550
25.771783 18.094910 98.542258
17.574826 0.000000 34.407275
15.363074 19.866238 16.843566
21.358848 0.000000 30.637047
2.816592 13.553288 57.217240
8.203054 6.803017 0.000000
32.918177 0.000000 55.850888
30.506830 5.110508 0.000000
30.017154 15.544286 14.591887
30.205837 15.415062 51.847263
2.741582 8.519153 62.497953
35.495947 0.000000 19.584099
16.620755 19.956702 40.855940
9.968703 18.507386 43.385830
16.285691 19.946202 24.085407
29.749037 15.766497 27.429427
21.788856 0.000000 31.639958
37.264376 2.998758 66.116444
26.646708 0.000000 30.565154
21.554615 0.036965 98.377001
26.602673 0.000000 2.404914
11.085548 18.920886 52.398233
14.841925 17.493809 100.000000
6.071186 6.596805 68.360631
4.104599 7.732214 27.372530
7.567135 5.733118 4.758283
19.143249 0.000000 17.773137
10.854935 18.848679 51.108431
28.157442 0.000000 13.293984
8.337815 17.753675 1.198904
14.680256 18.645557 0.000000
36.704481 5.569756 58.441320
13.794559 10.738028 0.000000
10.909969 18.865102 35.211893
32.426223 13.252646 3.278235
28.971273 0.000000 69.489900
36.151834 7.093204 63.276799
20.488935 19.769376 87.552992
16.312264 0.684116 62.900005
36.659464 5.700996 31.998271
30.715060 14.991441 90.838775
20.711273 0.000000 80.568551
4.475336 7.518169 57.520113
3.319918 14.089724 90.123224
20.220477 19.779749 30.337212
11.985727 3.182043 42.498798
29.794525 0.000000 57.063313
7.514043 17.319838 78.257097
16.118262 0.874442 98.516133
4.376914 15.059451 91.943356
5.806829 6.749431 12.760174
12.706429 2.765946 10.324757
24.686128 0.000000 93.482226
28.351003 0.000000 3.175612
0.797924 9.641324 15.549150
13.178348 2.493483 35.465496
35.775186 8.109545 40.745557
7.695457 5.659031 13.306236
17.215659 19.954513 11.242360
5.710461 16.154555 25.066377
23.161328 19.166080 77.825675
21.806509 19.521077 50.676585
24.678412 18.643263 64.924215
0.882410 11.061448 16.031058
14.287759 11.594008 0.000000
9.211103 18.160018 21.116915
21.309307 0.000000 92.380724
16.252822 0.718434 37.612177
6.248946 16.519113 46.359039
26.341753 0.000000 43.407320
32.799606 12.876162 68.584120
22.920498 19.232314 58.787183
13.114039 19.325702 98.773789
7.685391 11.257401 100.000000
34.100360 0.000000 28.483600
0.193248 10.026056 54.735364
36.130141 7.148993 35.009880
34.350089 10.756902 87.217956
21.279963 19.638007 11.927475
26.840893 17.668684 81.892595
19.108256 19.914432 81.516068
1.813799 12.405720 65.394726
1.420366 11.885457 67.027727
28.033635 16.983618 69.634544
2.195665 12.871101 74.121938
6.554730 16.688372 2.096562
7.546359 17.338609 61.766746
13.999886 2.019168 9.461196
18.324675 0.000000 23.981501
25.165784 1.259010 0.000000
1.701334 12.266564 81.680551
15.277255 19.854988 20.636841
10.577937 18.761513 40.829058
20.926171 0.000000 55.430632
7.005358 6.057460 82.105601
36.728825 5.488095 64.897740
2.422709 13.125351 75.160320
25.966125 18.095241 77.727137
34.689871 0.000000 50.221121
18.325856 2.666405 0.000000
29.031513 16.334246 67.972087
35.943508 7.683938 87.436003
8.976909 18.053146 20.502567
37.072711 3.964758 41.393828
1.944879 8.979129 93.324748
24.458303 0.000000 39.694245
1.330296 11.741463 34.019443
20.251568 1.114904 0.000000
34.794897 10.029670 93.045015
37.465021 0.000000 87.257294
23.464443 0.148377 98.751102
32.286077 12.501131 0.000000
9.747220 6.511505 0.000000
5.307679 7.037616 87.813048
4.405811 7.558309 81.959196
14.606105 19.781460 79.815942
2.924543 13.669407 53.101883
16.192863 0.753052 42.855931
31.977660 9.235994 0.000000
12.092731 8.811619 0.000000
9.174426 4.805148 83.134120
26.732315 17.729869 37.004335
25.591799 2.739068 100.000000
31.865521 0.000000 33.045892
35.295544 9.077829 68.363741
3.678339 7.978316 5.740957
9.413356 4.667202 54.434639
4.354114 7.588157 97.305727
37.017188 4.199948 28.798172
25.378075 0.000000 92.843797
32.179161 7.252403 100.000000
36.582971 5.921160 44.549828
15.230333 19.859401 97.660107
9.651897 18.362576 25.441799
32.777104 12.894721 37.245883
9.894320 18.474494 65.481441
29.687786 0.000000 9.626105
1.923936 12.533595 22.990149
26.069965 18.055504 94.862224
34.044344 11.224110 95.668997
18.875232 0.000000 37.515748
11.795224 19.145113 96.867776
32.221294 5.596828 100.000000
5.740854 6.787522 4.256634
28.530000 0.000000 51.015428
35.279320 4.574898 0.000000
7.206142 5.941538 15.255764
19.907966 19.828664 55.017070
21.857048 19.509593 58.278968
34.472841 10.569323 35.215525
6.843852 16.891245 36.845603
1.021624 11.290116 42.826086
24.621634 18.653383 19.750475
30.765475 14.948839 54.120860
16.632487 0.499235 81.983130
9.468088 4.635602 77.452716
19.208792 19.905714 39.742448
29.358953 16.078952 27.624913
5.376490 15.907326 81.422844
31.318034 14.423660 23.330310
36.959334 0.000000 50.739162
37.406840 1.782286 95.266375
1.420423 9.281924 47.511880
1.482738 11.949296 11.202211
2.550690 13.219607 2.056217
6.465144 16.653514 40.941426
14.323467 19.714040 30.300042
32.789014 0.000000 64.801388
21.982552 19.474264 39.841683
1.700295 9.120340 97.053712
7.583964 17.360452 72.271228
19.454386 0.000000 92.232548
35.245198 9.179466 80.259058
25.089646 18.459866 44.557710
27.913148 9.791857 100.000000
37.370307 2.225247 75.551578
13.062428 19.501193 45.437801
29.573918 0.000000 92.334198
15.175437 19.852951 76.434442
19.970038 19.826544 73.005875
9.404588 4.672264 3.272651
26.004895 0.000000 23.615455
2.693007 8.547197 47.042168
15.664385 19.910399 22.523365
28.100068 16.913698 10.604589
33.101846 0.000000 57.599502
28.193394 0.000000 47.773189
23.365438 0.000000 96.422869
17.407540 19.962531 26.564479
36.173591 7.027884 36.941688
34.731962 10.116449 19.826219
36.331426 0.000000 0.233721
10.203068 7.484208 0.000000
22.708123 19.263353 6.500294
1.232737 9.390285 49.184359
23.868858 18.953154 41.957736
20.349484 19.760510 22.509630
32.634586 8.094879 0.000000
22.939098 0.000000 72.632100
21.473740 0.000000 28.000822
23.361559 19.102479 35.230794
36.040862 7.397833 22.659826
36.752807 5.399973 23.947626
23.340469 19.112169 67.930249
15.943847 19.933326 0.803658
0.755239 10.903344 53.786121
35.434808 8.790978 38.569803
23.020477 19.203708 55.115310
26.360035 16.125451 0.000000
10.610732 3.975896 34.361375
31.790725 13.924171 48.552457
29.763294 1.054722 0.000000
37.329012 2.569048 59.810691
36.125141 7.209683 92.559812
5.380756 6.995425 68.692127
15.019707 1.430373 96.150845
3.278333 8.209259 77.476300
17.190508 19.974246 89.819264
22.898213 19.211118 3.870202
19.743474 0.000000 75.240147
25.557179 18.262844 47.086012
35.164788 5.409168 0.000000
15.107605 19.841439 45.880775
11.615144 19.088548 92.244266
37.073826 3.979334 49.855104
33.870187 0.000000 48.917170
35.749401 8.161599 55.177991
37.285436 2.876210 90.734696
34.792834 10.033199 67.356302
33.117775 0.000000 24.405454
6.430359 6.389436 39.546991
35.371438 8.892174 16.864855
11.966017 3.193422 13.166686
24.118770 0.000000 91.500813
22.492517 0.000000 77.961478
37.328302 2.574955 65.191090
22.233116 0.000000 15.766009
27.458231 17.320806 78.973348
17.426228 19.974267 94.473878
25.990279 18.084924 77.026663
22.434854 19.368785 71.608034
2.459816 13.173524 85.271365
11.931393 19.186381 70.340554
8.035794 17.619115 72.339715
30.230593 15.400825 93.125485
5.027684 14.269530 99.744376
2.092915 12.738639 47.518440
21.551230 2.104582 100.000000
13.687721 19.622001 56.229352
32.850352 0.000000 48.211753
1.609723 12.142303 69.801994
24.529147 0.000000 50.423196
12.661734 19.396259 49.401847
27.157295 0.000000 67.384818
10.282288 18.641061 55.297005
13.415363 2.356642 86.309361
18.229167 0.235281 98.937314
11.801307 19.136347 39.003642
22.758491 19.259947 26.894755
32.806049 4.797467 100.000000
20.228311 19.768190 4.113529
3.623041 8.010242 94.734603
23.726694 18.995938 19.786160
19.860929 0.000000 48.440879
36.539660 0.000000 50.320263
23.472861 19.072326 84.411492
5.171770 15.733315 74.297354
2.845377 13.559376 18.077655
32.177845 0.000000 16.784803
3.427365 14.203949 21.808586
28.322411 16.811294 94.949974
2.489386 13.175540 38.698702
28.265892 16.848490 77.501846
37.185731 3.432701 98.045880
23.012211 3.031471 100.000000
15.996692 0.866311 81.567247
34.694638 10.201247 41.749771
28.842550 16.468987 23.050411
25.145587 0.000000 27.581613
34.303890 10.827497 53.636422
20.500904 18.084853 0.000000
35.678062 8.304746 15.011897
21.701007 0.000000 77.859595
23.743336 18.990929 75.745719
1.792599 12.379820 57.728137
34.427380 10.638792 38.743772
36.098653 7.236757 50.809936
17.501867 2.469039 100.000000
23.405874 19.091589 37.220661
33.299253 12.209594 5.649774
3.319922 14.089728 40.047399
9.240038 18.191669 62.726275
0.893789 11.127723 90.655003
2.865926 8.447363 65.176691
36.074066 7.305286 33.922837
2.115834 12.773153 60.913857
26.546577 0.000000 12.254480
5.758329 6.777433 42.458796
33.380049 11.592083 99.073244
28.480357 0.000000 64.103577
18.776396 0.000000 33.196975
15.190325 1.331867 53.006451
7.614055 12.526575 100.000000
12.285574 3.008926 59.374026
36.848468 4.912233 0.000000
25.341863 0.000000 68.707393
5.364017 7.005089 23.394894
22.037260 14.672311 0.000000
23.925400 18.936139 38.921727
6.753368 16.856477 76.855854
31.892953 13.841397 81.223321
25.718839 0.000000 41.552068
16.782417 19.962639 51.431091
1.117818 9.456633 75.217311
22.301488 0.000000 43.085290
18.644533 6.454680 100.000000
5.886114 6.703656 79.344233
18.566737 13.886305 100.000000
13.399152 19.567744 94.326700
12.218143 19.275167 79.808611
16.858544 0.368721 26.084053
11.631133 4.685950 99.790383
9.346604 18.237632 57.000025
6.967202 10.376722 100.000000
30.966834 14.778687 27.047386
20.789026 19.704348 19.108214
31.024337 0.000000 84.451038
8.593274 5.140677 71.809112
0.695536 9.700438 65.728290
30.908641 14.827861 19.691623
32.818567 12.852399 40.913585
30.990426 0.000000 7.533773
10.325030 18.660238 36.788164
31.556150 0.000000 22.710410
32.607563 13.087551 76.904451
26.423637 0.000000 80.356331
35.456496 0.000000 37.699450
7.203925 5.942818 1.803916
22.408382 0.000000 41.682806
31.225099 14.521864 71.235638
36.351238 6.558566 55.131204
36.202339 6.998002 89.646595
23.215049 19.126718 4.873961
11.708359 3.342181 85.415827
14.438801 19.719018 4.494215
22.852231 0.000000 30.812267
29.415986 0.000000 90.139386
6.890481 6.123784 73.125859
16.063623 6.629793 0.000000
36.320757 0.000000 29.330774
5.759665 6.776662 2.787137
19.754153 0.000000 59.624224
29.884943 0.000000 47.268566
35.839589 0.000000 35.381042
29.066223 0.000000 87.562335
9.822014 4.431263 6.683166
9.466461 18.290412 84.893492
20.196977 0.000000 72.093289
5.246588 7.072887 5.659576
37.035592 4.179877 57.595304
37.354230 2.214065 25.990232
2.968682 8.388036 59.891341
35.757755 8.144734 77.888124
32.091368 0.000000 80.110193
30.416599 15.241569 43.773755
33.520002 11.897012 1.430100
32.092893 13.604873 0.335590
34.118574 0.000000 10.967392
28.163447 16.895640 48.954854
25.042178 9.079507 100.000000
13.337723 19.556194 20.989374
15.683332 17.906000 0.000000
37.414558 1.582811 70.360925
37.411429 1.258875 2.932129
24.532985 0.000000 89.975377
36.689708 0.000000 64.937697
29.718277 0.000000 47.814158
21.810128 0.000000 72.450580
11.676171 19.091191 17.103712
37.364136 2.037657 19.990437
14.908781 13.635872 0.000000
22.056363 0.000000 8.000070
2.818081 8.474986 88.853859
26.794948 1.484047 0.000000
37.470623 0.524047 56.366761
3.202018 8.253320 91.006769
3.542045 14.325863 40.673251
12.009498 12.577627 100.000000
37.066570 4.003457 45.396628
5.761017 6.775881 73.093186
36.934828 0.000000 63.358329
29.995027 0.000000 95.675088
15.262144 1.290402 42.245254
32.510623 0.000000 41.042130
8.753267 16.195817 99.947989
22.589492 0.000000 82.108102
31.891505 0.000000 44.380400
12.436965 19.322886 31.506338
11.208584 18.953093 20.179552
23.248871 19.139735 60.520405
6.732650 6.214908 44.516636
10.916593 3.799308 10.640726
23.304039 19.123132 96.118705
17.174607 0.186242 11.607920
2.729543 8.526103 44.557737
33.720595 0.000000 25.282654
37.496958 0.004544 35.812511
3.748207 7.937977 36.141530
35.911564 7.758218 59.651386
30.033553 15.532715 17.249924
19.404524 0.000000 83.243372
5.105121 15.653242 26.156401
37.447184 0.951152 41.356296
37.437248 1.182437 68.486241
11.969980 3.191134 26.460273
6.809505 6.170536 2.742527
27.755325 9.477472 0.000000
36.680575 5.646445 34.298502
29.735382 0.000000 1.613120
8.587715 5.143886 58.073404
35.915891 0.000000 86.252923
18.698397 19.958899 14.687857
29.337282 0.000000 45.062030
6.656563 6.269472 98.170717
3.588662 8.030091 48.866766
23.500931 0.000000 42.089778
29.011061 0.000000 78.069282
24.526901 0.000000 96.166940
37.432010 1.062358 21.509326
21.854653 19.510137 93.773888
0.344100 9.903340 6.495373
27.723152 0.000000 82.229777
13.957702 2.043522 0.915253
6.806440 15.962867 99.568192
30.631419 15.062119 73.724631
3.354272 9.034642 99.559567
37.384426 1.758941 22.789212
21.819018 19.518234 40.429328
17.637243 0.000000 37.982897
32.212502 13.478483 18.958808
29.992481 0.000000 84.577297
16.863061 19.330844 0.000000
6.112811 16.426949 49.560235
12.946117 11.659194 100.000000
36.899212 4.799336 94.210044
19.911088 19.808099 5.023275
28.019710 0.000000 55.834864
35.847036 7.938074 47.855819
10.596290 18.768300 61.755091
8.262614 17.735930 56.837871
11.126444 18.933064 40.084973
11.463468 3.483569 28.905178
32.823049 12.844694 32.658573
24.412104 0.480138 0.000000
14.222193 1.890819 35.329269
15.967097 0.883398 59.977963
3.686288 14.457177 94.638336
5.620335 6.857104 50.404918
34.473864 0.000000 8.304515
34.827137 9.926061 10.450134
37.330253 2.558711 77.140942
15.060252 1.406965 72.846767
29.226424 16.191325 61.076936
7.089964 17.073505 90.997227
32.495316 13.191637 37.999806
34.338885 0.000000 72.465226
30.880451 14.851682 25.443034
32.800545 12.875045 85.697649
12.839346 19.447428 89.866912
36.790817 5.244033 57.879230
26.235468 0.000000 5.395376
37.471069 0.515262 68.778404
33.844817 0.000000 81.430742
6.816966 6.166229 78.205303
29.348387 0.000000 78.537915
11.991100 6.274674 100.000000
32.924240 0.000000 81.473013
4.159312 14.850652 50.897169
34.932829 9.765127 55.225956
28.878779 16.445145 85.187064
6.206055 6.518938 11.025121
7.473657 5.787088 29.397054
30.861603 0.000000 26.938795
21.679822 19.549862 68.133271
4.327862 7.603314 68.068779
11.598082 3.405850 95.016749
12.216480 3.048817 61.677810
21.294767 19.635423 77.400001
6.638774 16.783029 90.811392
1.816629 12.409178 72.205072
34.161380 0.000000 86.505391
3.558423 14.341725 22.748974
24.109742 18.874007 62.411383
31.395873 14.341408 30.753038
5.106923 7.153522 81.306616
37.389227 2.035670 86.022619
3.621091 8.011368 86.400160
21.110307 0.000000 62.079803
32.033752 13.667367 26.492823
23.796508 18.974928 59.640171
35.517111 8.626817 30.984528
34.819340 9.941498 11.043095
22.408914 12.107463 100.000000
13.731802 19.620830 24.503985
27.306926 0.000000 46.903469
4.139484 7.712073 8.091099
17.622514 3.500416 100.000000
34.837517 9.910600 15.224155
28.904020 0.000000 17.670427
35.570316 8.514848 19.687872
23.574385 19.040324 24.866041
21.657532 0.000000 13.436524
11.086494 3.701215 75.509318
13.523261 15.864309 0.000000
28.541491 16.667116 45.346831
19.974975 19.810949 31.817044
30.666981 15.032069 37.803821
13.846599 2.107668 2.225421
22.648093 19.298134 44.290736
5.815804 6.744250 57.037195
30.512722 11.572773 100.000000
9.421218 4.662663 87.089960
36.749268 5.414493 29.021418
18.881414 0.000000 15.527572
18.630590 19.965627 20.328278
22.208299 0.000000 16.416523
27.652661 12.096384 0.000000
28.131343 0.000000 14.246677
13.239315 19.537692 58.793343
28.287342 0.000000 29.300516
37.348624 2.357640 37.371425
20.997672 19.686137 38.427940
26.943913 17.610631 72.066038
0.997403 11.258766 48.500532
9.131289 4.830053 39.963097
6.803448 16.851044 10.995209
33.720994 0.000000 94.087479
9.026839 4.890358 67.205986
12.503147 19.363813 90.331255
20.236433 19.780601 37.376115
25.073121 18.478848 80.126735
1.189164 11.571853 92.557503
37.090535 3.824956 18.085232
24.722936 18.614536 36.946066
1.865655 12.469072 55.092335
19.036648 0.000000 14.961403
19.809201 0.000000 0.894367
34.865439 0.000000 19.344564
25.722754 0.000000 34.256626
33.245830 12.300596 25.704547
30.773380 14.942159 76.044103
23.016527 19.182683 10.474572
35.497806 8.669509 70.112062
4.782340 14.877812 0.000000
5.514485 6.918216 47.962853
31.346895 14.393163 17.320164
14.395901 19.722250 24.475012
3.204479 13.953431 7.586436
35.397446 8.871878 48.984544
15.334657 1.248537 29.726603
20.869569 19.704316 43.905832
37.477720 0.384043 21.356276
17.814549 19.959711 2.533781
35.269268 4.001270 0.000000
30.177458 15.445290 64.641478
26.800467 0.000000 32.165194
24.492042 10.170634 0.000000
10.939412 3.786133 29.901027
22.769946 0.000000 45.895623
8.745676 17.952489 30.844357
28.580170 16.641661 38.124907
3.390913 14.165197 34.847304
33.623336 11.806614 72.373331
14.929506 19.816285 50.064596
13.879932 19.654755 47.576306
33.508514 0.000000 48.459048
33.987093 0.000000 59.423293
0.590671 10.635115 24.667169
11.424716 3.505943 55.872511
11.781655 19.140694 93.387900
7.764857 5.618963 88.408730
22.252509 0.000000 40.994234
21.932701 0.000000 82.941345
10.941222 18.876042 58.522375
21.788259 19.519910 26.874669
24.209205 18.838491 72.512090
17.030700 19.974432 91.650199
29.291216 0.000000 84.457419
36.097520 7.248910 69.945607
8.702214 17.958014 87.824722
1.448507 9.265710 55.792708
23.374877 0.000000 14.386457
8.460103 5.217563 67.827376
36.979466 4.350147 16.163182
16.169815 0.766358 42.276755
14.259904 15.947721 100.000000
29.675574 4.455218 0.000000
31.791923 0.000000 70.127739
8.702667 5.077519 94.702727
28.037475 0.000000 15.693564
29.951776 0.000000 15.355812
14.191491 1.908544 32.196508
16.046184 19.942189 22.052680
27.644751 0.000000 12.700023
33.091502 12.507712 14.505983
37.417133 1.389137 41.812582
37.494475 0.053534 3.744135
34.477039 10.562909 47.367503
10.063454 18.547986 42.564809
29.104507 5.089558 100.000000
20.427484 0.000000 86.460640
32.589553 13.094622 44.051775
28.747311 16.531665 95.387330
13.858091 2.101033 69.552883
28.463706 0.000000 47.261371
5.594326 16.071479 80.911390
21.884578 0.000000 32.644197
22.326533 19.375284 26.074796
17.668656 0.000000 53.838886
31.577184 0.000000 54.273138
19.099036 19.916003 64.835917
30.470869 4.070357 100.000000
36.612358 5.392177 98.674405
1.037508 11.346457 82.954208
30.742698 0.000000 3.610466
37.430983 1.038046 14.352161
7.589589 17.356890 24.379643
9.782809 18.426596 35.421983
18.266388 0.000000 44.761244
26.274504 17.960506 50.657513
23.654802 8.139794 0.000000
35.334924 8.998331 74.005583
37.404926 1.381271 8.073972
37.395080 1.641878 29.605435
8.027448 5.467356 58.463186
3.917722 7.840108 79.364210
24.828006 4.074488 0.000000
22.536663 15.026401 0.000000
9.185333 18.162234 52.516675
14.201848 1.907269 98.093298
21.028872 0.000000 90.238051
16.623280 0.504550 5.685265
29.272328 16.152381 34.560797
33.276254 0.000000 20.236049
31.433504 0.000000 93.973113
11.053401 18.911348 62.771410
5.106385 15.652782 23.610412
34.541360 10.463559 67.223707
6.248775 6.494274 33.291729
32.600940 13.099425 90.453705
31.859425 8.342898 100.000000
34.723955 0.000000 44.440985
18.447993 0.000000 48.439900
23.611694 19.030546 54.572064
21.302451 16.719578 100.000000
0.393909 9.874583 63.715361
5.913413 6.687895 65.789266
8.470459 6.190719 99.627449
13.892181 2.081351 69.025170
36.996114 0.000000 35.382908
34.694147 10.202088 65.559169
21.480901 19.593421 8.994105
12.874409 19.455879 56.883098
2.068507 8.907753 69.204268
1.663762 12.215601 69.105226
14.285467 1.854288 58.028543
6.632886 16.740677 6.997822
37.445657 0.789615 7.819092
10.751311 18.817998 85.843440
7.667763 5.675021 46.112572
22.193713 0.000000 54.224975
6.459492 6.372616 80.540490
35.575677 8.512307 90.493301
18.130806 19.966227 8.687810
5.684609 16.137053 29.683239
22.902150 12.688579 100.000000
33.092976 0.000000 43.607192
25.093795 18.451290 3.549647
25.413210 10.755864 100.000000
36.040257 7.399521 17.443410
32.161765 13.560666 87.450384
32.248555 13.440386 13.563674
25.086359 1.257377 99.852664
0.743270 9.672879 12.777488
9.413635 4.853160 98.782979
29.336644 4.518441 100.000000
30.281099 0.000000 97.589674
30.642182 15.053025 39.172445
35.036281 9.584959 74.300563
29.001614 0.000000 33.972363
37.394150 1.708937 39.389735
35.032879 0.000000 42.793059
19.393489 19.885936 62.924710
13.569808 2.267473 93.198894
16.184864 0.757670 5.484818
13.633914 19.611884 44.506333
0.910702 9.576212 66.722195
18.834604 19.941473 3.016622
30.804334 14.916002 52.676379
14.073772 19.668857 15.916920
36.772571 5.318890 34.797696
22.984077 0.000000 97.288415
30.554755 15.126902 62.246764
11.892625 9.844890 100.000000
20.403751 14.918645 0.000000
1.839043 9.040234 67.311545
34.768317 10.036352 8.186359
5.035593 15.609698 56.980522
9.064898 4.868384 90.428365
29.296261 0.000000 1.022685
18.614092 0.000000 12.575168
32.529799 13.166931 70.043311
37.403389 1.787724 78.222176
36.090995 7.258102 59.418603
4.310322 14.978551 19.493334
37.434649 1.233699 63.017122
19.706534 19.853812 65.099949
10.996044 3.753437 57.022899
11.012251 3.744080 11.557749
32.664491 0.000000 2.266507
1.792019 9.067383 64.792452
31.683941 14.037009 53.041054
8.597732 17.898417 60.716733
33.652160 0.000000 93.509277
21.012076 0.000000 30.072108
37.434880 1.229146 89.769339
35.853903 0.000000 0.552077
24.413768 0.000000 42.144668
6.177063 6.535677 12.464537
36.934635 0.000000 66.186883
32.328329 0.000000 11.330579
16.861359 19.949811 11.758253
20.338973 0.000000 51.394727
6.936370 16.936320 12.809786
32.298583 13.387521 32.408785
34.375706 10.716582 23.815699
23.806496 0.000000 56.918321
3.654942 14.434060 97.508390
9.215078 4.781678 29.654997
19.639586 0.000000 44.056896
32.569771 0.000000 33.666722
14.396778 1.790022 77.973492
28.758051 16.524597 96.173470
11.919485 10.787080 0.000000
35.903052 7.781945 88.211745
29.805488 0.000000 40.120014
33.449500 0.000000 80.384228
32.625603 0.000000 9.626346
18.738191 19.952049 88.463964
13.975489 2.033253 9.974043
21.762263 0.000000 80.987337
0.922712 11.135665 33.615500
25.896216 17.712963 99.166872
14.046169 19.664947 16.541318
26.766973 0.000000 49.613426
31.431345 0.000000 14.839885
10.137093 4.249353 59.229942
3.630960 9.488482 99.864524
17.721312 19.973247 74.341996
27.278273 17.405198 14.138543
37.417139 1.579121 86.239808
11.111628 18.920727 10.473804
26.567455 17.822770 28.249483
34.000848 10.836903 98.933002
31.202655 0.000000 79.002715
25.549813 18.268795 64.158071
7.149963 17.105223 72.189924
31.599015 0.000000 23.605170
27.415774 17.344731 90.350788
37.120389 3.657965 7.616575
20.060896 13.531845 100.000000
3.018937 13.768855 41.583329
24.990771 0.000000 9.657443
10.799647 3.866827 85.916819
34.678223 10.229339 55.873164
3.164906 13.924933 89.436263
24.819284 18.581951 62.673182
22.226453 19.397133 16.033051
22.293046 19.389620 36.916437
30.850334 0.000000 15.976424
12.739137 19.422603 58.549808
29.064137 0.000000 53.100489
36.027905 7.433947 14.688550
13.044990 19.496991 77.708954
0.482484 10.480906 64.813497
19.712879 0.000000 3.294510
32.131011 2.588237 0.000000
28.096444 16.916397 11.653195
24.614934 18.653846 5.528567
24.635176 18.651032 33.391642
4.592409 15.217467 49.248769
23.653970 19.017823 49.742825
15.288071 1.275434 5.397071
37.465942 0.471827 3.469489
37.366881 2.052538 29.972972
37.421010 1.135733 5.800124
8.604971 5.133924 88.730903
14.066096 19.688333 58.077259
23.371264 0.000000 38.833753
20.669565 19.727677 40.017411
8.471629 5.210909 16.033428
34.927614 9.775679 55.870169
23.252675 0.000000 17.018924
8.890234 4.969227 50.358556
21.941647 0.851326 0.000000
37.226489 3.219220 38.788455
2.900608 13.624469 23.201552
4.312294 14.980221 31.715536
28.606089 16.624604 54.068058
15.230169 1.308863 83.519593
8.451660 17.811386 14.464904
11.446872 18.062452 99.683401
33.829845 0.000000 19.894873
25.966424 17.209283 99.605201
9.841830 18.445626 17.781439
37.313525 2.697981 95.073884
36.493245 0.000000 91.976518
8.850885 18.018557 71.776278
5.708011 6.806484 72.591717
7.538229 5.749807 66.468577
35.340709 8.986155 55.428776
37.041807 4.171999 66.851368
31.307549 0.000000 39.679944
21.856927 19.509621 77.044856
32.530521 0.000000 39.484922
34.963162 9.734528 85.114784
30.545966 15.134328 64.997345
35.489664 8.685947 39.116995
25.918352 0.000000 2.205763
2.470544 13.172831 66.235899
30.194744 0.000000 87.077868
36.951562 4.584568 61.930274
26.856354 17.659972 44.990621
3.703505 7.963786 59.083100
20.617168 19.720936 7.128079
28.874572 16.447913 76.651394
22.724665 19.288213 65.710149
7.043574 6.035396 29.010930
24.423585 18.745874 44.795265
35.330347 8.969106 15.158197
31.957308 0.000000 82.047993
36.998943 4.258471 16.679552
7.425923 5.814647 39.811065
15.441857 1.186645 87.389629
21.013619 19.684488 92.831086
14.575519 1.686825 73.797971
8.343825 17.777754 51.332733
30.918923 0.000000 52.913413
29.300230 14.036626 99.965665
27.360014 17.358050 17.172161
37.400596 1.788539 70.982023
2.709454 13.437008 62.279140
1.045704 9.498268 28.256158
16.865553 19.954104 23.831287
37.449949 0.931876 77.097601
34.027370 11.192264 8.701897
4.625803 15.267913 80.089180
7.140125 17.073449 26.947980
3.773946 7.923117 29.748271
0.402147 10.340989 7.419901
28.096180 16.934790 47.140517
17.884162 0.000000 59.982906
7.677241 5.669549 87.655880
17.986719 19.973542 86.295004
37.100918 3.889058 66.415002
32.226447 13.488100 75.086102
36.338472 0.000000 54.959589
14.863456 1.520585 16.529399
17.081948 14.004319 0.000000
34.936138 9.748710 44.191431
27.098177 0.000000 46.272151
27.553589 17.263012 56.690676
9.765250 18.418889 36.065254
26.261869 17.969021 69.762272
2.204614 12.861659 44.929728
6.084831 9.171458 0.000000
25.548790 0.000000 70.414824
29.388022 16.072832 80.607184
19.583230 19.865367 93.434229
26.895499 17.637913 85.921469
8.046736 17.624750 9.353011
30.407968 15.247284 41.734216
1.883339 9.014659 28.788364
1.049151 11.331629 43.588448
20.731451 11.541078 0.000000
7.894531 5.544096 7.072542
4.607577 7.441820 11.064757
11.590723 19.080713 88.337055
25.989274 11.285892 100.000000
7.643639 5.688949 35.412622
8.942722 18.030913 5.478901
21.848440 19.511549 52.275129
9.829327 4.427041 12.711823
20.272413 0.000000 0.189841
7.944057 5.515502 89.951619
27.491993 0.000000 51.695763
5.257152 7.066788 4.383524
7.551013 6.791264 0.000000
19.902776 14.700173 0.000000
28.270902 16.845193 93.322888
31.915545 0.000000 17.885331
35.156336 6.242121 99.847735
25.755321 0.000000 15.291847
11.741526 19.111082 18.308612
33.505001 0.000000 25.809147
9.970750 4.345391 72.389632
25.874146 0.000000 74.716845
10.405538 18.695512 19.728944
26.369855 0.000000 29.498563
9.672998 18.379568 69.290801
1.608876 9.173121 54.358461
30.004796 0.000000 54.000160
16.951489 0.315059 11.093271
34.985708 9.659205 49.859191
34.232619 10.918962 26.261401
4.073660 7.750077 39.377655
5.508451 11.288197 100.000000
32.022910 13.678823 41.824896
36.105676 7.217182 42.675585
22.875958 0.000000 16.561938
11.299278 3.578365 7.218978
1.255011 11.661169 74.089488
25.647735 0.412553 99.214588
30.344767 0.000000 91.780149
20.861291 0.000000 18.065409
21.682486 19.549257 73.798496
1.791363 9.067762 48.058878
37.287759 2.862692 28.391929
20.756759 0.000000 37.517309
23.930983 0.000000 62.135891
18.632294 9.139486 0.000000
1.135628 11.434358 12.054181
24.340365 0.000000 36.343753
28.146100 0.000000 32.822562
10.408339 18.693006 97.738089
4.284118 7.628569 7.505236
0.932162 11.155786 41.069128
28.774297 16.509720 6.273312
23.679640 19.010098 78.554114
4.039594 7.769745 87.965191
31.233503 0.000000 92.770369
10.094385 4.274009 93.609745
0.221357 10.070260 57.322981
18.298289 19.972456 64.801045
17.784003 19.971843 40.606732
31.615403 14.109432 9.483940
16.058467 6.058659 100.000000
26.599440 17.804746 7.231178
26.544076 17.835944 86.863055
23.588903 0.000000 17.415892
6.699598 6.233991 8.112845
31.272132 0.000000 64.881103
31.288013 14.455383 49.108991
1.500889 11.994680 88.040743
34.923783 9.781613 54.356354
6.018556 6.627191 91.653174
34.022496 11.206714 18.149443
7.769596 17.468280 58.060756
17.763319 19.974072 95.551118
15.816532 0.970327 15.288644
24.013857 0.000000 97.320936
9.781717 4.454529 58.055773
13.895335 2.079530 86.328471
19.247972 19.901215 52.731469
32.064795 13.634564 21.099391
17.524319 0.956678 99.621466
18.106010 0.000000 87.502934
26.175885 0.000000 76.342477
34.952454 9.695450 20.042824
37.246648 3.101916 32.910180
21.499508 0.000000 66.306307
4.279531 7.811326 98.773111
19.221883 19.903687 57.992055
6.200127 6.522361 77.163562
31.587276 0.000000 26.709016
25.970206 0.000000 52.962080
4.753601 15.353989 14.829081
1.240190 11.641066 78.483814
8.947821 18.061868 69.948424
24.251232 0.000000 79.762186
20.662993 19.738084 63.776314
10.599065 18.766610 10.543526
32.451611 13.225819 18.549996
24.992993 0.000000 26.028069
10.670051 18.791235 58.974714
7.025226 6.913034 0.000000
37.495787 0.027640 31.624846
6.500779 16.675782 40.375528
28.145129 13.648572 0.000000
20.745527 0.000000 21.343437
7.010806 16.977096 1.463683
16.514400 19.957106 46.186258
21.434874 7.075142 100.000000
1.542908 12.051674 89.358615
37.152668 3.632024 62.065198
18.493228 19.972142 60.429526
15.133725 19.848050 71.341860
37.273446 2.945980 56.977051
9.912466 5.056885 0.000000
27.044584 0.000000 13.906727
23.059107 9.818158 100.000000
28.482094 10.404508 0.000000
9.904639 18.478361 27.117536
19.994232 0.000000 28.548412
35.370044 8.904622 27.560664
20.315895 11.152323 0.000000
33.434889 0.000000 6.897448
30.081965 15.496110 20.928460
37.344898 2.243382 6.649981
35.508472 8.647978 39.688571
18.872839 19.940388 32.101866
36.023404 7.446493 27.976485
30.051204 0.000000 14.748472
11.432402 19.029661 57.791584
1.169960 11.542791 82.435644
10.624556 3.967915 63.442152
28.795095 0.000000 63.630772
31.235341 14.511041 83.143530
37.310933 2.719561 19.985217
15.728765 19.914942 2.240666
8.919245 18.032570 33.268710
33.895789 0.000000 10.385464
6.929315 6.101364 93.407186
5.666862 16.125038 45.849281
32.280986 0.000000 49.898556
30.929344 0.000000 91.789458
20.958201 0.000000 47.808301
19.609016 0.000000 71.185064
36.594404 0.000000 84.401424
6.704189 6.231340 41.893098
24.391160 0.000000 67.389950
33.602955 1.936122 99.995073
21.079499 19.672991 37.782661
1.770146 9.080012 14.197161
25.502945 18.286006 48.639760
37.395764 1.947915 87.296207
4.374254 7.576529 6.848839
24.198757 8.158896 0.000000
21.272817 19.639254 47.105694
8.443916 17.377671 99.169590
17.251922 0.141604 58.876403
12.463473 2.906216 23.546798
25.622121 0.000000 30.825589
37.204603 3.346577 48.568296
35.922833 7.726810 61.456344
23.373479 15.404682 0.000000
37.435740 1.212178 93.269134
17.635342 19.970810 41.217975
8.014891 5.474606 7.693183
33.368278 12.124657 20.201186
17.818604 19.973044 71.015800
22.935728 0.000000 49.433736
3.351032 14.122801 41.435434
8.400175 17.784336 6.326002
24.341087 0.000000 96.641636
20.063934 19.816369 87.981988
6.143795 16.441529 26.237250
17.720991 0.000000 79.669238
26.217511 17.979209 18.406847
25.418189 0.000000 91.735356
10.416568 4.087997 21.155185
11.431233 3.502180 69.409248
37.459635 0.740817 79.611522
34.109618 11.117840 59.239509
28.017289 0.000000 17.531352
8.570071 17.894274 91.117984
25.173982 18.421020 25.142179
2.182890 12.816902 14.144984
18.467625 0.000000 61.317889
30.324853 15.321174 84.704184
20.434952 0.000000 55.200011
37.126640 3.800236 94.665042
35.908641 0.461714 99.277937
17.320002 19.967820 45.082056
36.928837 4.659487 45.036735
35.455973 8.723203 8.682291
19.555096 0.000000 7.904979
15.296400 8.836123 100.000000
22.863933 19.228913 21.273800
37.140175 3.675644 55.274649
12.399448 2.943181 78.545965
16.752351 12.552916 0.000000
26.790126 9.795751 0.000000
34.793932 10.015211 38.563572
36.790166 5.246707 83.301321
30.903685 0.000000 32.082357
23.625269 19.019796 10.930143
12.320015 2.989042 91.545743
22.313865 19.370109 8.753369
35.616572 8.429749 66.033446
11.374487 18.579465 0.000000
11.717692 3.336793 59.936640
35.015571 0.000000 68.000460
13.135791 2.518053 61.877519
1.869341 12.473576 59.021852
6.078557 11.379721 100.000000
21.599877 19.568027 30.540452
17.087265 19.967139 52.283745
1.232216 9.390586 78.882633
34.267892 0.000000 85.777233
27.257601 0.000000 83.946724
36.378435 0.000000 62.995700
0.945497 11.203716 75.531152
4.320703 14.987343 44.513714
30.660523 0.000000 35.249322
3.515653 14.297806 68.913452
0.586523 10.644518 97.702928
20.879923 19.696766 28.396228
23.057360 0.000000 85.597868
25.538423 18.264660 10.400024
33.196522 0.000000 29.343001
10.646545 3.955220 47.067983
8.182920 5.377595 74.673389
37.362800 2.287749 63.622637
19.994149 4.462830 0.000000
34.980470 0.000000 33.031356
27.616902 17.231393 93.931107
37.315585 2.680827 62.416072
10.597189 18.766509 20.273245
9.003160 4.904029 64.300348
22.094818 14.055930 0.000000
4.116216 14.814152 16.564792
37.047758 4.067024 34.272635
37.047196 0.000000 21.389114
24.360152 4.146695 100.000000
2.771283 8.502005 31.562011
24.957027 0.000000 30.872606
16.117848 19.944820 26.737256
31.630050 14.093956 17.817134
16.100348 0.806465 23.593692
14.812286 1.550128 8.888553
4.867400 7.291811 22.900140
13.361322 3.063568 99.402814
12.852635 19.450631 81.127911
29.800400 15.751306 71.641490
24.740062 0.000000 21.107396
37.273756 2.944176 70.615515
17.193349 14.195314 100.000000
32.287993 13.398713 10.432359
16.504777 0.572968 95.099623
1.100455 11.413191 50.145162
14.673752 19.794006 93.685163
1.667182 12.220240 31.698944
16.590773 19.949547 21.635002
29.762932 15.756299 29.010568
33.975335 11.282191 29.833052
17.031821 3.065276 100.000000
32.901839 12.754543 39.961534
16.145005 19.950323 41.360495
33.802043 11.564252 78.609767
12.491135 2.890246 63.216430
37.086895 3.877133 32.896101
25.954163 0.000000 49.983241
36.867030 4.931365 40.301708
37.054350 4.127134 73.214189
34.342335 10.768750 63.721753
9.244602 18.191961 58.705763
14.985816 19.803489 6.374119
30.479385 15.190591 93.568813
20.135112 19.797975 49.130953
16.962549 5.352600 0.000000
35.829708 4.146641 99.820254
3.733218 14.489769 64.702182
15.722036 1.024884 69.147312
24.328608 4.146986 0.000000
24.086610 18.882267 48.564810
0.432779 10.402741 46.301809
37.145725 3.602843 35.567630
12.176521 18.195458 99.742096
14.595722 1.675161 13.093142
36.090987 7.295858 86.910038
6.698504 16.818855 71.812499
35.376266 8.876008 9.276557
33.589426 9.389515 0.000000
31.737603 14.002581 74.714994
24.547248 0.000000 2.355489
7.745930 5.629891 56.242796
32.718425 12.169004 0.000000
37.449598 0.938811 90.740425
33.761884 11.623742 86.398871
28.447028 0.000000 81.510234
16.224512 19.956853 66.679751
19.099248 19.914064 16.840287
12.999858 11.472771 0.000000
32.433030 13.270040 73.465536
23.985393 18.918084 65.695270
32.091349 0.000000 90.982826
5.327686 15.870549 93.949076
28.995854 0.000000 43.934034
6.445014 12.452200 0.000000
4.247195 7.649886 17.341715
28.761274 0.000000 62.549214
12.362570 19.319211 82.709167
3.080254 10.683697 0.000000
28.408222 16.726797 4.217422
22.508854 0.000000 48.470380
35.353278 8.961277 71.746003
22.591404 19.297361 12.023807
27.815754 2.489106 0.000000
35.688939 8.280262 10.961533
14.251339 1.873991 1.998104
31.378671 0.000000 34.160400
36.540825 6.024295 34.605314
32.768559 0.000000 38.220233
8.514208 17.845838 27.931881
25.708637 0.000000 44.329820
14.769871 1.574617 0.541430
2.437614 13.129387 56.220356
19.788083 0.000000 88.369586
30.758963 0.000000 66.186847
36.468287 6.206498 2.819522
25.312859 0.000000 9.256794
28.492372 16.699442 57.666903
27.220179 0.000000 52.507213
3.484422 14.264605 8.764606
8.293629 7.524118 0.000000
1.860414 12.457736 15.603565
6.122910 16.433425 35.332799
15.663613 19.910308 14.156713
19.971890 19.825974 83.113895
11.704440 3.344444 62.013185
12.280863 3.011646 86.536043
21.918654 19.473604 3.897022
9.247366 9.376318 100.000000
29.526619 15.971204 85.112009
8.208122 5.363044 38.415734
0.327702 10.237497 80.191340
10.645746 3.955681 37.747938
30.420075 0.000000 55.106471
6.719824 16.586084 98.862845
5.246269 15.792717 63.288353
0.196485 10.031146 72.587274
23.443777 15.694814 100.000000
17.541631 8.175128 100.000000
36.988628 4.392737 52.864148
10.066420 18.548676 54.767940
1.689924 12.250048 2.595276
10.702071 3.923162 61.943770
2.628916 8.584201 33.204083
27.434858 17.333977 60.366790
0.418390 10.377729 22.875879
37.261050 3.018110 31.874203
33.850883 0.000000 11.783042
15.885641 0.930427 34.675892
6.103548 16.420677 76.713050
4.879532 7.284807 92.418688
27.419466 0.000000 54.733037
36.910078 0.000000 34.545000
23.029469 0.000000 34.639082
25.968443 0.000000 35.656888
22.493304 1.063890 0.000000
29.453164 0.000000 61.538573
15.873228 19.933525 86.483201
20.641740 0.000000 14.066197
34.543798 0.000000 64.267915
16.441681 19.944222 12.309857
3.062659 8.333779 1.293123
19.252251 19.900516 59.652323
5.743259 16.176759 39.768513
15.382492 1.220919 16.990518
32.892229 7.314430 0.000000
18.049736 19.973529 87.076493
1.027813 11.302339 46.539127
10.827957 3.850482 66.986372
13.742334 19.627910 35.674978
0.941398 11.155929 24.431608
3.659311 7.989301 75.817770
32.227676 0.000000 45.480276
1.170593 11.503484 33.113017
15.992252 8.981241 0.000000
24.883493 0.000000 25.487443
1.668248 9.138842 96.202865
37.332343 2.541311 80.255113
31.459720 14.273942 39.416108
23.433800 19.084082 58.050864
33.014185 12.610644 77.024434
15.596783 9.297006 0.000000
10.407049 18.694346 57.908133
32.731837 0.000000 29.093363
20.028217 19.819994 70.677018
15.358033 19.874404 36.041585
5.679252 16.133426 60.341028
33.881932 11.461954 90.502430
28.371342 16.758808 23.747999
31.460617 6.761751 0.000000
29.059325 0.000000 55.647925
32.117267 13.596200 56.194899
9.134712 4.828077 33.114264
30.496150 0.000000 24.132692
37.235833 0.000000 4.178384
2.081708 8.900131 0.609375
32.486847 13.189989 23.832982
11.075929 3.707315 6.725908
6.657565 13.054083 100.000000
5.652933 6.838283 51.240540
31.433896 0.000000 40.222826
36.995955 4.323943 38.466566
3.035028 13.777431 27.473079
11.662177 15.086632 0.000000
28.887354 0.000000 38.010986
8.513825 5.186547 45.485690
34.345090 10.764539 71.520468
21.911629 0.000000 4.020639
36.339246 0.000000 6.631894
20.237351 0.000000 72.605115
27.200736 0.970812 99.714012
9.793870 4.447512 40.936458
0.977486 11.247780 71.294801
18.898821 0.000000 67.980309
20.562292 0.000000 66.383106
27.225128 17.452163 47.709039
28.904925 0.000000 63.108456
37.416220 1.597249 97.882145
4.105031 7.731965 22.261039
0.251750 10.115891 5.358215
37.002582 4.324856 52.299194
21.400188 4.456247 0.000000
24.949501 0.000000 56.811050
16.457861 13.053588 0.000000
23.522730 0.000000 96.998529
28.586711 0.000000 27.037224
16.947669 0.317264 81.277713
34.009261 11.214670 5.035101
28.602583 0.917247 0.000000
15.947834 0.894519 48.617540
26.217672 0.000000 48.492031
3.696355 7.967914 33.051081
32.240594 0.000000 7.972962
36.576898 5.957642 63.174822
22.605752 0.000000 85.311525
2.705691 8.539874 75.650779
35.781561 8.096676 20.050962
9.459690 16.885820 0.000000
16.396658 0.635391 68.317058
35.387780 8.883453 41.455176
26.266851 17.965514 61.326709
13.362584 19.560869 56.922145
30.907032 14.826694 5.953456
12.656940 2.794518 90.117591
19.971777 19.804177 14.049345
13.200600 2.480636 0.913313
21.895325 0.000000 87.238962
23.645811 19.010965 4.206656
30.040944 6.151920 0.000000
13.940436 2.053491 51.996467
37.304593 2.764734 14.061489
37.328328 2.574739 75.943401
8.362706 5.273795 10.844790
3.453611 14.231850 49.114720
25.988492 16.214666 99.971888
35.517292 0.000000 63.693095
10.788763 10.913778 100.000000
20.781669 10.889776 100.000000
31.083466 14.671526 1.038288
6.320167 16.567330 78.852842
10.700655 14.907747 0.000000
25.278901 18.384740 63.580121
28.861384 0.000000 6.599547
19.842585 0.000000 52.063464
10.128508 4.254309 90.439765
21.673747 19.551243 54.557032
0.249479 10.114485 41.770124
35.289770 5.710098 99.875545
15.743500 1.012492 37.859064
16.864719 19.952324 18.788296
37.133583 3.759836 91.328710
29.650922 0.072429 98.531536
20.443350 19.774782 86.869543
35.352378 8.918346 5.676266
3.836472 7.887018 89.658760
14.658540 19.779029 58.499558
31.928145 0.000000 23.061311
27.389644 17.359456 75.491216
17.716772 19.973417 78.484637
18.594928 0.000000 62.338310
7.395107 17.250752 95.773271
15.663537 15.579787 0.000000
27.333554 17.391063 65.638302
33.250648 12.283967 13.454892
3.750365 14.504291 50.641584
21.888590 13.496832 0.000000
2.886524 13.480923 98.596627
10.615785 18.776168 97.184960
24.863037 18.574402 95.495477
35.238016 0.000000 50.084689
34.956178 0.000000 49.511861
3.986555 14.704334 7.102637
14.930428 19.809732 36.395395
14.352374 19.741828 78.026237
37.230081 3.198318 97.462715
15.894881 19.934963 55.240466
11.632882 19.093162 73.526328
34.518894 0.000000 27.936773
37.119150 3.831014 78.710719
29.824937 8.186397 0.000000
15.090123 19.839067 46.488682
16.908248 0.340024 91.159614
15.523493 19.893169 21.801906
8.564593 5.157235 13.725074
26.343238 0.000000 57.114095
37.401189 1.458765 12.336512
14.487954 3.416023 0.000000
0.463009 10.450280 79.053395
33.413822 12.083157 82.915444
20.474899 0.000000 75.273267
3.740383 14.495837 65.280713
2.689501 13.396768 35.309308
17.034766 19.957242 26.131556
29.756379 15.800064 94.673992
13.979044 2.031201 33.867841
17.268608 19.973616 75.560681
22.524264 0.000000 3.690642
0.838713 9.617775 89.304095
13.442120 6.087346 100.000000
8.871015 18.024557 64.655768
10.397722 4.098878 61.413647
20.626455 19.745349 70.491708
15.200315 16.882976 100.000000
1.226636 9.393807 51.652623
5.724013 16.163730 19.386126
20.082124 6.268332 100.000000
32.642210 0.000000 89.038092
16.495187 0.578505 71.776714
26.565367 0.405201 99.205139
37.416728 1.178840 2.341205
4.287082 14.958867 45.094831
28.807286 16.492195 97.883436
19.197158 4.694365 0.000000
10.902560 18.863915 57.850807
15.696439 10.992069 0.000000
28.854305 16.461251 36.572779
24.992375 18.517426 91.435901
24.767532 18.604403 63.288802
33.611105 0.000000 58.615209
27.155876 12.598716 100.000000
29.782543 0.000000 48.910125
34.098557 0.000000 26.387009
35.096299 0.000000 18.827109
18.200845 0.000000 37.602346
14.274318 12.577048 0.000000
3.443691 14.221305 73.533318
11.580367 19.065117 23.889001
27.336230 0.000000 95.579848
9.011868 4.899001 19.132319
17.945756 19.966048 15.447554
28.295649 0.599375 99.421837
2.002717 8.945737 8.694602
18.027312 1.648056 99.968374
36.280407 6.776794 80.074893
2.107577 12.739267 23.867646
23.507411 10.447443 0.000000
37.293344 2.830191 64.618960
23.564160 19.044851 90.993784
28.354864 16.775237 36.612100
21.293116 0.000000 14.309479
6.090113 15.855176 99.253403
35.169320 0.000000 44.704823
10.513823 18.738515 90.315990
8.781631 17.964951 22.056467
11.848224 19.138453 6.126797
10.228075 4.196824 47.219395
30.084865 15.523969 76.031910
5.409613 15.932286 86.566485
24.389869 11.425571 100.000000
36.997102 4.361300 56.682540
13.746179 5.340398 100.000000
2.917674 13.636225 12.233028
32.936236 12.713530 26.795744
22.898849 19.213365 8.756757
16.196948 18.477501 99.918401
27.801291 17.104657 35.758713
25.106560 0.000000 15.258280
14.731697 1.596656 57.397040
35.948388 7.655580 17.969952
33.036446 0.000000 6.349505
11.553967 19.068098 65.975378
2.655522 8.568840 13.947018
