125.893776 67.776904 40.867868
68.587230 75.952777 22.952143
95.774101 82.561684 50.000000
36.618029 47.573535 49.880274
109.924178 49.927831 43.434377
90.451674 27.239421 43.541857
60.902938 8.016808 40.313555
29.856532 99.147673 46.464401
106.839152 47.872787 45.397805
15.402818 89.306690 6.531726
24.920721 90.603571 48.864556
12.680465 66.543685 47.571557
55.915006 60.848270 50.000000
9.483958 83.968088 13.846843
86.105370 21.143043 5.256938
68.091193 75.480987 6.419704
119.978306 66.116789 47.580495
74.413532 53.549999 0.000000
13.509011 60.436574 9.262955
9.684555 84.149020 35.116287
3.467143 71.569904 17.241401
105.110178 84.545882 50.000000
31.593435 40.386532 25.468944
29.656086 60.270593 0.000000
76.481917 9.892162 22.371534
48.253820 21.915311 37.430916
81.942430 88.655156 12.595391
128.598327 73.042615 3.314791
82.627172 57.768267 0.000000
107.541282 99.177318 19.047672
21.042245 52.084543 30.542317
115.056335 92.029614 10.755986
33.609694 105.728648 8.255344
97.601908 77.592847 0.000000
96.604439 54.029211 50.000000
80.041747 47.866643 50.000000
35.724649 69.651209 0.000000
56.453227 57.972233 50.000000
71.574154 5.906440 19.004490
100.073768 37.473648 28.697246
36.583971 103.768668 17.718136
9.731259 64.624934 18.427104
55.365242 47.057440 50.000000
13.824765 87.883343 23.663599
95.620440 101.102986 35.496190
20.771886 82.873459 0.000000
68.394922 52.250210 0.000000
21.133188 78.555459 0.000000
40.524364 100.214573 16.071345
5.231018 75.632217 47.449351
105.577113 97.549970 46.638786
74.237534 72.803764 49.221418
80.106050 38.719023 0.000000
41.318867 90.977664 49.286605
85.383247 80.790307 0.000000
36.743846 34.676317 13.406671
44.772963 34.180053 0.000000
83.007239 71.272127 0.000000
13.429980 60.524194 36.119789
77.644133 11.250921 35.537619
21.482587 68.963631 0.000000
57.412297 84.982256 10.622088
119.116112 59.736255 3.568490
54.264419 15.251412 8.250836
43.079625 93.980365 47.020533
96.682593 33.508989 7.875148
52.739660 58.710782 0.000000
61.393607 7.520542 4.736514
102.822408 84.150298 0.000000
76.557835 56.188034 50.000000
38.557024 99.179299 0.000000
121.132403 80.580301 48.079612
76.024386 27.574603 50.000000
69.733881 61.850177 0.000000
109.650980 90.873154 0.000000
32.559687 102.038746 0.000000
16.832919 90.596591 25.512406
76.437535 9.840274 4.052689
60.335924 77.477423 47.693672
81.665150 88.391430 35.411955
106.512813 83.049951 50.000000
44.689676 66.649735 0.000000
124.546538 83.003308 11.733691
25.209555 88.923784 0.000000
86.119385 92.160325 42.469440
59.074192 9.918860 1.672162
65.704195 63.820506 0.000000
72.894812 6.542786 14.174797
38.263780 80.076528 0.000000
18.793170 73.792444 0.000000
47.270344 58.268426 50.000000
24.725124 97.715080 21.391956
17.960353 62.392508 48.410681
24.084360 77.310565 50.000000
126.066295 81.485405 12.730924
26.271548 46.286861 18.763652
57.900604 84.541820 31.149421
5.630300 80.492225 36.220783
69.109578 46.516573 50.000000
53.486042 16.114392 6.555290
25.946394 73.759171 50.000000
51.505300 57.409404 50.000000
126.717177 68.702013 25.722572
24.098759 97.150122 31.129317
80.447673 18.394975 46.601509
88.820180 95.196712 22.666538
74.410762 56.501171 0.000000
36.033908 103.831051 42.504052
27.561150 54.780322 49.419804
104.374391 101.409414 36.490796
98.865871 60.413191 0.000000
79.424717 86.219157 40.342495
37.898422 33.396248 9.246332
34.713245 105.455996 37.931435
4.648977 70.259615 15.564955
100.025863 37.417641 38.436401
97.330635 64.154735 50.000000
2.018945 73.175508 32.166370
96.268892 101.443657 1.897808
106.596206 76.989772 0.000000
80.289812 15.422362 43.630071
26.098582 46.478627 15.375408
90.255525 48.700042 50.000000
30.050468 102.518352 0.424060
107.936280 47.190740 42.442950
27.281493 49.086902 46.739352
13.685408 60.241004 33.407041
116.112939 66.586042 49.438403
42.664590 57.821895 0.000000
125.412351 82.179818 26.571306
14.700340 75.222681 0.000000
13.442299 72.618020 0.000000
27.711571 72.868455 0.000000
7.738063 81.814108 42.858337
112.689579 72.398259 0.000000
72.969226 58.432726 0.000000
22.183586 64.202241 49.918473
8.556879 74.691971 0.000000
41.570657 71.209996 50.000000
96.177355 98.456445 0.000000
102.967641 101.759960 0.000000
33.377038 38.409067 3.380943
109.840022 83.107891 50.000000
106.715757 89.942639 49.597953
12.308366 86.515605 23.128975
20.596993 93.991652 16.575612
126.564920 68.490203 4.424067
33.617050 102.472718 46.511705
52.198821 84.568731 0.000000
101.321740 64.874154 0.000000
59.266958 43.334865 0.000000
19.824285 53.434885 13.385855
89.429821 62.480861 0.000000
36.227153 71.549419 50.000000
48.561018 91.197060 44.951334
49.077058 92.500346 25.952976
18.071322 55.378380 38.500021
33.806917 82.964627 50.000000
63.802842 6.033795 23.091339
80.438428 52.447799 50.000000
98.547340 102.103026 0.115546
58.816702 10.204336 34.233409
6.731772 67.950438 11.080580
69.134204 76.473014 4.814217
86.354274 68.671765 0.000000
75.144468 14.983668 48.188225
104.476202 62.318237 50.000000
95.515588 38.060004 47.851532
125.667125 81.934954 39.975730
94.983733 100.749423 30.410004
28.465501 43.854445 1.837810
22.125726 95.370515 18.991037
30.542293 50.176009 49.047640
102.746326 69.213362 0.000000
2.178985 73.175548 41.526043
96.967084 51.964406 50.000000
81.555942 38.052111 50.000000
24.731967 55.151594 48.526534
0.230598 75.158233 18.447232
35.299740 36.277384 34.704990
25.230142 98.170589 17.585272
88.118758 94.529576 27.588104
91.627333 81.358031 0.000000
55.360664 55.104451 0.000000
113.134195 87.012264 0.000000
40.063964 30.995331 23.306927
95.047859 100.785032 3.779193
59.896293 66.102908 50.000000
98.660198 99.312644 46.867858
128.696624 73.877184 20.803389
28.516238 76.727104 0.000000
93.575406 99.690560 35.412369
0.191631 75.201436 27.632439
31.416438 40.582767 0.962933
42.754493 92.213349 48.285075
22.458258 51.365677 43.324180
59.976855 31.757232 0.000000
40.588363 95.009335 0.000000
83.187246 31.119596 49.886472
32.391041 74.543564 50.000000
21.048363 94.398773 9.780776
71.299749 5.777865 4.323777
68.551889 43.679398 0.000000
25.759476 73.704485 0.000000
29.171929 98.738242 0.000000
23.085147 49.819596 29.802913
57.997412 37.867646 0.000000
73.671269 80.675045 41.201751
30.196377 41.935438 2.589979
37.656276 101.578239 0.000000
78.680757 31.671856 50.000000
40.356895 100.365624 26.025258
53.142019 88.833896 34.355933
87.133009 61.078703 0.000000
33.293885 72.752090 50.000000
4.610271 79.572196 38.010773
30.250163 41.875806 18.668160
80.310359 14.368035 4.066902
47.776514 93.673390 13.428611
11.009039 85.343657 32.862381
91.842272 63.897011 0.000000
111.340275 95.564027 21.965320
29.716155 51.285246 0.000000
77.071750 17.140897 48.144542
44.842070 96.320155 6.995111
61.934307 44.701026 50.000000
89.703080 48.491408 0.000000
111.378378 95.527786 24.798181
27.933024 63.123110 0.000000
63.957652 37.421725 50.000000
48.853438 31.135988 0.000000
49.989262 82.012562 49.568803
37.072404 86.976231 50.000000
56.490055 37.115979 50.000000
27.557587 89.275117 0.000000
29.881453 42.284591 33.846831
127.356164 79.753170 11.868792
75.403124 70.772399 0.000000
45.226504 61.815404 0.000000
39.846231 66.826150 50.000000
63.840683 42.826672 0.000000
94.809218 64.903133 50.000000
26.649253 99.450577 15.697726
66.728524 50.194340 50.000000
92.736571 28.895652 16.247701
92.534279 28.659150 28.599670
36.649971 103.709138 22.670104
57.822163 27.568520 50.000000
84.063736 47.292335 0.000000
62.055944 7.017630 17.051792
12.752979 61.274779 31.741638
70.578421 69.004894 49.321716
124.781218 66.359391 10.455216
111.809126 95.118094 18.789197
20.767582 62.730581 49.514897
84.926009 64.072119 50.000000
23.473256 96.585939 1.357417
54.330046 87.762337 1.981712
55.007979 87.145983 40.083037
66.940399 14.356845 49.896205
90.407460 43.829984 0.000000
83.069691 48.391799 50.000000
92.140336 97.485311 43.481805
67.002788 76.331973 3.981859
43.408301 88.499503 0.000000
62.065342 34.850177 0.000000
102.705345 101.982580 34.023418
41.315347 29.607935 4.020564
38.698964 101.861019 25.449632
26.758146 45.747374 29.311694
50.376334 34.777614 0.000000
13.432520 80.052287 48.945643
77.165428 84.111661 28.306226
54.022963 32.863826 50.000000
82.036275 16.525502 41.037797
107.832673 70.372189 50.000000
84.519349 91.106111 28.315375
21.936146 67.631555 50.000000
38.533941 32.691654 2.049840
92.394715 28.495985 19.687501
78.956029 54.133138 50.000000
116.024523 62.542809 48.081645
97.508792 64.263000 0.000000
108.055937 95.886062 0.000000
59.476356 83.120548 27.663336
88.836218 25.896219 44.302172
90.318542 37.297384 0.000000
36.322065 55.063658 0.000000
16.741299 90.513953 14.315374
127.177970 80.039016 27.387095
80.044591 16.586224 0.000000
84.359821 19.102303 37.197811
97.272168 60.767246 50.000000
122.078551 85.350656 18.489413
32.337306 72.822426 0.000000
128.750673 74.468522 18.298057
39.091956 49.941239 0.000000
69.909355 77.210274 37.288976
47.887095 91.262287 0.000000
38.729188 54.017841 50.000000
124.955991 82.460317 0.000000
115.742355 83.258639 0.000000
102.411425 78.848510 0.000000
105.407651 57.172611 0.000000
111.620957 54.161675 46.046158
90.877446 66.832576 0.000000
54.781394 60.371737 0.000000
52.617994 17.076790 19.019404
114.592681 54.447863 20.953173
10.834402 67.213062 46.660086
103.069947 40.976512 15.327130
53.434262 85.296872 46.527279
103.150589 101.839756 16.597234
48.591085 67.125506 50.000000
46.939319 40.166163 50.000000
90.030148 25.731544 15.425650
91.581360 37.006461 49.196484
22.871947 81.103333 0.000000
59.883487 27.066691 50.000000
107.334149 45.961837 2.138155
77.825312 21.851928 0.000000
64.220631 60.343949 0.000000
102.605533 40.433561 27.376565
2.320867 72.840770 15.577254
66.390799 76.883965 11.869413
35.544819 75.461981 0.000000
110.029376 96.810846 34.908014
43.151513 56.454529 50.000000
1.780832 77.020142 12.566426
40.240663 73.424371 50.000000
117.653994 77.164617 0.000000
40.740459 100.019663 35.344073
73.860167 80.967965 21.567637
117.964855 58.390309 10.175576
14.290963 59.569630 23.596414
33.493457 63.967474 0.000000
37.180952 39.947970 0.000000
88.528341 23.975765 17.176639
42.756232 41.569632 0.000000
26.168134 46.401515 3.560646
117.773242 86.096626 46.522855
57.566495 61.613638 0.000000
98.004616 102.010440 8.415737
93.578925 62.738879 0.000000
110.487953 96.374686 8.099720
34.071824 106.034535 0.747665
110.049151 49.135975 8.667855
74.384820 41.104120 0.000000
47.792239 93.659207 22.712717
0.006592 75.406586 37.754880
53.884633 41.899357 0.000000
37.246056 67.930217 50.000000
73.692389 38.933227 50.000000
92.301357 98.507724 19.707206
118.753832 88.512857 11.810718
52.078936 30.535828 0.000000
63.512180 6.160773 33.494459
117.952986 84.358191 47.651511
61.950912 40.613381 0.000000
28.354662 53.041718 0.000000
7.674156 82.304351 40.592671
82.273844 27.433463 0.000000
58.031689 61.744051 50.000000
56.467399 85.834520 18.958481
45.885363 95.379142 11.863590
5.789866 80.636148 8.974167
126.646643 68.603891 15.949143
73.184802 63.188600 50.000000
1.305124 76.591071 33.330336
68.960094 31.416410 50.000000
106.478315 95.343880 47.603758
50.898659 90.857326 6.263222
68.825735 53.949219 50.000000
69.821663 41.981195 0.000000
93.427074 29.702926 31.475888
128.410444 77.213750 4.540521
54.028881 44.506860 50.000000
47.417356 53.785248 50.000000
101.134531 77.684455 50.000000
101.473073 39.109590 30.411577
34.324224 37.358930 5.096678
17.589881 55.962057 40.688686
113.807178 53.529524 9.974836
59.502984 50.512533 50.000000
61.169711 7.729916 12.510943
47.559694 22.684882 5.589416
39.309483 31.831818 14.871792
44.454253 96.669952 32.364536
46.181755 72.361001 50.000000
67.718814 68.045815 49.003182
3.046432 72.036343 39.494123
5.640246 73.247915 46.861663
15.732574 57.971329 21.301751
100.432865 73.156448 0.000000
72.217992 7.670781 44.951665
12.839671 86.994823 34.123636
128.191927 71.456723 20.849484
75.494750 8.738055 11.576861
47.937065 93.528580 7.019105
121.721423 85.690327 9.534811
0.228247 75.619765 3.513197
79.702863 28.834554 49.988187
83.839768 56.159179 0.000000
126.411632 76.493738 0.000000
45.594734 24.863416 11.568512
60.935733 7.948717 15.050343
65.415309 77.763822 33.037026
30.969038 48.104015 48.468862
39.037973 101.555245 3.390222
21.533953 58.209001 0.000000
88.672523 24.144330 32.977643
102.697685 44.145840 46.431296
49.847314 20.148618 16.850660
55.791255 57.622902 0.000000
67.424994 6.658835 0.000000
58.156509 10.936286 26.595518
25.295775 98.229787 25.360085
36.229924 35.246098 9.118400
103.376851 41.907840 42.558365
70.048968 5.430361 20.589036
59.531762 9.411555 30.834630
7.913147 82.551273 33.954181
9.483826 64.899260 24.307235
102.050777 102.094245 1.918678
71.533909 45.309060 50.000000
31.427377 81.605798 50.000000
124.223997 83.310083 28.585123
45.668258 24.781900 15.744934
17.330676 90.998725 40.551590
45.592071 59.661397 50.000000
86.965874 50.259209 50.000000
122.274387 64.847179 0.000000
100.310928 98.263212 0.000000
71.922619 52.574678 0.000000
120.472991 61.322597 4.763225
29.561870 82.797022 50.000000
46.978551 39.258227 0.000000
15.793133 57.904187 25.623044
54.590454 38.109409 0.000000
39.702731 31.395827 37.634396
41.928892 98.947739 9.897032
77.110049 84.058988 35.805025
106.023147 81.611846 0.000000
116.931658 59.961351 0.000000
47.354820 94.053743 3.919886
70.532404 61.722916 50.000000
48.732656 21.384429 18.363498
55.585762 13.786452 39.369044
29.346281 54.791254 0.000000
50.799700 48.226543 50.000000
87.891568 23.231307 30.609990
97.793947 38.298308 46.326451
73.916835 61.284085 50.000000
60.252648 82.420360 5.336935
9.972936 79.706627 0.000000
59.997544 8.895148 3.369241
39.153876 32.004338 24.955167
106.242182 100.275151 4.462883
12.082002 86.311433 8.213492
71.637896 5.936306 1.572777
72.740797 64.527912 0.000000
50.042437 27.436847 0.000000
44.471725 96.654193 34.470251
77.284683 84.225086 6.726887
93.804431 60.245680 50.000000
45.614937 24.841017 38.951485
0.636633 74.708065 32.400635
44.273777 26.327949 13.557609
62.681796 23.468156 0.000000
85.596817 89.379490 0.000000
87.963728 94.382124 16.757267
75.689243 13.328267 0.000000
46.811160 23.514775 37.647136
75.475927 82.504744 20.911248
96.995938 70.696998 50.000000
117.568671 89.640086 29.603492
46.983307 94.388835 18.738716
100.970318 94.513726 0.000000
108.750060 50.130463 45.419725
31.466142 101.562798 45.499148
68.704847 38.084805 50.000000
100.798321 46.157237 48.703981
62.823756 16.474782 0.000000
42.754432 28.012434 7.069757
89.351069 95.701650 33.020527
0.899266 74.416887 14.489487
33.820191 105.918508 3.743169
113.557131 53.237191 5.227465
125.213268 82.369169 16.978649
105.906342 45.701521 0.000000
114.107647 92.931929 2.470799
65.612934 72.989576 47.514660
33.593433 59.618526 50.000000
27.986098 44.385955 12.467440
87.618610 92.952172 43.869162
107.363380 98.458350 0.000000
72.585997 79.756078 25.711951
127.550540 79.441367 15.374163
60.157060 18.809720 49.458600
86.226627 21.769025 42.344153
53.610377 15.976543 26.912391
7.772723 82.424615 38.204983
107.585771 79.250253 0.000000
32.904435 105.092529 38.900287
88.636361 68.627733 0.000000
41.973365 75.725178 50.000000
20.746427 93.876536 41.894792
26.879261 45.613095 24.255124
72.355786 22.311865 0.000000
117.612885 57.978817 4.721125
74.449164 7.693817 16.004271
88.003441 82.652862 0.000000
51.750639 46.906606 0.000000
4.924267 76.188237 0.000000
103.364592 57.147377 0.000000
31.373206 77.162664 50.000000
79.010209 35.273354 0.000000
40.411494 60.726148 0.000000
56.252034 85.462469 42.826886
54.119439 15.412151 22.600206
51.052619 18.812306 28.487196
94.863288 91.232663 0.000000
17.732757 75.585733 50.000000
9.213236 83.723907 9.718129
74.067036 7.358918 9.029225
125.308168 66.975454 17.499385
94.313970 85.002059 0.000000
29.972677 95.806890 0.000000
49.917474 21.820943 44.691369
85.631189 92.163603 30.138003
20.223546 71.137182 0.000000
49.845025 91.729685 0.000000
125.847269 71.990873 46.497003
34.816978 87.587435 0.000000
49.652371 20.364750 30.847631
112.433908 94.523852 4.825187
38.449750 32.784996 31.139638
71.858470 14.308469 49.305677
10.812169 85.166088 24.437005
7.140949 81.854777 27.209867
91.713423 96.101941 44.996780
127.257254 69.453331 37.824213
36.468314 103.872986 10.812483
114.662890 60.806486 0.000000
82.549501 48.683802 0.000000
110.490809 96.371969 0.062398
41.028132 85.678305 0.000000
87.774320 26.259482 46.024962
34.767098 45.300892 0.000000
31.486735 40.504830 8.193413
27.350827 100.083372 13.146012
84.206997 39.453222 0.000000
31.978283 56.208171 50.000000
78.845826 85.709919 22.745336
78.979093 78.668068 48.765759
42.670811 28.105143 2.800615
120.140160 83.051090 0.000000
128.398778 77.265898 30.078284
83.967528 58.332078 50.000000
54.552013 14.932560 15.339173
61.292945 10.965402 0.000000
60.187669 37.115465 0.000000
77.182994 41.107596 0.000000
49.735404 26.058677 47.897187
121.100323 86.281067 22.622500
83.869637 18.529224 35.227222
127.440584 69.771981 18.517466
22.131964 56.087012 47.585120
99.618231 36.941075 25.230092
70.722942 31.136668 0.000000
122.196504 69.270699 47.859609
111.558125 85.815076 49.511578
15.949023 57.731353 17.403517
25.327836 47.333146 28.069516
17.900862 81.315226 49.684587
9.520795 64.858274 26.562444
42.165055 98.734728 7.390239
90.753053 69.649317 0.000000
128.390546 72.132375 18.523003
31.464433 103.793698 33.592235
86.666966 52.335778 50.000000
55.668855 86.554778 9.033185
72.446417 77.370652 0.000000
47.302916 88.424774 48.127819
108.350300 47.149829 8.185998
69.151132 76.489114 39.251259
42.004672 98.879388 29.801145
92.156694 78.023436 50.000000
89.416851 25.014531 35.101888
46.239776 95.059474 35.224859
88.892753 47.043735 50.000000
87.350084 73.429453 0.000000
61.833690 80.041154 43.667984
46.183949 95.109828 22.597203
59.207451 83.363090 30.094257
62.109493 60.505148 0.000000
24.145577 79.336988 0.000000
48.193630 22.284457 41.960191
120.102067 60.888946 0.639254
17.299686 65.772451 0.000000
15.650998 58.061771 3.728640
49.278715 92.318459 38.592953
34.712007 105.457113 19.005218
38.363560 74.656252 50.000000
26.750118 63.964693 50.000000
78.468784 33.801469 50.000000
51.517198 87.588595 46.007420
0.138360 75.538690 11.254333
22.547133 71.642825 0.000000
88.616293 95.002791 37.277199
13.271325 62.227169 0.000000
96.172718 101.409667 39.413859
49.372111 92.234218 7.969452
45.822385 89.779118 48.116016
82.347828 89.040738 39.145006
45.993696 95.281430 27.135620
102.661267 101.990099 8.129635
119.448938 60.125366 15.689583
47.217452 50.677218 0.000000
13.547991 87.633703 8.603344
19.849462 93.317406 5.567683
14.241944 88.220500 40.550745
26.956774 99.727949 3.720387
109.165387 97.632602 30.242375
11.211733 71.928168 49.141060
22.509888 95.717016 22.228912
86.408871 83.351022 49.513562
105.541632 43.866186 16.502383
66.509481 32.190968 50.000000
23.677664 96.770308 26.705302
113.702783 53.407475 7.887048
96.725264 40.008313 48.094605
58.387378 10.729774 40.393117
110.573206 49.748653 12.028386
91.814003 60.885436 0.000000
75.794180 46.727426 50.000000
64.694484 77.194495 0.000000
78.712486 61.205497 50.000000
106.519767 100.052572 7.086069
10.203825 84.617384 26.483354
1.512459 73.737045 5.671953
53.659621 53.945238 0.000000
64.963221 30.475932 50.000000
44.389974 26.199122 2.864851
41.136160 97.001287 0.000000
34.719323 36.920888 15.412541
33.056609 65.026462 50.000000
117.991298 58.421223 32.378316
21.799056 51.245474 2.098124
58.545234 48.719770 50.000000
111.794104 83.637313 49.859079
101.997809 96.972724 0.000000
119.001399 59.602143 26.898104
28.897428 78.798552 0.000000
3.071600 72.008439 1.929895
11.345958 68.896650 48.041279
104.401271 45.079254 45.450365
103.820094 41.853517 25.639924
8.465437 66.028339 22.965997
92.629191 72.482029 50.000000
49.029768 68.387252 0.000000
105.905686 44.291805 1.673488
43.720574 65.237908 50.000000
95.211137 34.828510 0.000000
79.199049 43.175999 0.000000
82.027535 16.375603 15.825822
105.270899 52.123008 0.000000
74.008676 23.913329 50.000000
74.282993 81.370123 37.239082
46.624343 33.274892 0.000000
33.482216 38.412064 41.108749
37.083721 87.860206 0.000000
106.292294 68.885428 50.000000
52.183187 24.056925 0.000000
29.863146 102.349394 9.707705
14.571825 59.258241 17.283798
54.022529 88.039706 27.054685
0.075280 75.330432 35.695492
6.251167 81.052226 3.526424
91.533863 44.395784 50.000000
79.774058 13.741039 39.196566
104.651755 42.825821 11.049987
41.582283 32.082021 45.793863
88.030639 61.818001 50.000000
99.072596 100.841796 44.992748
107.384552 96.593778 45.967712
8.464615 66.029251 16.162610
119.209872 59.845871 11.094164
114.046468 53.809280 22.776913
37.118072 57.363221 0.000000
61.813466 7.177147 35.390827
108.139653 46.903560 4.336067
114.674227 58.702953 0.000000
83.972723 46.576580 50.000000
45.843308 24.587823 27.051900
43.598442 80.992194 0.000000
92.488981 43.121238 0.000000
48.406024 23.240692 44.334733
0.004660 75.408729 5.600459
59.246647 44.030776 50.000000
33.170738 49.883042 49.665654
61.252351 78.814948 46.003117
83.025457 17.542285 20.422684
93.744450 33.570842 46.332805
78.085527 45.586720 50.000000
69.853353 5.376608 15.867501
3.050220 73.224869 43.870459
86.436184 21.529801 2.295800
62.743165 12.667403 0.000000
46.887361 41.981880 0.000000
81.079926 87.834812 30.907167
128.422482 77.159942 26.491886
41.508410 29.393887 23.383470
121.567042 62.601663 6.006160
98.985191 92.253690 49.932157
50.053593 35.366338 50.000000
125.433094 82.160089 10.099731
84.610182 91.192504 32.267137
69.939503 74.677314 45.795281
100.378679 37.931919 0.000000
71.087770 20.642989 0.000000
103.820764 50.933782 49.080730
32.786679 90.478807 0.000000
103.387291 46.725894 47.584290
18.954092 54.467055 40.812847
32.098892 39.826137 11.122621
94.813040 92.477613 49.188503
26.805022 45.695403 5.515236
13.134863 64.599106 0.000000
94.432787 64.553236 0.000000
87.290155 22.528189 18.908498
10.831196 63.415658 40.174111
124.514996 66.048148 12.823280
108.960901 47.863689 38.329951
80.475115 19.134514 0.000000
99.389163 60.713722 50.000000
83.040561 89.699608 37.082480
87.887738 37.618397 49.943535
50.806704 40.005093 50.000000
71.627038 78.843995 28.225744
60.167139 8.746082 0.000000
112.219603 56.751574 0.000000
64.659027 22.644270 50.000000
116.791594 74.986298 0.000000
46.059853 25.414713 0.000000
95.778703 66.709709 0.000000
128.509460 76.567412 40.510258
84.898795 20.236963 42.393450
123.141206 64.442036 14.260842
58.668534 30.047487 0.000000
46.907611 94.457110 10.272499
32.918147 47.792097 49.120410
53.016098 88.947472 15.510342
76.864860 10.339865 20.176342
109.933307 77.233664 50.000000
53.045304 28.335569 49.743580
0.368853 75.609770 41.379070
88.452940 94.847423 10.387431
74.671084 7.912566 39.516369
27.104286 77.901281 50.000000
95.026949 31.573358 33.062522
28.987515 69.928006 0.000000
73.161007 32.954296 0.000000
27.039154 99.802253 9.267188
101.283832 38.888346 21.316361
113.350353 93.652205 6.487938
72.149639 18.917238 0.000000
79.902604 77.056775 49.532764
42.891536 86.561334 0.000000
96.253319 75.077709 0.000000
76.046685 11.191403 0.000000
101.789419 63.618516 50.000000
39.932611 62.816475 0.000000
63.278116 26.780534 0.000000
58.359663 59.752417 50.000000
77.239067 77.373076 48.617110
78.365072 85.252664 5.192984
87.607934 22.899707 24.247084
95.028261 57.930259 50.000000
52.277624 55.431941 0.000000
61.235474 81.533886 3.795774
125.698993 67.432372 23.364597
0.654741 74.687989 21.940738
55.063066 51.739613 50.000000
93.729830 87.774113 49.902567
52.135556 63.109213 0.000000
103.183228 51.924890 0.000000
39.475109 34.300407 0.000000
87.605413 94.041324 4.477003
115.179690 76.812492 0.000000
118.342139 78.460320 49.674600
124.639603 75.585376 47.994900
61.180391 73.551629 0.000000
80.451647 73.753859 49.981898
50.872870 32.185513 0.000000
46.190925 45.300142 50.000000
40.829834 93.240364 48.643534
55.598682 86.618072 6.384945
85.007982 20.901278 0.000000
100.889217 102.253517 17.443496
111.835065 51.245909 40.163484
33.155619 105.319088 12.792983
44.063028 50.852195 0.000000
104.255654 99.546752 0.000000
120.433895 61.276890 23.438055
44.144817 52.591606 50.000000
72.628325 6.400378 16.278396
119.195286 88.092982 28.824479
55.294089 14.109827 3.457168
35.975174 69.486445 50.000000
53.275138 46.536491 50.000000
79.803714 67.127069 0.000000
61.224932 38.921028 50.000000
76.031631 61.679908 0.000000
80.982266 70.685878 0.000000
26.429817 99.252653 30.303180
70.792905 47.774687 50.000000
101.312200 86.370665 50.000000
45.990260 32.851596 48.990083
82.424441 83.056995 0.000000
76.531033 10.054447 40.779109
85.426451 20.349313 21.982057
66.414343 68.680791 0.000000
119.211022 59.847216 8.064484
110.271155 69.160508 50.000000
67.868682 48.013822 0.000000
96.623967 33.440448 24.393006
47.447057 76.152893 0.000000
71.139665 59.961837 0.000000
24.668740 71.830134 0.000000
79.197599 65.176535 0.000000
83.105763 89.761624 3.660977
23.194360 77.392936 0.000000
74.294714 7.541575 22.970618
71.795629 79.004345 39.087975
36.745141 103.623298 4.351989
115.305709 91.792430 13.066929
91.450548 97.698504 22.174015
82.032545 86.919789 0.000000
21.074521 94.422366 7.086405
109.750828 88.594848 0.000000
30.824000 59.811409 50.000000
54.766505 26.624270 0.000000
128.503996 72.623693 0.000000
114.769496 92.157862 41.331048
93.829563 68.549781 50.000000
20.691513 64.688785 0.000000
109.111962 88.776431 49.342204
16.984760 73.357802 50.000000
42.779911 27.984185 37.478368
101.608253 67.848242 50.000000
110.272202 58.511901 0.000000
20.580914 54.436391 44.802712
80.199822 44.958815 0.000000
91.866152 27.878036 25.990583
41.095352 29.851841 21.056449
116.094441 56.203587 2.283990
72.718006 39.847160 0.000000
37.310063 98.388469 47.602380
50.356212 19.584407 5.472147
64.332933 5.802221 15.188042
34.138519 105.974379 10.287671
64.587564 6.001814 42.236384
23.454143 86.687283 0.000000
62.115170 65.052164 50.000000
128.590328 72.974708 31.605897
93.322706 85.116809 50.000000
59.628126 61.727719 0.000000
120.155170 60.951030 29.795763
102.549047 84.358422 50.000000
30.037914 72.276132 0.000000
37.659012 102.436293 42.266156
44.786227 64.456057 0.000000
38.593681 69.161038 0.000000
65.905356 22.268259 0.000000
78.362340 85.250066 17.982842
111.258000 50.549252 0.812957
99.125630 96.499197 0.000000
104.457620 64.636328 50.000000
30.017968 102.489038 5.506748
31.440486 40.556105 35.119704
13.415799 86.476716 0.000000
54.654486 14.818948 25.079765
124.700850 82.856539 38.264986
128.112023 74.597409 0.000000
36.620039 103.736136 26.227488
127.643230 78.957442 41.527431
17.479731 83.370468 49.055223
59.715097 21.634872 49.855006
88.779039 66.538081 0.000000
56.270950 86.011711 32.105427
11.244254 69.583193 0.000000
128.377720 77.360021 16.261117
46.264121 95.037516 14.165716
19.203830 66.841022 0.000000
95.307094 81.168331 0.000000
80.912823 42.594591 50.000000
57.686844 21.982932 49.545510
63.907201 11.126063 48.242634
18.450326 92.055435 23.198745
95.445019 67.225854 50.000000
101.937292 56.993707 50.000000
85.169257 20.048624 14.407085
93.653474 82.960302 50.000000
28.322457 91.536831 0.000000
122.242681 64.126645 42.952714
61.655888 81.154687 16.794859
37.082725 34.300605 37.836515
105.294847 100.898284 20.203002
91.895515 98.121720 2.805418
59.293848 17.532493 0.000000
76.114416 38.216250 50.000000
73.028589 80.177036 8.952727
29.117254 43.131852 35.554557
112.527076 52.032943 28.992486
41.098457 99.696761 32.954577
74.189785 81.281471 3.314655
56.017213 63.114202 50.000000
22.038213 95.291582 27.907345
18.553068 54.844272 2.188165
53.486653 53.004253 50.000000
66.386650 5.265057 6.904099
66.090335 42.740761 0.000000
64.768313 7.329571 45.342576
71.699368 5.965109 12.653235
106.320818 44.777141 36.022591
103.618156 52.942614 49.606364
73.659173 80.776796 35.381082
97.513878 101.881159 3.459876
81.593906 86.212867 45.292562
58.176123 10.914541 31.810203
30.074537 89.463631 0.000000
34.073441 71.604464 0.000000
37.248435 34.116884 20.523357
91.352224 70.715936 50.000000
128.648352 76.150343 20.007171
123.086836 83.304844 43.844352
98.365083 73.975373 0.000000
92.173356 65.503736 50.000000
109.735558 86.738044 49.658006
127.194876 70.534811 0.000000
98.478668 35.608799 10.646523
28.313875 72.044857 50.000000
34.893969 99.889726 47.969811
97.235712 101.783408 13.592328
128.720972 74.475329 40.336271
65.386631 77.789689 35.227007
14.638126 88.616966 17.371327
127.797883 78.931193 7.794144
51.200710 60.763670 50.000000
86.734702 57.252015 50.000000
111.615515 95.302241 12.157916
114.735672 56.072048 0.000000
85.087693 43.897930 0.000000
83.051248 74.489235 0.000000
25.063509 61.915355 0.000000
4.908042 78.694884 43.994506
40.017685 52.122353 50.000000
52.908269 16.754964 15.721140
114.858382 58.466300 46.498414
42.636599 78.152844 0.000000
101.687918 102.156147 31.723337
9.289863 83.793022 16.288557
105.822782 44.194880 39.234671
102.536850 79.981534 50.000000
123.168577 84.313913 22.219823
13.049782 87.184335 36.364504
111.450602 85.584396 0.000000
102.659008 101.990484 29.832633
38.993022 66.862465 0.000000
54.223906 87.858072 24.955819
47.963906 64.095431 50.000000
43.934723 47.580114 50.000000
86.224996 38.688721 0.000000
31.533845 40.452599 17.952338
106.868875 99.772641 13.550814
127.642642 79.293624 37.670721
123.231237 64.547292 20.486261
30.236219 64.515928 50.000000
3.612436 71.408819 32.162457
106.108648 61.397914 0.000000
85.071901 76.419506 50.000000
73.469119 46.786472 50.000000
23.210812 49.680272 7.663622
120.474774 86.876038 15.677701
22.335273 66.375294 0.000000
80.120680 80.336044 48.512654
57.579802 23.109662 0.000000
73.197567 70.177327 0.000000
60.017197 71.852217 49.783729
63.703612 79.307712 34.375534
84.582157 91.165850 37.231226
128.468290 76.955190 0.262645
115.124518 63.160796 0.000000
31.956000 104.237074 0.050099
22.958917 75.444709 50.000000
46.148271 73.568760 0.000000
65.151299 9.400920 47.706921
87.493323 22.765715 37.774998
17.346986 91.060261 38.138616
60.994286 7.893962 24.153952
70.819954 27.944301 0.000000
83.645287 18.266934 14.381074
53.729873 79.520399 0.000000
41.901493 88.886828 49.646481
99.707711 84.960704 50.000000
88.745996 95.126154 35.033632
44.777215 25.769791 37.182134
20.063204 53.169998 19.953194
82.363468 23.720007 48.323187
53.920624 88.131621 6.765762
52.488215 89.423603 26.216317
48.007049 60.476781 50.000000
78.951828 85.810739 7.900352
106.627167 45.135296 8.077754
75.987477 11.307671 44.905819
95.120477 71.338161 0.000000
49.245434 40.833187 0.000000
100.828052 101.488947 43.772404
89.594882 77.132507 0.000000
72.774734 20.320583 49.964631
66.375822 29.640712 0.000000
83.798517 18.446077 25.186027
50.424956 76.919355 0.000000
88.417255 38.365249 0.000000
20.443947 53.176062 42.344579
101.014732 38.573738 7.761422
113.707372 65.548649 0.000000
45.645760 69.104167 50.000000
106.204815 100.305114 15.801699
28.184321 58.446101 0.000000
34.860727 57.922331 0.000000
92.043827 28.085758 22.131302
124.578906 82.972523 20.636218
21.958702 95.219866 1.875968
109.726904 48.759232 4.659784
117.887472 58.299839 12.391981
28.963575 43.302235 17.271769
104.074282 68.149262 50.000000
89.909986 96.233246 9.969747
95.063535 31.616130 29.276271
20.196977 62.742572 0.000000
71.104428 57.531186 0.000000
117.860293 62.512928 46.847506
18.995686 54.980957 42.848786
35.401343 104.835356 12.433319
61.407371 31.550009 50.000000
86.597178 21.718021 28.560755
114.421270 81.667132 0.000000
85.097496 66.529389 50.000000
108.314878 98.441537 25.632662
53.164599 32.415607 0.000000
39.871017 31.209250 32.545260
80.367314 62.456054 50.000000
12.785618 61.238593 13.464507
24.223684 53.893126 0.000000
30.179615 81.087537 0.000000
77.368402 14.484043 0.000000
43.288892 97.721067 28.451897
54.195604 62.444885 0.000000
65.286854 5.514099 4.306406
34.587620 99.309863 0.000000
78.967454 68.581841 50.000000
97.989620 36.940925 44.780802
102.151776 99.296663 0.000000
71.670030 38.754378 50.000000
123.403744 84.090240 13.062431
71.750291 30.863208 50.000000
111.853042 51.244922 10.923605
94.717558 50.931217 50.000000
85.781419 44.583744 50.000000
95.472477 68.947817 0.000000
125.834726 72.446470 0.000000
45.519346 88.164633 0.000000
80.700262 87.473707 6.503725
40.858026 99.913622 11.670434
29.428470 53.075027 49.503949
105.014685 43.250126 37.272649
39.247318 63.663323 50.000000
46.474243 93.303113 44.637323
37.127478 55.661137 50.000000
101.314914 38.924685 16.671592
45.026925 25.492941 34.490904
48.959022 24.340337 46.182532
91.979641 98.201733 28.116662
42.977301 62.702178 0.000000
115.412018 55.405760 15.974018
115.870338 91.255401 29.952490
116.855735 69.828472 49.849319
82.356265 17.539630 43.060960
81.795096 46.326347 0.000000
62.328628 46.806316 50.000000
75.796106 9.090373 19.028763
91.306610 97.561602 30.042497
119.186158 80.333128 48.983523
77.808371 11.442933 27.200343
76.969368 83.925184 21.673460
120.122800 87.066862 41.325291
124.108120 65.777901 41.526345
11.040550 63.173334 23.628114
112.665139 77.414678 0.000000
72.266963 6.720777 42.830484
115.375024 88.516895 46.410096
12.999741 61.001196 15.550221
69.829243 76.078592 0.000000
95.981162 101.303296 6.618170
50.890858 90.864363 4.248128
10.198029 64.107430 16.138162
68.748299 13.297089 0.000000
97.155990 35.244982 43.775304
33.369549 43.154881 47.294848
70.288627 5.558680 40.690938
63.662292 45.849138 0.000000
64.663335 78.442076 2.622761
30.556836 92.095647 0.000000
117.246440 89.946565 12.345911
102.986754 40.879251 10.178532
92.051452 31.595854 46.336810
48.100331 93.381319 9.014527
11.353070 78.883617 48.675139
71.613490 43.474908 0.000000
95.678419 47.960962 0.000000
118.372930 84.130148 0.000000
10.347223 84.746723 11.544241
28.848562 43.513380 40.866369
36.975378 34.419620 35.231242
32.247938 76.372192 0.000000
51.185774 90.598359 9.527505
114.655891 54.521764 1.981629
20.641693 83.968433 49.650220
39.294168 93.438718 0.000000
103.403047 41.365942 12.888763
20.568181 52.610134 32.670080
111.989258 51.404174 35.060118
79.573155 49.837045 50.000000
85.402819 20.321684 7.504528
74.963272 25.858932 50.000000
75.266597 42.946413 0.000000
118.972628 59.568506 13.627021
47.791720 93.659675 1.744146
69.347094 76.675498 8.902280
81.709687 88.433789 14.684714
58.515930 67.654551 50.000000
128.368943 72.058889 33.428257
64.233276 78.829974 14.673424
64.868672 70.802057 0.000000
9.391404 83.884608 32.659895
32.254026 42.404312 45.773374
77.389901 40.934379 50.000000
57.840874 16.109815 0.000000
6.280063 81.078289 38.624883
56.573935 12.690872 32.570390
36.379075 35.080735 15.768921
117.865536 58.274193 36.901903
6.378316 80.253181 43.600023
63.242389 6.278634 6.031136
27.960256 44.829137 42.295302
21.109004 94.453468 3.715237
24.417261 50.230401 44.861103
80.971075 15.140485 1.856915
84.127676 18.830901 33.184495
69.653580 42.491633 50.000000
109.919816 56.244594 0.000000
66.334586 5.268804 38.503500
77.473988 45.330626 0.000000
27.969426 44.404439 33.001006
101.717002 102.151186 24.129168
81.981383 63.714874 50.000000
66.855693 38.862976 50.000000
46.977427 65.710633 0.000000
42.791484 98.169711 32.099479
96.675190 83.009112 0.000000
90.695139 26.508991 5.673588
126.300206 74.067218 46.499090
2.952173 72.140846 5.539476
128.555356 76.566018 8.934684
27.602119 66.193164 50.000000
115.951143 64.556936 48.911416
55.187982 73.262167 0.000000
97.134529 71.588774 0.000000
63.124434 79.830110 3.573277
47.853008 22.359687 29.893828
73.745162 13.167132 48.106030
10.545716 84.925757 39.841777
114.894543 67.189783 0.000000
100.257515 51.964170 0.000000
59.921767 64.095721 0.000000
61.728175 7.233256 21.906960
109.708668 48.737912 6.688555
107.319329 52.716315 48.241328
102.091203 72.700171 50.000000
97.778152 45.381331 0.000000
113.270007 52.901511 1.085639
66.407857 76.868579 22.704471
107.770586 98.959223 4.668151
77.127703 22.276003 49.659252
99.870917 37.236492 9.668773
74.072925 62.734840 0.000000
59.047408 55.764285 50.000000
115.115136 55.058672 18.722776
74.960860 82.014855 18.612185
111.116062 50.383311 6.148097
61.277560 7.629062 26.238038
45.101686 28.990442 0.000000
87.462202 22.729330 14.614947
32.135205 39.785876 37.600261
89.063316 85.934204 0.000000
51.824298 25.248264 48.584686
47.661393 57.484951 0.000000
95.880899 32.571719 12.178115
2.325220 77.511161 31.806023
9.679402 79.864827 47.299624
69.227545 56.345924 0.000000
58.069475 76.098100 49.213217
84.399030 19.148143 39.662473
23.405155 75.093170 0.000000
7.476474 80.103007 45.288461
14.164819 63.418847 46.585764
6.242119 81.044065 16.013765
104.340734 96.421805 48.142265
58.199224 84.272475 25.165397
104.651242 42.825221 14.040776
96.042560 101.337390 28.767327
61.808549 81.016992 9.281860
99.012208 70.846014 0.000000
120.952845 61.883599 2.481052
81.652396 55.243347 0.000000
44.300714 96.808439 24.048838
12.271942 61.808100 38.498203
96.633456 89.886287 0.000000
102.488863 61.465082 50.000000
45.678962 95.565308 17.633260
31.809040 104.104522 10.139413
13.058041 69.875200 49.139304
126.386809 76.393938 46.173569
105.658195 79.735335 50.000000
55.250297 43.504102 0.000000
42.425667 63.574826 50.000000
10.798361 63.441847 25.801400
58.847281 13.731619 0.000000
71.381067 59.327334 50.000000
106.536694 66.585508 50.000000
87.565678 94.003532 12.117756
50.928187 63.257669 50.000000
96.879804 101.519772 41.499607
31.802463 40.154785 3.496425
43.677752 97.370329 19.549980
68.444194 69.195235 0.000000
95.757202 101.178931 22.604865
89.684267 60.354606 0.000000
80.331943 60.015741 50.000000
128.634651 73.351017 28.436946
70.440080 52.636832 50.000000
56.357386 85.933748 38.643689
75.892672 64.693644 0.000000
121.583870 67.413276 47.203106
108.319178 47.113444 13.051435
57.873415 83.793237 43.336011
83.680427 33.233076 49.973874
68.178325 55.876915 50.000000
27.586332 82.724416 0.000000
118.669151 59.213708 20.051374
105.749918 77.052746 50.000000
31.725666 84.450060 0.000000
78.968226 85.826335 36.348769
96.433180 33.217396 32.255100
98.472160 35.601190 30.099829
79.033724 85.888632 15.895479
25.462926 81.128664 50.000000
50.042214 65.311586 50.000000
14.513281 88.504360 3.992910
14.525417 66.131558 0.000000
61.879602 80.952905 11.347670
41.885769 49.307429 0.000000
60.520607 47.499285 0.000000
85.849151 92.370911 3.269243
19.532105 56.086886 0.000000
18.482196 59.697615 47.317875
64.541430 5.711137 8.344682
24.459457 97.475458 35.444800
30.774996 41.293928 12.636967
72.147628 50.988738 50.000000
3.985100 71.166577 41.486847
34.660141 105.503894 26.784930
36.710711 42.367832 48.729120
58.534121 78.770364 0.000000
29.817193 87.598939 50.000000
104.177513 42.271379 17.125931
68.075586 25.127701 0.000000
63.980046 35.342513 50.000000
86.758677 21.906832 26.237500
127.247835 77.326648 44.515619
43.208158 68.007265 0.000000
8.152786 82.767419 23.051150
75.998443 54.862114 0.000000
78.934007 71.870910 0.000000
38.108889 102.393246 23.527510
111.112976 50.379703 26.919815
73.133603 6.745926 40.347273
3.586878 71.437155 14.292623
25.186723 98.131427 15.181141
85.027787 85.761576 48.155915
91.844737 49.385044 0.000000
83.309342 18.050346 41.308886
91.358605 85.603241 0.000000
63.986754 5.953452 1.907982
87.367300 77.419499 50.000000
104.830934 101.155895 17.858857
68.741130 76.099154 1.961001
28.418323 85.304301 50.000000
94.167267 100.165137 27.834667
36.576003 67.370587 0.000000
112.129441 83.154708 0.000000
41.254470 99.556043 37.507891
75.782497 9.074463 16.569496
121.092189 70.906602 49.014233
103.134644 95.077218 0.000000
38.894153 86.594624 0.000000
109.038743 97.753056 19.102516
8.935211 69.274056 0.000000
79.577194 29.813230 0.000000
124.701983 67.043103 43.052806
12.233224 61.851027 8.168573
14.534195 88.523224 35.557369
31.036141 58.577952 0.000000
91.717879 27.704689 13.164102
13.499294 60.447347 29.811022
72.217617 24.917645 0.000000
84.478687 81.814186 49.439985
97.111076 52.202482 0.000000
112.967991 75.376488 0.000000
114.780701 54.667680 14.165164
83.045711 17.565964 17.597329
76.252776 60.454031 50.000000
117.928431 89.297911 14.191528
111.860732 64.683083 0.000000
85.425489 83.294370 0.000000
120.846095 61.758797 17.532591
65.059558 74.789248 0.000000
31.641810 98.240832 0.000000
105.296403 78.808280 0.000000
104.757982 81.558416 50.000000
36.528533 94.829845 49.424256
98.363158 102.071605 23.601783
49.902099 84.050092 0.000000
74.715381 21.331266 49.893082
116.673806 56.880929 19.088385
80.763132 41.298749 0.000000
44.312101 26.285459 5.108140
28.508335 101.127403 5.209100
114.559143 68.018466 49.899077
44.732794 96.396882 40.371379
113.428199 53.086456 16.528596
44.024857 97.057252 30.219483
113.350901 69.833288 50.000000
110.288149 96.564723 20.511273
73.731655 80.845735 33.275949
86.185592 21.272447 40.264609
107.163160 99.536671 39.105848
92.967474 99.141280 0.821113
81.970822 16.309300 25.238170
93.250686 29.496709 18.165336
54.760391 14.825324 40.988471
37.617013 37.273185 0.000000
96.830583 86.304902 0.000000
41.564608 99.276309 13.832404
109.510794 97.304079 32.249393
73.316830 36.177948 50.000000
50.869773 90.883381 11.969725
107.686045 79.686419 50.000000
13.829342 87.887471 6.583492
108.948377 97.839004 1.583533
26.471283 91.888139 48.901929
25.190596 95.537294 0.000000
116.154552 56.273864 21.151093
48.861295 21.241808 12.915409
100.766558 94.063508 49.819245
110.157706 96.688790 26.008264
107.476081 90.670560 0.000000
52.410219 77.871369 0.000000
102.473765 102.022086 39.759707
107.978622 46.715296 39.729010
37.563339 77.118650 50.000000
108.498588 98.266807 38.082517
90.853314 71.945469 0.000000
123.203580 77.064530 48.634979
20.047437 53.187478 1.819219
119.681222 61.012009 42.661598
34.179454 70.651234 50.000000
33.870780 55.102222 0.000000
96.734922 96.339444 0.000000
11.930495 86.174779 10.662179
52.786400 50.851614 50.000000
81.816612 88.535488 28.426641
15.179564 89.105324 33.267684
10.746629 77.661399 0.000000
70.930082 68.067600 0.000000
73.134841 28.840440 0.000000
80.996109 16.988613 44.662293
120.779517 86.586191 29.311875
113.930748 93.100180 38.638407
12.242394 86.456101 20.752721
53.679665 48.874115 50.000000
41.439183 32.925898 0.000000
34.936645 36.679945 30.406393
125.046115 74.459152 0.000000
59.710830 46.028090 50.000000
93.831366 98.555058 44.379392
84.140709 90.370751 42.196667
128.056079 78.300856 2.294794
44.884327 77.960990 0.000000
69.592077 18.595100 0.000000
83.800715 60.781377 50.000000
36.306036 104.019355 35.257612
33.269087 96.475045 49.414716
18.153372 91.787593 30.855515
69.976999 5.410585 13.604430
22.089719 55.365101 0.000000
90.379245 64.285826 50.000000
90.006118 25.703450 21.454459
39.412875 38.330538 0.000000
68.031326 75.424046 19.094023
34.711186 66.254870 0.000000
33.979957 106.062612 35.623554
43.900193 97.169695 16.851939
26.172117 46.397100 31.701271
56.871611 12.360842 38.654377
78.019133 11.841888 41.133408
15.533619 80.987787 49.260159
108.143824 46.908436 32.070231
104.932440 99.350299 45.278483
127.608824 79.347872 34.317907
66.933608 76.394370 35.623201
110.593427 80.711595 0.000000
77.723824 84.619881 40.189499
46.910728 78.369244 0.000000
42.421501 60.513130 0.000000
14.505449 78.372404 49.662438
74.700296 19.213625 49.620157
119.435532 82.632797 47.831332
43.595808 97.391674 0.000000
86.738100 23.365659 44.193964
87.000523 63.836935 50.000000
78.117400 32.815202 0.000000
16.961697 90.712745 2.246219
47.066536 70.518840 50.000000
73.437057 44.756737 0.000000
51.935722 80.925888 49.431470
25.173691 84.842383 0.000000
32.926814 105.112714 33.956735
39.364252 31.771096 21.569665
80.867133 87.632421 26.404321
101.554611 39.204916 38.591742
41.667934 80.460056 0.000000
110.868418 50.093788 24.352260
87.218123 22.443975 33.709686
58.897406 80.834447 0.000000
69.271424 40.039390 50.000000
49.621115 58.837506 50.000000
120.421437 61.262325 11.854463
117.651294 71.051332 0.000000
42.858629 27.896912 24.004613
98.579082 35.726194 21.410668
67.390223 54.046146 0.000000
45.975207 24.441588 19.275451
61.091131 42.640377 50.000000
45.106456 96.081688 3.901498
44.701933 36.210675 0.000000
18.198214 82.736184 0.000000
35.141742 49.014958 49.869176
92.889357 30.863633 44.621169
57.868456 63.910488 0.000000
60.798775 53.699416 50.000000
112.165458 94.779180 9.891409
73.696542 11.139537 47.015809
21.763677 73.834803 0.000000
106.669821 59.464252 0.000000
42.245492 73.617081 50.000000
101.538877 70.901488 0.000000
81.624520 15.904434 21.115350
46.806629 63.669078 0.000000
19.401935 84.472205 0.000000
0.433836 75.805199 8.622305
103.290966 93.734513 49.497894
50.220811 19.734525 18.879150
101.115699 102.253517 35.885059
16.933689 56.639664 19.151113
2.607661 72.522804 27.677086
118.626010 88.115201 42.636134
70.177929 53.564368 0.000000
79.288291 40.161516 50.000000
86.778846 68.226690 50.000000
103.904830 59.139728 0.000000
56.556673 20.465165 0.000000
56.358661 68.246751 50.000000
25.333752 98.264042 33.419818
94.012871 100.041336 33.492150
46.486331 44.759716 0.000000
100.567371 83.322550 0.000000
56.941614 25.546382 49.904831
112.020862 94.916708 7.826085
69.943826 25.936265 0.000000
52.351517 17.372230 26.157796
30.794252 77.920430 0.000000
44.562069 96.572706 26.437262
98.532207 102.100444 39.224788
63.344577 6.233992 3.994039
100.505168 100.741407 0.000000
35.315825 85.548538 50.000000
80.690965 31.138845 50.000000
60.451200 8.401822 28.850256
62.224502 80.641817 5.732427
57.980517 65.092103 50.000000
22.283937 95.513216 16.979112
49.829299 86.980749 47.678182
37.190894 94.233480 0.000000
127.940108 70.794083 35.983624
119.555674 71.875318 0.000000
101.890191 39.597247 14.100033
63.403474 79.281427 42.054432
82.395055 44.701067 50.000000
73.149817 71.041932 49.439264
84.587536 72.894423 0.000000
2.706006 72.413770 12.749257
66.979353 76.353110 33.134140
65.920479 5.357790 16.749975
25.034234 47.658660 26.115891
94.074413 94.259562 48.205804
99.499325 49.450958 0.000000
111.043251 95.846531 14.514108
63.061635 74.636452 0.000000
117.005755 82.563766 48.934116
45.869087 95.393822 20.374603
77.409659 78.588987 0.000000
39.638708 100.984823 0.000000
21.824092 51.217717 28.476527
49.102325 70.602390 50.000000
15.741288 89.333891 41.993264
88.770374 52.227258 50.000000
66.500882 45.049343 0.000000
0.793803 76.129877 20.163251
43.820353 97.241708 8.458544
51.320415 30.925029 49.856115
95.954866 101.288694 9.038505
42.256515 51.257594 50.000000
97.131874 92.355175 0.000000
78.119789 56.798212 0.000000
54.659641 47.666177 0.000000
86.165228 21.213024 37.892121
104.515132 42.753091 40.646381
113.047687 52.641595 11.743363
89.641396 77.655838 50.000000
100.956743 59.234996 50.000000
44.284914 59.096834 0.000000
126.180892 67.995765 6.388340
54.521716 75.213588 0.000000
74.948510 31.079376 0.000000
89.092957 74.949802 0.000000
22.508387 95.715662 4.500361
114.377931 73.519600 0.000000
41.281992 29.644914 14.025304
62.413095 80.471713 25.923938
33.802518 105.902568 14.653359
127.412767 79.662372 9.726588
93.483897 37.304042 48.588543
6.508255 68.791295 0.000000
109.953064 71.337071 50.000000
86.073152 21.105377 20.131911
40.090898 77.998098 50.000000
71.969011 62.047060 0.000000
48.986098 64.081791 0.000000
25.210050 98.152467 9.854137
27.022895 75.533911 50.000000
119.451114 73.236276 49.870561
100.383689 37.835979 12.020021
109.750295 79.263881 50.000000
76.013306 80.208759 0.000000
108.318607 75.651967 50.000000
112.561258 58.868128 0.000000
36.402815 72.957056 0.000000
128.186809 75.936801 42.995939
46.494251 80.330661 0.000000
69.860472 49.693061 50.000000
60.230788 28.795575 0.000000
67.282208 71.189204 0.000000
10.472704 75.669571 0.000000
84.320985 56.266672 50.000000
37.406027 61.138101 50.000000
99.566809 102.253517 2.373800
72.382245 56.306430 50.000000
23.906182 96.976423 16.569751
49.132564 41.116733 50.000000
95.953080 90.659922 49.826621
42.452685 53.961482 50.000000
114.890011 54.795476 4.462138
99.927162 37.302249 1.897781
91.385030 58.585560 0.000000
61.275442 75.862466 0.000000
128.101123 71.147833 16.373135
60.024022 81.824553 43.398363
23.689991 49.688712 42.638792
28.126219 68.006009 0.000000
43.788979 26.865441 35.393567
52.497353 26.149283 0.000000
24.759017 47.963791 18.971325
94.683062 39.617750 48.888852
37.197432 47.375938 0.000000
77.803690 63.423325 0.000000
66.444661 61.513271 0.000000
34.773081 47.404999 0.000000
