74.686617 7.927877 36.666748
23.111380 81.926268 0.000000
37.399287 103.033282 31.747606
108.953968 47.855584 2.054943
114.174356 79.198815 0.000000
128.696129 75.528303 0.278422
51.002437 78.025620 49.957434
66.690161 35.630686 0.000000
64.298089 78.771515 12.272829
14.111532 86.199319 45.161407
36.639493 34.792013 8.864042
9.667182 64.695975 32.665418
39.143845 63.098682 0.000000
13.641780 87.718297 27.654822
56.358503 12.929720 19.928310
107.132318 58.057502 0.000000
88.395423 51.600138 0.000000
95.378288 77.863820 50.000000
123.815168 65.229972 21.475982
105.407169 81.475109 0.000000
48.395050 21.758730 33.285194
108.615216 98.155880 33.173367
88.467598 59.182317 50.000000
30.109381 102.378154 41.672923
53.504996 26.199009 49.461869
20.667872 90.196546 46.977960
87.027100 88.601999 47.633556
8.638246 65.836747 28.370104
9.209010 65.203947 11.752387
39.503838 31.616338 35.568964
81.421920 63.959120 0.000000
91.361193 59.199789 50.000000
68.019756 41.635501 0.000000
7.461619 82.144011 4.993342
110.873368 67.452190 0.000000
121.645680 85.762367 32.261676
32.175712 39.740966 3.268510
88.372480 90.087968 47.496692
50.045789 22.652399 0.000000
128.335205 71.944119 11.187021
57.991507 84.459829 2.491299
107.689732 99.036124 39.129291
55.231666 14.179034 15.573714
109.123368 48.053632 10.367476
19.193964 88.407006 47.322291
62.587198 80.277858 0.000000
105.798263 44.166216 10.247757
23.343862 49.532761 19.091845
40.043062 77.498054 0.000000
61.037071 77.179553 47.472037
72.166585 16.227276 0.000000
23.136212 67.160366 50.000000
42.861836 66.364903 50.000000
119.901697 77.646728 0.000000
51.551720 63.212674 0.000000
61.135295 32.727623 50.000000
116.598230 90.563090 1.828455
75.764186 54.391146 0.000000
26.870698 76.889387 0.000000
110.947103 95.937979 5.855434
41.065339 33.079275 0.000000
73.017360 80.166356 34.344373
51.024670 90.743669 2.383526
81.616910 15.895537 38.927195
37.822016 33.480959 3.696756
102.426220 40.312462 0.000000
95.214669 31.792823 15.073980
27.252931 99.995073 14.076161
80.520249 70.267726 0.000000
78.628212 12.401418 23.090568
56.591099 12.671843 0.921858
100.518991 102.253517 14.847208
7.305284 82.003002 25.749282
57.674758 84.745525 33.115091
51.275674 33.466030 0.000000
112.390556 94.375868 41.647947
90.092169 25.804054 36.769474
12.165823 61.925754 0.006905
85.313997 21.999467 44.610391
95.662076 101.126107 17.656007
41.984520 98.897564 18.598247
95.151211 31.718633 25.472347
71.558999 78.779281 36.212776
125.822518 79.462380 0.000000
93.086713 74.102871 50.000000
19.180448 54.148701 2.561936
101.452976 45.987229 48.300191
114.634840 65.088926 49.478627
39.199812 47.582381 50.000000
51.898274 70.074978 50.000000
30.559358 77.268127 50.000000
25.483490 98.399099 30.010497
88.265896 23.668938 3.619371
58.546119 52.229248 0.000000
94.016337 92.710003 0.000000
78.060270 62.100450 0.000000
65.970818 67.592031 49.578399
60.369735 22.906079 0.000000
73.721131 7.118090 21.685299
21.085478 52.036611 12.258401
113.459657 93.548243 7.013848
73.114503 6.779505 40.788595
122.145492 85.286987 20.189481
19.862471 53.392549 25.914081
106.323289 44.780029 29.509606
104.831654 88.864500 49.948059
44.457907 26.123806 25.016483
17.013564 61.355504 47.336055
10.553483 84.932763 12.944482
91.647447 27.622345 14.016240
124.691907 82.865045 38.013449
47.453016 48.328331 0.000000
97.567393 61.258824 50.000000
58.557502 65.630498 0.000000
43.937269 68.789113 50.000000
90.193718 76.497459 50.000000
101.588193 39.970652 42.931827
11.923476 83.462914 46.004208
88.185924 92.243823 45.558842
104.195937 42.292919 17.911411
101.039842 73.613075 0.000000
88.002136 23.360573 8.252803
127.266035 79.897748 23.110453
119.048663 59.657399 26.255325
4.731082 72.937959 0.000000
107.764059 62.778618 50.000000
16.264256 90.083677 33.382783
62.850877 6.585635 40.871735
96.042521 76.743359 0.000000
80.864840 31.709274 50.000000
58.881101 15.792695 47.831208
80.692675 14.815004 28.280297
103.134105 56.401634 0.000000
84.858060 31.928882 49.766407
18.688658 75.472657 50.000000
50.575136 26.981099 48.723539
53.181379 33.406238 50.000000
52.676095 83.405352 0.000000
56.989403 18.634729 48.198873
68.321520 32.017168 0.000000
81.653556 83.083146 47.868452
9.334338 65.283491 41.703064
63.522765 32.392890 50.000000
46.811408 30.869554 48.612325
76.990806 68.435511 50.000000
94.203504 30.610658 4.269867
1.352608 76.633899 12.352495
31.423509 92.072379 49.885821
104.634394 91.019521 49.761043
57.704017 25.113314 0.000000
20.926808 94.289134 9.670070
79.914197 13.904877 26.400079
66.097744 62.094321 0.000000
17.272881 90.993421 6.860045
108.394451 47.201447 4.341721
94.135679 92.562416 48.958812
107.366395 57.082126 49.564112
76.417236 65.831123 50.000000
2.491578 77.661210 10.537047
76.609521 10.041345 27.554110
48.930929 78.514697 0.000000
116.940859 57.193144 2.252200
18.025454 88.214356 0.000000
46.014290 76.319930 50.000000
112.465062 51.987890 40.203934
24.431170 89.433796 49.117374
108.620213 53.834440 48.058019
126.381280 76.204917 0.000000
24.424940 97.444325 14.955957
45.652735 24.799111 15.979871
15.384906 58.356785 30.052912
126.424239 68.294498 5.271786
80.781373 28.210074 0.000000
77.331021 84.269159 27.608270
102.997046 67.778117 0.000000
36.899420 89.917320 0.000000
114.863412 57.207064 45.354201
67.128778 64.808772 49.879722
71.491175 26.814885 0.000000
49.172302 77.023448 50.000000
36.874293 98.758492 47.618178
128.198406 71.478766 29.598547
94.205857 100.196080 19.304166
62.621360 80.283865 22.173791
70.441171 77.716095 6.020956
96.763437 63.034805 0.000000
125.291299 66.955733 23.260430
67.129758 76.217450 12.404850
86.726810 21.869576 6.028439
70.589376 5.578858 10.076669
105.707605 73.017952 0.000000
92.802131 98.984019 18.168313
72.732075 59.872080 50.000000
42.645969 28.132685 23.630229
85.761653 92.287690 17.399550
127.571792 70.040451 15.614183
15.202611 89.126111 37.864770
82.236571 88.934918 14.341784
14.717718 59.102253 40.098213
113.300523 52.937188 37.963372
126.969027 80.374186 14.216620
109.829473 86.514068 0.000000
85.623263 92.156064 0.063515
111.806072 91.271512 46.918705
70.055186 64.636302 49.937971
91.219944 27.122546 17.226510
113.160703 68.592017 0.000000
27.655829 44.752121 31.288455
25.648118 47.247106 0.000000
82.544617 76.814483 49.920891
4.679266 70.226034 28.914732
48.425102 87.967464 0.000000
34.884907 36.737306 9.057054
79.700514 56.837215 0.000000
69.606248 5.315143 28.563360
10.904781 63.323861 38.764331
125.948939 69.086447 43.952329
47.560555 85.585441 0.000000
93.050889 29.263124 30.134433
0.128988 75.530237 23.768055
103.877850 41.921040 35.764067
71.920314 79.122935 4.054061
39.557647 98.529682 45.854875
37.615221 51.882277 50.000000
122.336475 85.105340 37.838853
33.660128 38.095207 4.542706
67.582112 44.969574 0.000000
24.078884 48.717849 21.217150
70.816827 5.641359 17.602359
83.877747 44.640512 50.000000
45.503795 95.723303 18.348055
6.582443 78.464758 0.000000
48.441283 21.707472 19.412543
92.700516 28.853499 3.658916
42.269556 95.060995 0.000000
58.193023 14.876664 0.000000
10.403704 63.879399 8.063523
22.274261 95.504489 8.780939
31.668679 103.977921 1.986956
76.505761 9.920038 9.481235
120.480960 86.075875 0.000000
76.486045 9.896988 25.561712
85.718724 44.013611 0.000000
28.485463 75.044804 0.000000
25.907016 49.821932 46.117411
2.775685 77.917464 22.517448
2.135013 73.046825 6.135755
46.022717 54.573378 0.000000
67.745391 12.023556 0.000000
90.232098 54.212756 0.000000
79.575392 47.316984 50.000000
53.895010 51.887020 50.000000
73.795692 7.170002 19.540292
40.717146 100.040690 28.971349
46.608261 87.379469 48.886062
73.692097 8.725265 0.000000
46.946050 52.657277 50.000000
35.769830 104.502994 10.227859
21.093747 76.089681 50.000000
80.015864 55.692259 50.000000
29.015158 67.213780 50.000000
10.900993 77.104000 49.165105
91.006906 27.368497 42.370343
109.305635 69.404079 0.000000
65.481380 45.409559 50.000000
32.244645 39.664542 18.581148
101.827522 85.329013 50.000000
66.355501 55.736733 0.000000
8.006189 66.616480 40.961659
83.483570 90.120962 30.948961
26.714449 89.385891 49.655789
8.581877 65.899244 31.167958
107.349919 45.980273 30.934535
28.896764 45.882956 45.522213
88.187138 94.594614 14.722648
5.018408 69.850030 17.960518
28.244366 100.889312 10.837672
25.547002 47.090159 16.711294
98.394526 102.076957 2.783053
92.993831 99.166349 12.312101
26.727391 65.710164 0.000000
40.014675 31.078046 40.360879
86.089746 92.599745 34.170990
98.315387 35.417905 11.891678
24.382591 48.381131 38.875645
58.706549 81.206314 45.910576
30.280539 79.197537 0.000000
97.087804 86.017391 50.000000
48.897682 22.343300 43.792069
103.634277 41.636276 22.253588
72.233897 13.355542 48.883805
21.360499 82.419168 49.929575
39.301282 89.921855 0.000000
69.541598 71.683171 47.800448
33.112562 68.304917 50.000000
87.083196 66.212979 50.000000
55.569814 14.357436 0.000000
83.516754 84.593041 0.000000
98.777358 102.142266 8.232303
23.504412 96.614041 6.353622
57.507008 84.896830 5.558346
78.465648 16.473157 0.000000
96.547784 81.456195 0.000000
52.963168 88.891893 41.147391
40.790373 99.974642 20.016529
97.529262 96.982913 0.000000
56.504568 85.800995 15.531170
118.474534 88.778503 34.406060
63.506146 58.169087 0.000000
121.701459 75.115433 49.517619
28.190428 86.236837 0.000000
16.367280 60.894503 0.000000
57.577318 11.578430 18.338173
16.987935 90.736410 36.196935
49.112110 85.060306 48.909715
86.507369 46.401999 0.000000
46.919158 23.395038 14.143982
30.124764 42.014835 6.587200
110.293348 75.948114 0.000000
50.636809 73.274215 0.000000
30.330735 102.771143 23.457721
48.443379 73.504653 0.000000
48.692808 92.846926 2.831302
110.998842 50.246268 35.039806
46.373203 32.119668 0.000000
114.610952 54.469225 18.791959
5.660985 80.519903 13.335010
77.307984 76.478299 48.983942
93.341171 99.496710 10.128284
94.526313 44.341284 0.000000
78.037734 84.941326 39.614642
32.906972 75.467520 50.000000
90.393421 56.549203 0.000000
51.156135 90.625092 29.306509
107.271876 52.605429 0.000000
124.244078 83.290983 16.403183
41.168029 60.692643 50.000000
58.627667 83.886035 20.698601
57.564360 84.845100 12.689594
90.696577 26.510673 12.504781
61.692505 37.564824 50.000000
68.051634 15.225165 49.988880
3.173711 71.895230 21.775891
39.748010 84.301537 50.000000
5.831174 80.673407 25.458951
98.483522 73.280893 0.000000
43.925412 26.714178 20.709082
88.108063 94.519404 9.255170
20.226789 52.988632 38.361960
80.067077 14.083610 17.576671
121.975880 85.448308 4.850657
81.175403 84.982803 46.162669
77.225691 33.961129 0.000000
103.399691 101.752219 6.767737
38.714501 36.256343 46.626289
122.729584 84.731446 22.706620
25.633742 75.161243 0.000000
95.170794 90.954059 49.645489
58.782135 44.993850 0.000000
74.294713 81.381270 0.634420
111.606167 50.956299 31.043864
40.660452 100.091826 12.175350
96.791765 50.473231 0.000000
59.834969 25.464575 0.000000
87.126524 27.122622 0.000000
1.949329 75.184067 44.914968
37.408495 103.024976 27.566995
104.859431 101.140071 28.174880
63.212841 7.244022 43.902454
96.798269 38.083640 46.973965
50.759670 19.137097 24.247796
9.412285 64.978578 9.721642
0.083277 75.489007 27.487633
4.662222 70.244930 37.873148
21.032206 52.095674 14.776522
22.791192 74.669125 0.000000
60.295399 75.061106 0.000000
3.265351 71.793629 10.528603
54.132304 70.065256 50.000000
128.355627 72.013589 2.161391
101.550461 39.200065 9.452344
39.034038 76.737357 50.000000
90.245701 78.530806 50.000000
37.448912 33.979257 40.812539
53.424037 71.849044 0.000000
26.727797 52.136834 0.000000
128.522149 72.580057 34.538849
123.355423 84.136200 33.800172
50.864229 65.630397 0.000000
67.038064 75.722193 42.878099
32.104629 39.819776 12.805355
79.214968 67.107301 0.000000
38.367082 33.471378 42.762109
87.607723 75.556145 50.000000
88.037920 83.016784 0.000000
86.754069 82.408894 49.734627
32.244607 104.497388 17.107142
70.174497 59.905634 0.000000
81.512136 88.245895 30.888531
34.388890 37.287236 26.616182
61.853191 18.300847 0.000000
111.465123 50.791402 23.324656
114.532183 74.505967 0.000000
86.610052 22.536296 43.118013
73.672881 80.789834 31.380125
50.945907 75.406034 50.000000
99.922328 47.185462 0.000000
61.033113 7.859993 40.019596
101.596650 39.254065 11.505417
87.480292 33.612614 49.525715
128.607046 76.334970 2.680306
103.033967 101.880738 9.028792
75.030115 8.266466 16.821321
93.989151 36.206374 0.000000
82.697992 55.728658 50.000000
40.489240 52.784612 50.000000
5.783678 69.001582 32.910598
42.558298 98.380037 10.508466
63.462510 45.046190 50.000000
120.335856 61.162271 30.673539
119.423006 83.715480 0.000000
82.196314 62.839837 50.000000
23.834109 48.989228 33.270961
115.150641 55.100180 39.510166
41.554894 29.500845 41.348803
55.751546 86.480194 7.080093
51.893402 82.440967 48.950946
86.875389 28.678944 48.179364
117.924995 89.301179 13.686574
77.913863 14.311544 0.000000
88.734761 78.377386 0.000000
123.293619 84.194982 36.176426
0.296073 75.652955 40.528924
25.472873 72.988627 0.000000
104.562609 73.849811 50.000000
51.176920 18.911184 41.767577
71.087419 5.715715 27.134465
50.984689 18.887620 28.230880
44.972839 96.202206 11.775051
32.409699 104.646295 38.393814
29.589875 86.305313 50.000000
26.583490 99.391261 27.406599
107.961541 96.783021 0.000000
88.771916 24.260532 22.026693
72.943195 8.417166 45.251865
106.587385 99.998353 27.809601
26.147144 98.997692 12.640871
28.207527 100.856085 25.199887
20.578928 87.626808 0.000000
51.506867 50.636277 0.000000
58.961506 40.204702 0.000000
38.233595 102.280765 1.640485
65.318803 33.338576 50.000000
27.444007 44.986967 24.251199
77.047253 10.553103 34.811510
103.305984 58.993538 50.000000
83.393654 51.062986 0.000000
24.321441 55.992379 48.688668
119.475928 62.148830 44.903515
78.277039 85.168934 3.639251
104.787930 63.716785 0.000000
42.120987 98.774475 28.214656
68.482736 5.204505 33.712664
19.719812 85.719977 0.000000
98.984319 94.009834 49.740920
82.122797 88.826706 33.101718
80.041403 52.340563 0.000000
3.237932 78.304659 40.561961
68.229998 34.112081 0.000000
28.436131 43.887007 27.235731
37.784613 37.951682 0.000000
65.229490 77.931424 5.046935
29.516792 47.652051 0.000000
121.525479 85.876692 8.980143
24.919724 85.572999 49.931020
32.591626 63.338030 0.000000
44.045063 79.629145 0.000000
72.612423 48.409065 0.000000
89.772870 86.701742 0.000000
119.851418 87.468923 26.926134
116.588228 56.780880 30.966860
111.696572 61.987278 49.536714
61.893650 17.222326 49.529379
22.442430 50.532171 6.433613
66.929352 76.398209 7.042299
18.973139 78.520113 0.000000
36.666854 34.761678 12.575192
64.170513 49.983152 0.000000
55.507967 20.583999 48.332322
86.779647 21.931348 13.336358
35.595489 69.265639 50.000000
99.961737 37.342670 23.114253
26.310689 55.361902 49.191508
47.800497 36.605720 0.000000
56.547018 12.720715 13.014128
9.338667 83.837041 21.380622
107.177772 69.239363 0.000000
77.158745 37.208860 0.000000
45.844639 95.415873 39.430512
67.217782 47.123138 0.000000
79.453003 64.694275 0.000000
50.446922 91.264777 24.130325
53.357354 17.831314 44.458146
73.326672 20.210781 49.921691
20.109630 76.674313 0.000000
65.257722 77.871737 40.638957
58.648158 56.239055 50.000000
122.541237 65.807134 45.005013
93.850004 41.474770 0.000000
98.876204 90.365708 50.000000
90.039910 54.203585 50.000000
127.868146 78.759659 6.565161
20.989611 94.345780 11.804959
1.025129 74.277343 4.274023
29.302611 101.843812 29.608178
100.666407 38.166508 0.563644
103.574627 52.286266 0.000000
97.644906 54.901279 50.000000
37.858512 33.440497 29.189735
107.474624 82.217660 50.000000
78.203268 11.904612 6.135900
122.890987 81.041851 0.000000
84.662498 72.091118 0.000000
33.665560 77.408597 50.000000
125.887586 67.652858 39.814178
128.290991 71.793714 7.055766
43.151782 97.844735 5.486321
98.361743 79.869822 0.000000
98.268395 35.362967 9.833531
124.855764 82.709198 20.327914
30.177416 82.690802 50.000000
103.200294 94.814386 0.000000
28.364687 55.251169 49.672300
67.394086 53.503943 50.000000
35.331523 79.358383 50.000000
46.183508 74.325762 50.000000
126.752085 80.348333 41.910260
23.318660 49.560703 10.830187
50.516448 73.201452 50.000000
107.371464 99.338835 30.875486
76.488990 73.564381 0.000000
48.410595 50.996377 50.000000
115.289910 91.807457 34.911723
93.704458 42.093893 49.735509
88.156870 85.036652 0.000000
102.344177 90.397566 0.000000
79.082932 85.935434 11.158898
128.684081 75.762375 10.183863
78.090796 84.991795 29.831441
102.424498 102.030491 19.235514
59.079127 36.402621 50.000000
69.005719 76.350809 11.001311
21.190460 80.119010 0.000000
82.878365 42.592613 50.000000
98.392245 35.507761 25.134620
26.582767 45.941815 22.309627
52.636397 17.056387 36.725066
69.308632 52.540280 50.000000
27.483223 100.202788 9.029652
70.540260 77.810340 24.354800
82.461689 73.085488 0.000000
4.273794 79.268705 27.369463
126.124590 67.929941 20.968076
21.981162 55.001521 0.000000
120.336024 61.162468 24.481866
14.469193 59.372028 16.422127
18.942162 92.499054 13.746803
14.489609 70.700494 0.000000
71.298026 75.852428 45.917666
55.724610 13.632512 28.761738
98.801192 82.251889 0.000000
73.072756 6.666676 5.828603
111.409935 52.511671 44.614802
28.086578 78.916871 0.000000
113.899347 53.637279 16.576669
46.501173 91.865024 46.245442
122.494343 63.685782 6.864225
65.489739 24.785937 50.000000
101.770795 39.457660 35.771980
87.949401 24.806065 44.227784
92.707333 98.893855 39.800563
97.887033 101.990381 29.155397
79.391726 71.329758 50.000000
53.121334 39.109111 0.000000
73.691972 40.559626 0.000000
43.179492 97.819742 26.551345
13.006630 86.282516 0.000000
3.699673 71.312100 7.158943
79.559154 75.524371 0.000000
111.772440 95.152986 28.942616
106.446918 54.724479 49.299095
104.745316 48.137945 47.470129
59.105436 9.884219 17.391943
44.437650 26.146265 0.153501
87.799208 32.196486 0.000000
4.777965 79.723450 9.139890
44.447834 84.180141 0.000000
64.530638 78.561764 27.352354
102.871390 66.742629 50.000000
65.966084 77.267043 10.784908
19.848649 56.479584 46.066654
89.457301 25.061822 7.512605
55.697026 34.055310 50.000000
28.940848 50.755776 48.644202
109.973827 60.846462 0.000000
94.372954 30.808764 37.953942
108.429347 98.332664 28.278873
8.557274 68.457022 45.546814
16.891575 63.630042 0.000000
118.617949 59.153848 24.053090
79.168292 81.070570 47.669633
128.392052 77.295961 35.867489
14.958298 73.012153 49.960585
44.373864 26.216984 34.688284
10.423501 63.857451 28.021611
36.289128 35.907344 0.000000
29.013654 48.494031 47.607636
67.557404 68.170141 0.000000
92.852500 29.031185 28.145162
41.586882 90.786422 0.000000
17.746241 79.432334 49.913623
102.798407 71.920332 50.000000
62.810398 25.454002 0.000000
61.910948 35.312213 0.000000
74.713401 11.139246 0.000000
44.181429 96.916030 0.030589
62.391751 12.609740 0.000000
94.988332 49.211915 0.000000
20.585542 90.788127 0.000000
69.212480 76.547463 3.934903
49.626515 92.004755 9.563117
42.129002 73.956121 50.000000
97.715845 61.082599 0.000000
128.653460 76.127510 33.672198
91.414681 72.656216 0.000000
121.765621 85.648290 34.934774
55.457615 86.745309 9.429690
44.965557 25.560979 29.249600
39.952488 31.118924 12.408817
25.228043 48.825997 44.162333
2.456939 73.639829 0.000000
17.982846 55.478017 40.026328
67.790827 5.346766 41.852337
11.758344 62.661419 41.916392
109.642188 81.407717 50.000000
109.846370 95.859521 0.000000
13.309615 70.333223 49.353717
100.984389 55.805854 0.000000
15.202745 58.558745 7.522188
79.955866 16.866485 45.790698
3.953635 78.979934 31.721891
25.092003 47.594612 9.908287
120.354059 61.183553 9.062477
57.080640 14.338210 45.215356
11.555601 85.836637 27.351793
10.924771 63.301698 12.740625
106.134679 46.295580 0.000000
124.395569 65.908525 28.396670
114.577390 54.429987 34.826936
100.911189 80.359364 0.000000
112.117602 80.132022 0.000000
7.251157 81.954182 13.941403
3.284678 73.018034 43.952261
10.043121 84.472434 36.230010
46.979997 67.786196 0.000000
105.342658 89.547977 0.000000
93.408969 50.936729 0.000000
95.486660 100.588747 42.610088
103.300050 41.245528 24.296915
100.065966 94.708724 0.000000
78.729512 44.787215 0.000000
93.024084 90.938358 0.000000
126.156804 67.967603 15.761711
74.373275 42.605855 50.000000
36.278225 35.192546 28.938148
18.490230 57.700718 0.000000
94.192070 100.064681 0.000000
20.022190 54.853746 44.553409
119.091359 88.191829 4.468354
128.494612 76.837536 5.022667
52.550181 78.329893 0.000000
81.511731 88.245510 16.491317
8.514547 77.481023 0.000000
101.014295 38.573228 6.463514
24.135497 48.655082 13.013802
50.870513 43.397800 50.000000
107.768191 62.651138 0.000000
76.893390 66.398359 0.000000
44.795944 74.689532 0.000000
102.476586 102.021605 24.339791
55.835641 86.404343 32.294072
67.851702 26.813547 50.000000
99.607969 36.929076 7.004858
20.206729 53.010873 34.777725
7.236920 81.941340 2.846803
56.375043 56.715184 50.000000
41.901093 76.742563 50.000000
25.900477 84.214206 0.000000
36.681634 51.403760 0.000000
59.017361 18.465135 49.006481
65.831903 5.379641 23.605387
75.722756 17.200971 48.813051
97.791476 56.893665 0.000000
81.475156 43.834894 0.000000
78.177072 11.873985 29.984932
23.827039 95.434087 44.530831
91.607100 30.536270 0.000000
44.306482 77.535411 50.000000
115.305752 91.792389 12.284936
56.448131 12.830351 16.519485
103.568068 101.693050 29.735877
89.708116 40.629429 0.000000
128.721064 74.084682 33.183821
80.871659 87.636726 21.023975
111.963075 51.373564 6.685162
47.273089 23.002638 35.492382
117.092076 90.093384 38.211645
24.498364 77.742283 50.000000
25.410657 47.241324 28.573958
128.156820 78.054916 34.021375
13.051012 60.944353 37.997535
94.857219 72.444729 50.000000
91.900083 61.592873 50.000000
40.773913 30.208217 19.737544
27.289805 100.028332 37.941818
45.778495 95.475533 8.232528
64.611446 5.680716 8.844800
42.794111 97.048841 43.969406
63.357481 73.813517 48.213695
68.206503 10.687217 48.894926
15.704051 58.002951 35.960460
88.387153 48.151736 50.000000
60.296888 82.380457 29.451477
71.521632 51.833458 50.000000
102.964889 40.853688 5.077048
97.354813 34.294888 30.222417
86.291339 25.113208 0.000000
75.393435 25.927645 50.000000
69.057341 76.399908 24.828806
61.230472 81.538397 25.208148
38.544854 32.679555 1.661399
116.576240 90.584005 21.631709
23.779898 81.737870 50.000000
122.475164 84.973430 1.438051
97.062788 67.732990 0.000000
106.208806 75.023034 50.000000
98.563597 56.925114 50.000000
56.619461 53.446210 0.000000
128.243399 77.843550 17.415919
76.851765 78.390392 47.939465
120.248855 84.361915 45.964368
124.716899 70.484120 0.000000
84.606031 42.111062 0.000000
104.309384 46.242685 46.569480
29.152231 52.737077 49.344514
63.041326 6.542972 0.000000
99.482386 62.855948 0.000000
1.367703 73.897534 39.637869
89.762372 96.092848 15.712333
72.172111 69.236493 49.615447
34.457097 81.355056 50.000000
70.447651 47.810373 0.000000
104.182563 69.395926 0.000000
78.222141 11.926676 15.853004
76.890260 74.492005 49.466086
15.109529 75.953563 0.000000
80.296953 87.090112 14.605309
116.548026 65.631596 49.025637
26.827080 61.005893 0.000000
89.081399 24.622351 35.100005
94.786294 65.724520 50.000000
65.637466 12.485588 0.000000
112.409709 75.583083 0.000000
101.296960 85.176067 0.000000
90.414419 74.197765 50.000000
103.183285 96.850889 0.000000
42.692443 48.678973 0.000000
65.254237 69.571980 49.227966
73.392243 28.047054 0.000000
55.712883 13.681539 40.309449
56.102126 81.000319 47.865138
111.201487 50.483183 25.778866
105.550732 58.857857 49.977057
128.605514 76.341822 24.624412
24.326828 97.355832 24.807874
41.896286 48.131167 50.000000
99.003486 87.322123 50.000000
96.458312 41.541562 48.842885
8.127121 82.744270 16.328837
57.031839 78.293041 0.000000
41.234375 97.438205 45.386840
57.571357 11.585040 23.461032
16.838766 90.601865 23.025304
86.127165 86.819648 48.150041
75.632564 8.899174 23.922865
67.845408 69.656568 48.266202
11.444137 62.725881 32.578205
73.053564 80.200790 5.483008
66.450144 5.260487 19.355786
9.243988 83.751645 32.361159
126.764790 68.768249 13.378997
91.291379 97.547115 8.890759
41.854888 69.778677 50.000000
37.646083 102.810680 9.442230
85.136255 82.769360 0.000000
29.282847 94.830640 48.757347
50.593592 25.123076 47.905496
106.591669 83.682802 0.000000
66.884984 49.531187 0.000000
100.689915 56.732527 50.000000
34.040681 57.012272 50.000000
40.231365 55.264826 50.000000
42.987684 32.208211 0.000000
44.395954 57.403024 0.000000
38.173902 57.349134 50.000000
25.727422 98.619118 39.548802
125.275783 82.309710 29.982960
114.559042 60.684188 0.000000
85.313888 84.275461 48.926295
108.067588 98.676739 11.801865
127.425862 79.641367 8.901763
30.482867 98.374730 0.000000
92.271045 98.091828 0.000000
63.702312 6.077712 28.147065
19.716951 93.197886 29.196683
119.717560 70.202860 0.000000
37.260746 75.169529 50.000000
34.280731 40.875001 46.406254
97.809091 34.825989 27.000316
66.336918 17.165081 0.000000
19.117960 86.120298 48.565809
11.832772 86.086635 29.661211
128.399689 74.757060 42.426812
60.179374 82.486450 33.351260
70.608123 77.874886 22.131398
5.076304 79.992541 30.396044
57.664467 38.435152 50.000000
104.565280 53.971924 49.592782
74.117820 7.394275 14.276672
85.812850 20.801056 29.415023
109.791645 80.041583 0.000000
47.067302 43.487519 0.000000
88.104422 23.961587 42.337386
0.526931 74.829691 0.030033
28.301074 81.411754 50.000000
40.411852 100.316055 35.530096
26.140397 46.432267 1.907412
70.692676 5.607244 33.891749
71.627953 52.795902 0.000000
106.639878 91.174639 49.327408
47.300185 56.253132 0.000000
65.098416 48.096146 0.000000
112.390027 51.872717 33.541114
44.449044 83.965173 49.955016
36.998143 73.607929 0.000000
72.282798 65.096794 50.000000
102.284140 40.057817 22.690665
5.957792 80.787612 6.527748
110.095010 96.748420 16.047426
64.254352 5.836550 6.709399
6.118916 68.629907 35.994002
45.097968 56.221077 50.000000
16.418964 65.531214 48.959537
31.812425 56.895607 50.000000
35.187759 105.028002 20.697333
85.766854 49.381101 50.000000
87.957496 94.376197 6.230211
88.982726 72.523066 50.000000
6.144631 80.956134 22.170759
97.297125 47.818261 49.897997
54.637126 78.190491 0.000000
102.572051 78.084781 0.000000
52.828704 76.576201 49.945879
113.320807 93.680306 26.202580
67.674005 65.623060 0.000000
128.697968 75.492558 7.582840
86.002140 29.683335 0.000000
53.403474 46.168251 50.000000
54.031464 15.509687 36.929350
124.761040 74.936777 0.000000
108.072629 98.671944 7.554603
43.304629 27.402434 33.457152
71.462922 5.854321 29.785638
52.563513 17.137192 13.018286
17.480079 76.631762 0.000000
20.981128 94.338129 14.212586
100.445241 102.253517 5.231102
19.440042 92.948124 23.146581
31.497643 94.610151 49.469719
95.905464 88.933966 0.000000
60.460218 29.934193 0.000000
39.954871 31.116282 31.102475
14.474334 59.366328 37.549421
111.163272 50.438505 18.161273
19.676354 68.444239 0.000000
52.773226 60.404130 0.000000
35.297985 92.463592 0.000000
84.153607 18.861216 26.775991
79.273874 44.383403 50.000000
118.788756 88.479640 2.062910
39.506325 58.307718 0.000000
90.744771 38.005393 49.626078
125.089005 82.487358 7.746585
121.654403 62.703799 25.104259
84.132774 57.158895 0.000000
71.867927 42.226591 50.000000
43.436474 97.587952 33.005028
53.077074 88.892473 37.220065
83.123669 17.657105 12.707167
58.875238 20.646459 49.542349
55.062815 87.101405 37.059544
7.436162 67.169488 29.991357
59.000625 50.288259 50.000000
104.020806 65.650774 0.000000
92.214027 28.284740 1.687630
118.429257 87.659970 43.968970
57.832146 49.431260 0.000000
65.648524 40.578314 50.000000
102.365972 102.040475 31.396663
37.874371 33.422913 35.332689
11.205041 65.813942 45.848459
91.141456 34.431979 48.527787
68.786962 76.142746 39.857206
97.025876 101.709670 36.044798
119.708220 60.428495 16.534349
36.155356 71.391365 50.000000
125.858205 67.618508 29.980445
79.353434 80.205546 0.000000
5.264591 69.577089 11.256130
82.266590 16.655085 19.417113
77.336609 84.123434 41.422787
56.136358 48.138082 50.000000
86.482494 34.547162 0.000000
66.559308 6.260645 44.290838
58.481389 10.576095 29.917661
69.468656 5.859656 43.249704
37.136390 35.419310 43.848089
37.431158 83.218664 50.000000
108.269553 89.032162 0.000000
124.273679 65.766022 14.398790
43.251238 72.236029 50.000000
72.943862 80.096450 7.498443
95.401609 74.936220 50.000000
0.869878 74.449468 17.419434
54.677993 87.448501 30.749680
76.199002 9.561403 32.896598
9.788739 64.561206 22.784010
58.000983 60.568124 0.000000
33.501096 38.271525 19.515224
43.356107 55.641930 0.000000
43.701954 37.775490 49.593570
58.643509 10.396353 25.553765
64.791338 34.719007 0.000000
64.570368 63.506575 0.000000
52.838315 89.107826 20.642234
8.057117 75.962347 48.653216
99.979974 72.262473 50.000000
121.033869 61.978325 26.898131
66.854094 76.466089 23.193567
61.384597 19.742137 49.852131
73.355197 80.487679 15.194353
118.554755 74.126705 0.000000
23.434255 79.789071 0.000000
99.422111 36.711788 26.982877
102.382162 54.114577 0.000000
83.598628 44.046938 0.000000
40.355216 37.572217 0.000000
104.173690 82.190633 50.000000
86.085755 52.988597 0.000000
34.515334 102.334549 0.000000
128.213649 77.916179 37.807494
12.542866 72.317589 0.000000
11.314657 80.483421 47.849022
30.620985 61.404018 0.000000
94.165227 96.802145 0.000000
30.790520 75.096870 0.000000
73.599253 61.786272 0.000000
84.939072 63.464915 0.000000
53.881981 88.166476 5.169211
58.495262 73.763655 0.000000
1.098836 76.405006 31.062544
69.511326 5.330412 0.000000
106.203871 44.640416 12.388965
39.891056 58.522122 50.000000
122.000841 79.085155 0.000000
79.774608 46.552924 0.000000
55.852608 44.738645 50.000000
20.943410 80.255622 50.000000
22.552875 57.117374 48.330928
91.363526 27.290411 7.916770
114.526040 58.778045 46.953604
89.642448 65.144560 50.000000
41.750449 84.819936 0.000000
88.129008 23.508901 1.239007
74.934908 81.990171 35.278125
32.809413 39.038388 7.878256
50.178316 67.351778 50.000000
81.228757 87.976368 9.629111
108.394728 79.784319 50.000000
87.046530 77.749931 50.000000
120.412963 66.899921 47.729612
11.123644 70.896766 48.787540
12.600206 61.444158 21.026457
64.342420 78.731530 3.340626
7.680061 66.899079 0.633287
62.699585 80.213309 36.590099
100.386217 67.998555 50.000000
101.074849 76.273590 0.000000
83.645190 83.186797 48.734011
10.564433 63.701201 30.897590
86.038720 92.488661 40.518048
15.042501 87.972786 43.772576
92.416702 28.521690 33.497244
24.875851 69.252258 0.000000
93.180085 29.414169 14.328637
64.440982 28.917588 0.000000
79.106819 41.526784 50.000000
27.663678 93.125712 0.000000
104.667454 42.844174 24.356225
2.333373 72.826904 33.257010
99.528876 77.805212 0.000000
71.363743 9.714037 47.578342
62.981493 53.507167 0.000000
21.074909 52.182035 41.255997
95.744568 71.959704 0.000000
59.775841 42.232008 0.000000
33.384247 105.525303 1.276582
31.594051 52.919333 49.868372
37.064916 77.757527 50.000000
24.808672 60.824957 0.000000
52.079139 47.715799 50.000000
127.462134 69.816074 6.459293
79.533757 13.460101 6.471864
109.618727 49.373630 42.966745
88.274726 66.611500 0.000000
67.320921 5.197812 1.892737
98.976976 99.772291 0.000000
126.432343 68.305771 35.531475
64.035516 63.968125 50.000000
112.222238 94.725175 39.470521
27.910729 83.842484 50.000000
120.426657 72.922454 49.663638
35.902030 35.750390 41.253424
39.640377 69.630265 50.000000
77.923094 70.823668 0.000000
8.006733 82.635684 37.751282
84.962670 19.807101 33.907013
96.556188 33.361207 24.227238
59.107570 47.582935 0.000000
87.397687 84.649791 49.425191
110.523408 49.690434 28.980340
25.242486 58.406557 0.000000
90.401302 51.751603 0.000000
70.313663 34.758231 0.000000
62.856574 22.062776 50.000000
60.032605 33.426389 0.000000
104.448754 49.193145 0.000000
28.326022 58.110845 0.000000
1.197206 74.086563 32.057403
28.459490 92.796503 49.205662
114.950414 54.866094 15.365136
28.911170 89.527732 0.000000
42.956092 27.788855 8.328681
88.699449 24.210338 40.256543
46.638652 25.893705 45.193238
84.381305 62.909186 50.000000
36.888698 34.515721 18.112194
54.685950 18.079277 0.000000
18.054728 91.698619 11.938405
100.123851 47.846699 49.430334
63.664794 6.094102 34.682972
0.061207 75.469101 15.294838
84.072146 47.198576 50.000000
28.766720 62.552537 0.000000
99.989335 57.654042 0.000000
36.983374 76.514071 0.000000
52.166225 68.062345 50.000000
72.758237 79.919899 37.738244
0.508580 75.872615 10.263380
110.642251 96.139102 40.817835
59.697034 82.921504 17.144626
85.731990 61.329675 50.000000
44.229001 26.377592 17.827522
29.620028 102.130110 38.049534
57.148704 21.491079 0.000000
128.396024 72.151012 19.325997
35.069787 97.372561 0.000000
75.808315 9.104646 19.517207
19.348448 92.865509 33.339228
61.568217 15.350828 0.000000
39.302035 101.317070 19.675925
35.452074 79.861480 0.000000
51.724468 18.067434 5.514020
78.464484 82.448197 46.122050
10.437712 63.841695 24.944750
86.622507 57.804890 50.000000
53.733639 41.310576 50.000000
46.471835 24.816620 43.459053
111.993971 59.883472 48.897143
76.955223 10.445509 23.568374
34.944296 47.807423 0.000000
57.416013 46.462332 0.000000
74.269931 18.253331 0.000000
112.771730 86.433093 48.983811
34.138824 105.974104 18.586529
2.121306 77.327238 35.604246
57.771853 71.003216 50.000000
59.732625 82.889402 23.111460
33.963604 85.678779 0.000000
26.390297 46.155206 37.998555
101.003788 42.593620 0.000000
77.836747 11.476108 26.177955
49.480833 20.554932 28.161932
50.334947 48.410059 0.000000
89.097155 92.132474 0.000000
44.560557 45.327115 50.000000
80.244881 52.236183 50.000000
9.973106 84.409283 28.646102
17.864180 55.608036 16.684950
43.646858 30.777293 46.618559
71.983825 68.889466 0.000000
1.985696 76.441031 0.000000
41.110809 29.834703 37.153229
10.340545 63.949424 16.222044
17.995997 84.012123 0.000000
57.940114 84.497506 40.147575
27.614162 46.611815 0.000000
62.846688 80.080627 24.298060
84.202306 18.918151 10.663887
120.579724 64.884279 46.277134
92.981631 99.154745 4.913138
79.022561 85.878014 13.393973
57.215351 85.159894 21.332664
76.214146 9.579108 38.685745
86.266120 36.841213 0.000000
95.542016 101.059438 1.798137
63.551794 15.050370 0.000000
46.184092 24.210000 34.311330
68.474856 74.907124 0.000000
46.965902 50.667300 0.000000
96.611607 37.475622 0.000000
62.759006 80.159713 34.435765
79.884190 86.697525 2.849587
98.762939 102.139806 24.533356
96.479335 100.378308 0.000000
92.495486 29.118024 42.392691
7.367218 67.245926 14.379574
103.453454 41.424874 11.310276
47.691736 25.944934 0.000000
12.938856 86.298538 43.358032
35.390492 37.069797 43.405829
127.409244 69.707853 34.200587
99.258636 65.992120 50.000000
64.565944 78.529920 15.024032
89.563105 33.051170 48.712814
117.842995 72.137653 0.000000
58.766603 53.786602 50.000000
0.161497 75.234845 2.211781
23.245750 64.449666 49.993553
11.826757 86.081211 8.304470
120.086072 87.245739 28.963038
128.074052 78.256980 26.256199
115.814356 71.624083 0.000000
89.123855 50.264188 50.000000
94.521353 62.500172 0.000000
71.070366 5.711029 31.886262
75.976345 56.820577 50.000000
48.994113 71.261636 0.000000
86.391684 21.477777 22.617743
62.184995 47.263856 50.000000
31.040194 66.556690 0.000000
95.491465 91.240768 0.000000
45.274137 29.640825 47.101279
83.301776 55.278972 0.000000
8.670503 65.800985 15.065769
25.813983 98.697193 9.811129
106.462185 97.833038 45.582067
64.162871 17.044784 0.000000
67.037993 74.569337 44.899369
112.215905 51.669149 11.425831
53.508933 26.860104 0.000000
93.359413 99.514060 7.577025
70.894350 11.752783 48.849432
127.562716 70.021881 3.946813
119.959797 87.365842 22.129404
1.196254 76.492874 21.686067
26.193088 46.373849 25.064199
5.665720 80.524174 28.113858
99.324234 86.440145 0.000000
85.229847 91.781880 21.953109
50.893010 58.130990 0.000000
105.829474 77.101032 50.000000
86.681772 35.888059 49.925312
127.794324 70.495787 36.591406
97.487177 101.871776 38.979720
100.603284 65.405231 0.000000
33.555270 105.679559 36.203595
43.250944 81.933303 50.000000
49.551410 62.457232 0.000000
34.671809 99.585942 48.231660
88.041632 94.456220 4.085411
122.864627 64.118685 27.352289
126.211099 81.322326 37.867875
99.998957 102.253517 33.230168
11.273328 82.941009 0.000000
68.174270 61.687581 0.000000
29.506907 63.324074 50.000000
89.476713 93.851994 45.134261
57.480180 33.488919 0.000000
65.681000 5.416867 11.153986
127.519174 70.144188 41.064727
34.699129 104.803342 43.073937
62.861332 6.487797 8.070316
83.163135 17.703246 21.129792
29.941017 97.510591 47.717550
4.539679 76.337219 0.000000
116.784758 90.344372 40.380314
110.303475 72.302025 50.000000
79.891995 86.704949 31.101876
35.312420 62.951318 0.000000
101.573196 87.573465 0.000000
62.746574 80.170927 7.040842
36.838376 66.390383 50.000000
60.934102 55.250424 50.000000
114.505564 92.553462 32.827111
59.363120 28.906079 50.000000
54.692812 43.971341 0.000000
32.335619 104.579478 32.413336
118.038704 89.193028 28.354629
55.283182 71.881359 50.000000
95.668004 32.912123 42.599067
99.953157 102.253517 27.964255
15.572387 89.459636 24.345016
111.101072 50.365786 39.039992
36.462851 34.987854 32.373895
127.896655 78.690058 12.635463
107.339395 99.369337 5.051856
80.911493 68.220660 0.000000
53.589060 23.560305 48.694729
21.876278 67.557317 0.000000
14.300576 75.039152 49.988702
68.935290 49.315700 0.000000
28.604952 100.964192 41.883487
82.613469 69.484909 0.000000
77.112306 42.729624 50.000000
30.687220 61.056474 50.000000
14.598493 83.507107 47.813216
92.359074 90.854687 48.964499
75.495999 54.104202 50.000000
112.962152 52.541595 2.246857
87.622600 22.916853 37.905370
71.471291 18.893153 0.000000
65.356995 77.816420 35.883785
4.359162 79.345704 19.629648
63.993237 11.119615 0.000000
63.436548 54.695615 50.000000
61.104943 40.225460 0.000000
117.097120 81.081247 49.373822
98.381339 35.495010 22.299941
29.713878 55.188590 0.000000
22.185502 77.028014 0.000000
56.643800 80.595787 0.000000
41.664985 29.220293 4.715588
47.166879 54.935110 50.000000
15.966458 82.443358 48.905670
52.996666 88.964998 31.039787
77.214652 26.989524 50.000000
90.897217 46.859172 0.000000
73.639611 45.224554 0.000000
67.446990 28.956001 50.000000
73.625407 80.744681 19.705176
60.633013 82.077284 18.702483
120.443983 72.225218 0.000000
96.187094 70.858945 50.000000
114.806115 67.682392 49.863545
73.945015 67.332385 49.995179
122.076424 74.434349 0.000000
41.772285 46.709303 0.000000
120.585352 86.770865 2.353877
70.247339 59.833208 50.000000
8.234933 66.283898 33.281295
39.611665 72.671602 0.000000
49.438565 68.459010 0.000000
53.705473 15.871111 26.951804
80.558234 59.771385 50.000000
87.755824 23.072607 34.673806
79.949003 59.526418 0.000000
32.630123 54.062535 0.000000
51.889337 80.562193 0.000000
83.864135 30.094939 0.000000
32.920131 105.106687 5.019241
48.747344 33.090338 0.000000
115.316510 91.782157 24.941262
75.911698 9.225513 30.584052
72.175372 79.365525 31.810855
125.043094 82.531025 34.444727
50.486502 76.769765 0.000000
110.815829 96.062837 31.511192
99.740035 95.890713 49.288392
97.948452 102.000859 5.344225
76.424495 9.825029 11.517613
100.959861 102.253517 9.829171
107.507925 47.482820 43.963874
121.748641 62.813973 34.888527
71.446531 75.740198 0.000000
47.869569 22.341327 27.609706
13.463807 60.486690 31.174727
44.506171 80.069322 50.000000
116.107019 56.218292 11.225886
80.994649 15.168046 36.549062
127.006078 80.314751 33.443092
80.304514 14.361201 12.170892
42.181287 34.741391 0.000000
21.279865 51.821096 4.665283
70.010441 5.419774 36.206590
58.453841 58.413858 0.000000
80.248012 87.043564 28.904413
83.226713 49.076017 50.000000
68.597213 62.227939 49.996210
47.317080 67.242205 50.000000
9.327191 65.072920 17.618884
109.601349 97.217950 38.356161
126.598785 68.537315 23.214053
107.760987 98.968352 23.435127
36.580682 98.914131 0.000000
27.999969 44.613525 0.000000
63.977948 28.990102 50.000000
122.986231 64.260853 1.319726
115.950950 81.752216 0.000000
50.682281 19.222897 6.865926
33.835018 37.901309 33.321671
45.722384 95.526143 1.458435
13.606110 77.508750 0.000000
38.403476 41.322877 49.007567
100.384423 98.324437 0.000000
65.469954 65.961827 0.000000
105.689426 100.679174 21.023416
40.440156 35.695371 47.527731
55.385577 14.008394 7.978479
119.106056 88.177850 16.881598
107.287126 60.085327 49.931416
116.789296 90.381363 33.270216
60.357898 42.074379 50.000000
51.336367 24.227179 0.000000
22.697557 95.886287 23.320776
122.090701 63.669484 42.274741
60.631403 48.589814 50.000000
37.076453 81.150483 50.000000
30.468119 102.895058 13.808639
78.665953 12.445542 35.400016
98.342250 35.449311 38.499010
90.520126 96.813562 18.163818
82.459558 66.894372 0.000000
110.534041 49.702864 0.778151
81.987016 88.697562 7.717480
40.701736 91.019542 49.436555
127.168523 80.054170 25.726101
50.663668 29.846683 49.558427
92.261886 64.573932 0.000000
69.907464 16.738824 0.000000
85.267576 69.579734 0.000000
126.905479 68.963966 28.667468
3.364826 71.683342 29.312740
63.280935 56.886811 50.000000
16.772879 90.542437 8.863475
58.570767 10.477002 35.542541
128.336215 77.545545 23.012643
36.993929 58.107633 0.000000
42.544098 54.740898 50.000000
45.534107 86.865364 0.000000
108.289440 75.988027 50.000000
121.998936 77.028377 0.000000
55.158692 48.795364 0.000000
115.223261 91.870847 7.495820
72.472968 30.105218 0.000000
39.478851 43.215247 49.713145
113.336563 53.861365 43.309210
69.899843 68.590707 49.248931
56.391656 36.667544 0.000000
88.576884 90.054688 0.000000
85.341207 85.582739 0.000000
42.247910 92.811176 0.000000
19.959803 53.284637 5.984357
71.596821 5.917060 12.641549
90.628838 80.883640 50.000000
49.798334 20.639817 42.318876
3.868028 78.902719 7.329271
26.910691 45.578249 6.034529
74.783246 33.961503 0.000000
128.501100 72.508452 27.612147
42.805006 74.098496 0.000000
41.182091 29.755674 22.096555
55.513153 45.814335 0.000000
123.274731 77.629583 48.382498
42.013623 71.713054 0.000000
113.621450 93.394360 2.524815
22.608989 89.740112 48.331525
85.100158 34.277245 49.938862
20.021201 77.912698 50.000000
44.845457 91.062218 47.905740
63.914461 37.658222 50.000000
76.794346 29.076355 0.000000
75.884851 82.893680 10.109674
41.562158 50.671393 50.000000
86.584690 77.591287 0.000000
8.768691 79.826304 0.000000
25.893435 81.964629 50.000000
128.644319 73.433102 9.742876
54.233265 87.849630 33.262451
34.355734 83.524006 50.000000
57.079153 12.130742 10.424680
26.033757 46.550498 30.434648
113.882847 60.372920 48.233647
22.013465 94.538665 43.228136
72.912686 6.555231 24.025355
77.161611 80.962089 0.000000
36.404318 35.052749 2.433064
61.537860 81.261144 16.481918
91.493125 49.267130 0.000000
38.342261 83.450406 0.000000
101.412655 39.038955 26.682241
74.530091 61.562132 50.000000
30.074933 100.325022 45.479280
92.135812 98.350271 35.398572
22.845538 95.803888 41.775937
17.751498 55.732966 6.690916
1.141746 76.443709 17.850704
84.055376 18.746374 36.108352
46.298247 24.083437 8.582428
77.644625 60.092104 0.000000
53.174984 78.611564 49.674953
62.127722 49.969010 0.000000
124.512900 66.045698 16.978630
14.872926 88.828747 34.745708
104.616273 99.018282 45.914499
71.291431 67.045898 49.857117
53.249570 88.736888 34.794896
107.968691 72.173330 50.000000
33.692124 38.059734 2.407406
76.808472 45.634830 50.000000
89.978616 25.671297 26.472919
42.324241 39.534537 49.632223
107.029861 60.334074 0.000000
40.730862 100.028319 7.615266
41.773781 95.748918 46.579816
51.783125 18.002401 34.778172
123.657201 65.045291 24.540753
34.480775 72.682606 50.000000
62.761851 20.086301 0.000000
101.034623 74.292301 50.000000
57.526728 75.241425 49.568957
28.844629 43.434110 25.022470
22.257700 95.489551 37.995353
87.390064 87.396070 0.000000
23.510381 96.619425 35.482108
42.923087 27.825447 10.389748
48.794184 71.271689 50.000000
127.799217 70.505799 0.038420
32.577697 68.612390 0.000000
43.539571 36.937523 0.000000
35.811062 35.710486 16.783144
86.469568 91.348680 44.684190
35.449802 36.111012 19.161859
59.880809 9.024570 2.271917
91.803898 50.668144 50.000000
101.647240 39.313211 4.458653
45.326496 34.034532 49.120191
47.817981 38.968291 50.000000
37.904037 33.390023 13.524582
24.737913 97.726615 11.996724
57.526235 29.728510 50.000000
32.291306 103.523535 43.785603
42.756190 52.166192 0.000000
49.394404 20.650755 23.698459
113.332323 81.863348 0.000000
105.975508 100.488982 19.036972
47.192381 23.092118 30.115012
70.576689 62.698659 50.000000
98.594826 38.292910 45.452253
77.818324 84.732642 23.316316
84.544094 40.809753 50.000000
127.920532 78.631769 10.628859
58.439001 84.056205 38.000283
86.555998 92.446955 42.885429
46.376069 23.997157 24.732235
127.717997 74.527778 44.339911
34.602540 100.150958 0.000000
80.751777 87.522704 37.802776
103.223570 85.845657 0.000000
23.415124 49.767831 42.011437
84.483126 51.973023 50.000000
45.349579 95.862400 20.613608
55.232697 86.062654 43.551746
30.890876 41.165453 18.866552
94.003688 52.001498 50.000000
32.625898 89.264684 50.000000
73.790884 21.928054 0.000000
77.950530 61.604240 50.000000
113.083223 52.683140 31.578374
38.668089 101.888867 5.782646
86.594309 21.714667 35.748699
84.427181 91.018449 32.770627
121.057495 62.005947 2.319289
76.162001 79.189881 0.000000
65.321530 19.304594 0.000000
84.685888 36.293910 50.000000
108.308568 98.447538 19.833480
78.759841 12.555307 18.319425
4.715829 78.907657 43.299009
50.280097 50.276100 50.000000
19.078263 67.410234 49.906100
25.308118 47.355007 32.626756
53.435775 56.423865 0.000000
15.850357 57.840744 10.011068
109.296319 66.013107 50.000000
76.440372 60.179748 50.000000
105.969641 79.303928 50.000000
24.346829 77.057939 0.000000
41.161759 29.778216 1.779221
64.728645 78.383169 17.332935
35.056070 77.449628 0.000000
93.573943 70.853603 0.000000
107.565036 55.723590 0.000000
57.248064 35.564691 50.000000
105.450388 93.712427 0.000000
37.121492 103.283843 18.611611
84.200233 76.282236 0.000000
10.266770 67.537200 46.437299
128.741998 74.262421 19.289522
45.662428 76.908329 0.000000
121.860223 68.015045 0.000000
92.516122 53.272473 0.000000
15.659463 58.052386 28.023217
40.951995 93.188228 48.615570
58.109636 31.481698 0.000000
44.440528 26.143074 7.176985
83.359617 17.932954 0.352929
20.156658 93.594486 19.908603
12.675965 86.847166 4.793066
10.555419 80.916411 0.000000
112.815634 52.370299 22.365750
110.522638 49.689533 15.904921
54.268138 67.894823 50.000000
128.026862 78.372185 31.778773
45.505366 95.721885 32.448302
94.286556 65.496282 0.000000
32.209047 104.465314 24.246589
72.530584 79.620489 41.019017
53.201294 72.123471 50.000000
82.531595 21.728201 47.184490
47.239121 23.040298 3.635129
87.203356 22.426711 28.005411
126.789480 80.662202 11.839489
98.786166 102.143768 22.172412
100.456608 37.921229 2.645990
76.758498 50.160642 0.000000
91.181815 58.466105 0.000000
104.501899 100.945411 42.456984
55.478963 71.143634 0.000000
84.014604 90.626039 16.199742
4.898650 79.832304 23.695388
106.823297 99.809188 10.632645
52.129812 17.618032 10.611820
106.839241 66.001847 50.000000
99.929333 102.253517 12.610710
19.739003 92.858466 42.212580
29.396182 68.329794 0.000000
67.841509 8.930723 0.000000
47.324756 94.080860 11.558677
110.290979 58.760424 49.160217
97.105687 34.746389 42.971329
21.926718 52.698877 44.490014
71.220390 73.560844 0.000000
112.721422 93.071134 43.998400
31.104556 49.088434 0.000000
8.697776 83.258981 30.047875
62.438424 62.898268 0.000000
26.220525 46.827524 42.485136
61.806297 30.145945 50.000000
4.137707 70.826456 25.449045
15.381743 72.843421 0.000000
30.425652 41.681243 11.247291
18.849936 54.515137 23.120613
103.718657 88.248928 0.000000
87.330872 64.212676 0.000000
109.440439 48.424323 14.642964
123.593565 72.342054 0.000000
43.372969 97.645232 35.105754
71.060076 62.332972 0.000000
37.083115 103.318458 21.060946
60.664635 82.048762 21.350464
113.148890 93.843819 29.652959
118.351924 58.842835 16.566423
33.109333 38.705869 9.867842
19.765563 63.793602 0.000000
14.265306 65.682082 0.000000
111.887398 51.285089 36.911905
14.916545 88.868090 26.446997
84.841716 91.412721 19.847747
103.325410 100.503836 44.714701
28.324847 98.225162 46.029162
15.779739 89.646660 6.212138
12.245427 72.663178 49.595729
57.888523 12.148458 43.442755
25.485681 98.401076 7.660330
84.683873 49.318024 0.000000
84.213807 46.315848 0.000000
70.225265 28.840277 0.000000
22.619281 95.815685 33.796598
64.247984 72.068034 48.666411
