5.880445 30.000000 61.515691
16.844819 30.000000 26.415583
14.300808 30.000000 13.116537
10.880628 30.000000 27.227492
13.367825 0.000000 77.333764
0.000000 6.083286 34.556112
10.741815 0.000000 68.330236
27.732878 0.000000 68.775153
25.273200 30.000000 15.821881
40.000000 13.687074 35.602078
27.400912 0.000000 69.853230
27.626151 30.000000 74.052812
40.000000 23.812687 67.062003
27.846339 30.000000 72.900723
25.662178 0.000000 11.446782
4.606167 0.000000 50.013641
15.556613 0.000000 37.351421
40.000000 17.146193 9.358436
40.000000 27.212395 42.507543
9.553237 30.000000 27.488857
16.335786 30.000000 19.280257
40.000000 6.795028 46.335107
0.000000 29.995353 24.234166
25.298848 30.000000 68.636160
38.678581 0.000000 40.516568
30.969787 13.766950 80.000000
0.000000 26.066989 10.566736
22.336591 0.000000 52.178651
0.000000 2.342639 73.610614
0.000000 1.263084 42.325947
40.000000 27.239450 52.381847
0.000000 16.527748 52.665535
40.000000 8.248007 29.401542
0.000000 19.656971 16.017819
39.160322 8.221719 80.000000
15.454090 30.000000 24.711161
26.840260 0.000000 79.383947
24.866991 30.000000 26.573144
40.000000 18.899841 42.085086
34.147505 30.000000 51.408612
0.000000 10.698921 8.023411
18.791557 0.000000 37.081793
15.590692 25.769519 80.000000
8.218955 0.000000 78.581160
0.000000 20.535531 13.073992
26.265724 0.000000 18.077462
0.000000 13.388030 42.966936
0.000000 2.049833 23.043401
2.675403 0.000000 71.973682
20.215512 30.000000 10.742429
23.738114 11.379466 0.000000
7.250546 0.000000 6.918409
6.117891 30.000000 68.387153
1.857428 19.801495 0.000000
6.320397 0.000000 25.643517
15.066336 0.000000 12.487036
0.000000 19.126166 33.993960
18.962623 0.000000 0.586118
35.316617 0.000000 4.134596
32.356200 0.000000 42.837406
23.136129 30.000000 45.497254
0.000000 12.600142 23.970129
1.820275 0.000000 0.627000
0.000000 6.317605 71.985828
0.000000 4.202398 18.068414
0.000000 13.246706 0.781042
0.000000 29.687920 70.754113
29.537952 0.000000 34.448197
0.000000 14.296920 8.197837
40.000000 15.043497 27.257523
40.000000 1.820057 23.040908
0.000000 21.416317 58.887772
26.538145 30.000000 1.741765
35.019182 30.000000 23.359263
5.322408 0.000000 79.376487
6.765402 0.000000 19.861933
40.000000 11.407662 24.006304
22.085567 16.605920 0.000000
16.915906 30.000000 4.086862
37.138888 30.000000 47.544453
0.000000 20.674986 1.908261
0.000000 17.064697 26.920355
40.000000 8.063991 66.014125
30.364317 0.000000 6.641572
0.000000 14.842892 2.981845
30.688666 30.000000 45.360528
7.177100 12.118857 0.000000
2.045844 0.000000 33.111375
24.809447 15.037963 80.000000
22.281610 22.954139 80.000000
22.166555 0.000000 9.125906
23.675921 13.059273 80.000000
33.444638 29.523771 0.000000
27.944980 30.000000 51.733727
30.127745 0.000000 77.506150
0.000000 14.463867 14.255673
2.111699 0.000000 20.102399
37.507303 0.000000 73.560352
0.000000 5.190784 44.535884
14.188602 30.000000 22.179663
38.361987 9.416302 80.000000
21.679100 21.394366 80.000000
24.384037 30.000000 14.441506
2.223097 4.420043 0.000000
11.351162 20.960559 0.000000
4.079195 0.000000 43.475476
40.000000 17.053454 15.693167
29.576732 30.000000 57.712175
40.000000 27.742733 4.512372
40.000000 4.502391 60.164565
0.000000 28.806722 28.358025
1.516664 23.060644 0.000000
40.000000 15.863858 21.646584
0.000000 6.672029 74.761696
13.345660 0.000000 74.541159
7.842956 22.707308 80.000000
1.810874 12.517186 80.000000
11.580019 13.665292 0.000000
40.000000 10.283174 14.383086
40.000000 16.060841 3.790271
0.532451 30.000000 50.914831
3.308140 30.000000 3.964826
1.406265 24.301930 0.000000
0.815415 15.372436 80.000000
2.649783 30.000000 1.701442
40.000000 2.747672 38.950322
34.359049 0.000000 53.092859
0.000000 25.559556 14.440959
19.177128 0.000000 45.410795
7.033807 30.000000 52.904816
40.000000 8.511240 54.164606
32.175112 0.000000 10.911440
0.000000 24.702313 2.693523
37.102573 30.000000 39.188673
31.167471 0.000000 17.337672
16.929097 14.323979 0.000000
40.000000 21.149171 70.906531
29.819987 24.534639 0.000000
40.000000 12.872545 20.377431
13.062531 30.000000 35.994936
11.316616 30.000000 25.528130
0.000000 12.111075 78.276800
30.047410 0.000000 67.267795
0.000000 6.478831 66.654825
34.011676 8.708404 80.000000
40.000000 13.354072 40.414023
0.000000 23.123010 2.306436
12.196680 0.000000 30.623492
32.844250 5.423250 80.000000
29.330027 30.000000 33.280951
27.975864 0.000000 12.458759
17.589850 1.095466 80.000000
40.000000 24.326172 66.973060
0.000000 29.122426 72.844436
0.000000 22.010416 12.735184
28.363891 30.000000 7.014369
20.630694 0.000000 65.056848
36.742883 25.282692 80.000000
0.000000 9.331157 12.261608
40.000000 14.308933 32.510478
14.443102 0.000000 18.013256
19.360991 0.000000 57.533064
0.000000 19.001003 28.405402
34.560589 0.000000 66.537301
34.264223 30.000000 17.285543
12.216113 0.000000 49.479173
8.283705 0.000000 24.292600
21.832992 11.188395 80.000000
21.283357 30.000000 46.655282
21.342477 30.000000 52.489393
13.424461 30.000000 52.045174
13.823597 0.000000 20.540082
40.000000 21.822580 76.176008
0.138392 30.000000 4.079530
1.610184 30.000000 20.942342
3.702406 30.000000 63.503332
40.000000 26.153922 70.857189
31.251132 30.000000 49.122112
8.141603 30.000000 74.959628
40.000000 24.967089 45.281220
12.110422 0.000000 19.574439
15.282323 30.000000 77.801757
30.399744 0.000000 62.844704
40.000000 5.892099 16.746163
35.403062 30.000000 48.058260
0.000000 20.377162 73.977395
4.153225 30.000000 13.836185
4.596742 0.000000 12.786440
0.000000 16.877761 69.174008
40.000000 18.158964 15.208839
23.787166 0.000000 2.274491
29.818948 27.112397 0.000000
32.322907 0.000000 21.677051
1.709142 30.000000 59.147771
9.226227 30.000000 49.015214
28.032326 30.000000 74.539218
13.874659 15.146516 0.000000
26.528061 0.000000 58.015518
5.122193 0.000000 73.914733
21.793665 12.956465 80.000000
36.584319 23.920944 80.000000
0.000000 1.693147 6.552069
38.695567 8.594733 80.000000
0.000000 19.798393 9.191827
10.547993 0.000000 68.794858
17.944509 0.000000 4.289674
27.928564 0.000000 38.504765
21.187629 0.000000 46.784580
3.742336 0.000000 78.836782
28.998633 0.000000 8.958768
40.000000 10.777202 25.927438
37.596309 30.000000 5.729010
16.315649 0.000000 55.399187
3.772993 30.000000 33.889709
35.689663 0.000000 67.304383
22.689048 30.000000 46.762485
30.693085 0.000000 26.052421
40.000000 16.173220 12.586736
31.510094 30.000000 43.457181
40.000000 29.468896 54.581669
34.986841 30.000000 25.487266
16.215304 30.000000 23.366869
7.593783 0.000000 19.542485
4.611915 15.764858 0.000000
0.000000 25.258779 76.439133
34.794019 2.738328 80.000000
40.000000 6.434689 73.218094
13.373625 0.566587 0.000000
0.000000 16.388194 79.126746
31.456679 0.000000 78.216293
30.729823 0.000000 73.199429
35.327852 0.000000 38.708446
0.000000 20.492221 22.477624
17.428278 0.000000 23.074769
0.000000 28.420932 64.903829
1.631236 0.000000 20.372230
0.000000 24.858822 16.158719
40.000000 1.108899 71.123790
1.823641 30.000000 56.326152
0.000000 23.497706 46.096430
27.466864 0.000000 34.218238
26.523269 0.000000 70.103170
28.709261 30.000000 10.475520
0.000000 5.581950 49.354544
4.073793 23.098791 0.000000
27.883565 30.000000 79.011956
8.750415 0.000000 42.874430
40.000000 16.563253 26.609932
29.099099 30.000000 14.864658
0.000000 4.821057 52.428811
0.000000 3.121981 38.755668
13.695998 15.728669 0.000000
40.000000 28.146030 1.493307
34.458855 9.936955 0.000000
3.610411 26.939858 80.000000
15.692275 30.000000 25.536946
40.000000 0.137888 68.576944
0.000000 2.829250 20.829681
0.000000 23.138281 17.729784
33.036302 30.000000 74.066813
0.000000 5.886728 64.450506
10.752384 27.413533 0.000000
24.502191 10.603566 80.000000
40.000000 9.013998 38.336708
9.233383 30.000000 39.764963
40.000000 22.972611 65.729247
40.000000 16.308480 23.983480
35.875701 0.000000 50.712639
22.256268 0.000000 13.933232
11.315215 0.000000 77.049984
0.450193 0.000000 71.526317
0.000000 10.613622 4.107485
0.000000 19.989540 63.437569
14.673016 30.000000 7.560764
9.573681 6.901270 80.000000
40.000000 11.442844 57.780676
0.000000 18.455297 47.904688
28.520729 0.000000 12.585321
23.879166 0.000000 35.103825
16.799088 0.000000 36.133156
10.752841 0.000000 60.062031
38.049030 30.000000 10.632377
37.246157 0.000000 1.732413
0.000000 10.540568 78.206839
3.502579 30.000000 68.797269
0.000000 16.526170 1.757332
40.000000 19.747009 60.741724
36.562384 0.000000 8.562320
16.865960 30.000000 18.998733
0.000000 7.726998 21.062535
11.610068 30.000000 11.452768
14.556103 30.000000 58.032141
26.614243 0.000000 39.863211
0.000000 8.415960 44.745298
22.605796 0.000000 43.030812
26.033015 30.000000 3.598547
0.000000 19.730718 46.189120
0.000000 13.584050 51.787400
13.907373 0.000000 12.290637
40.000000 7.367064 31.619989
26.444244 0.505774 0.000000
6.966538 30.000000 22.926929
40.000000 9.542944 38.567981
0.000000 12.400406 33.748509
0.000000 18.669136 45.946254
40.000000 9.486067 31.904750
21.194557 0.000000 51.647137
25.060086 30.000000 8.072450
19.194105 0.000000 32.930314
0.000000 2.774675 11.657172
26.192805 30.000000 22.694234
40.000000 1.776578 69.607389
0.000000 19.648304 41.666789
7.328388 1.647104 80.000000
1.019086 11.204785 0.000000
19.917088 30.000000 64.129515
0.000000 1.957815 26.071515
20.915848 30.000000 38.121373
28.772830 11.272127 0.000000
40.000000 9.670196 28.976223
38.841876 5.046331 0.000000
1.681871 0.000000 35.127744
35.443092 0.000000 62.221726
1.171609 8.383680 0.000000
22.363110 24.120459 0.000000
0.000000 15.807651 16.830170
18.405839 30.000000 73.210347
14.393251 0.000000 79.499451
0.000000 25.180901 23.207984
34.696184 21.375544 80.000000
40.000000 10.924690 49.274030
40.000000 28.077184 61.937794
40.000000 18.891101 57.798638
0.000000 28.913865 37.970331
3.732615 30.000000 53.042199
40.000000 1.159104 66.266916
35.921197 0.000000 22.138702
0.000000 11.702936 9.256816
40.000000 14.043731 75.168123
19.066488 30.000000 28.439124
5.008015 0.000000 9.346869
9.186330 0.000000 47.756236
10.360017 30.000000 13.804595
32.056905 30.000000 43.537362
30.510640 23.485940 0.000000
5.275012 0.000000 34.211098
40.000000 13.765523 7.132180
39.516603 0.000000 25.545808
24.806654 30.000000 16.177534
6.471244 30.000000 62.908835
40.000000 17.287065 64.342295
0.671819 30.000000 53.262173
40.000000 5.070493 78.983726
0.307468 16.629750 0.000000
26.311587 20.717821 80.000000
40.000000 29.573954 24.268725
2.458633 0.000000 75.187444
32.455416 30.000000 28.056326
22.861007 30.000000 57.753014
40.000000 2.603129 21.309172
0.000000 0.002979 55.821136
23.207260 30.000000 53.328417
0.000000 25.784813 62.879877
13.136001 30.000000 2.336564
38.100846 30.000000 19.336966
11.907970 30.000000 17.188731
0.000000 2.804216 61.802107
40.000000 6.315614 61.365670
0.000000 12.801502 9.775139
0.000000 26.574266 63.882501
40.000000 29.028889 20.759613
21.183874 0.000000 25.510971
5.439207 15.944955 80.000000
34.820701 30.000000 17.525080
40.000000 0.073329 44.454639
3.314952 0.000000 27.749715
35.444111 30.000000 7.334921
40.000000 0.533030 23.353116
17.306084 30.000000 52.321057
40.000000 2.071554 10.244352
0.000000 19.419275 59.058452
33.753211 2.352785 80.000000
40.000000 29.378513 36.669391
13.771855 18.128035 80.000000
33.872700 17.638461 80.000000
28.773815 9.326392 80.000000
14.146934 19.950016 0.000000
40.000000 7.297865 43.001640
40.000000 19.012713 5.771815
40.000000 22.140930 38.735609
0.000000 29.041916 71.314234
10.126347 15.506308 0.000000
18.653803 30.000000 29.724534
20.388452 30.000000 52.565086
16.536335 0.000000 56.695934
40.000000 25.961560 10.372179
0.000000 24.930611 64.873882
15.429532 0.000000 29.309599
34.272919 5.072802 80.000000
40.000000 20.074395 45.933443
1.927131 15.309237 0.000000
20.205846 21.459263 80.000000
27.997313 0.000000 5.286168
15.272954 30.000000 50.993904
19.467261 30.000000 41.460941
6.125289 30.000000 47.967990
40.000000 14.631744 7.573755
9.001680 30.000000 44.451912
3.288560 30.000000 19.614597
4.515194 30.000000 38.819810
15.737447 30.000000 61.771742
0.000000 0.653317 64.313638
38.347885 0.000000 7.074485
38.609946 30.000000 37.105748
40.000000 16.316307 8.511787
40.000000 6.034189 76.312312
40.000000 12.999068 61.280988
9.673419 0.000000 62.434214
0.000000 24.357313 17.105124
0.000000 26.418889 16.432698
1.578109 26.512808 80.000000
0.000000 25.056015 51.843755
27.709605 20.929024 0.000000
14.601230 0.000000 31.227308
0.000000 25.050811 4.356210
0.000000 8.204817 79.469750
0.000000 2.222785 53.437672
24.909701 30.000000 23.318298
23.114093 19.121940 80.000000
7.857255 30.000000 25.935754
29.370402 0.000000 56.391216
1.738020 30.000000 69.576090
19.017578 30.000000 62.666245
39.956922 0.000000 32.353585
19.284125 6.317355 80.000000
7.441916 0.000000 29.899048
40.000000 24.229664 60.299270
0.625365 26.556224 0.000000
8.081835 0.000000 23.631471
40.000000 20.577804 20.740468
0.000000 10.317780 77.026830
1.075068 30.000000 13.448416
38.170141 0.000000 68.657065
0.000000 25.249309 45.263181
24.756101 30.000000 27.076957
21.368066 0.000000 69.181004
3.871077 9.285647 0.000000
26.031984 0.000000 55.538456
22.570633 0.000000 53.478703
39.495500 0.000000 34.621489
15.487993 13.228740 0.000000
27.892223 19.257018 80.000000
7.570956 30.000000 33.006126
40.000000 29.334884 72.375262
0.000000 26.245085 28.698836
40.000000 3.671697 8.618306
3.304222 30.000000 26.654648
29.655935 29.640840 80.000000
19.085253 0.000000 66.524928
6.946205 30.000000 65.804576
16.646425 30.000000 77.131058
31.994606 29.965939 80.000000
34.047757 0.000000 14.663210
0.000000 11.491401 22.577753
40.000000 10.701577 37.692217
40.000000 18.751600 43.048969
9.528769 30.000000 79.375227
25.944033 0.000000 25.566907
9.539537 0.000000 34.474128
3.475527 30.000000 44.821404
40.000000 17.780128 40.602883
11.918542 0.000000 45.272732
2.967672 27.755993 80.000000
40.000000 26.299848 65.832410
40.000000 19.008749 71.425962
0.000000 10.051469 78.515736
13.101289 0.000000 77.870065
0.000000 11.779700 32.258705
15.625779 0.000000 65.238433
0.000000 24.755820 54.477571
40.000000 17.359618 34.453503
16.537783 0.000000 40.495525
40.000000 4.600881 75.870383
5.997885 0.000000 51.697853
21.303438 29.474787 80.000000
40.000000 18.586187 3.093932
37.002814 0.561873 0.000000
38.746916 0.000000 75.326371
0.000000 29.269121 60.046586
9.959810 30.000000 50.508497
35.373003 10.770939 0.000000
18.469978 30.000000 69.634114
0.000000 20.628791 61.484535
6.677364 30.000000 74.607669
20.153487 0.000000 53.925904
0.000000 16.120637 14.503944
14.674041 0.000000 19.588048
15.155343 0.000000 20.230737
2.914699 30.000000 13.308164
0.000000 13.711010 53.796684
0.000000 29.294631 0.500976
40.000000 10.991338 47.710810
0.000000 0.610351 39.652470
40.000000 4.738078 67.769350
40.000000 10.795084 71.221175
22.407604 0.000000 76.400112
27.728185 27.491667 80.000000
0.000000 12.065191 62.075289
27.895585 29.066708 0.000000
23.938973 23.384033 80.000000
40.000000 21.007482 68.582879
3.933322 0.000000 3.756839
15.831425 16.452250 80.000000
5.131516 0.000000 50.493925
0.000000 24.090356 37.000169
10.917307 13.665634 0.000000
34.289647 24.875980 80.000000
31.517580 30.000000 33.472729
38.915736 30.000000 70.878168
14.870359 3.435576 80.000000
17.009184 11.800665 0.000000
2.279224 30.000000 14.848896
8.814380 30.000000 61.493160
28.968166 0.000000 71.708548
16.948244 30.000000 59.892620
23.528071 0.000000 47.202813
33.734115 30.000000 14.827959
40.000000 20.979378 11.154340
22.181405 12.720435 0.000000
16.145106 16.858754 80.000000
14.910651 30.000000 77.214227
40.000000 18.517120 6.117097
16.799930 30.000000 49.476237
20.484107 29.335386 0.000000
25.491008 19.272544 80.000000
32.366461 30.000000 55.197498
22.584805 0.000000 10.262040
40.000000 21.226606 34.519130
29.164971 0.000000 52.590811
2.709604 30.000000 65.039274
11.988606 0.000000 69.117266
40.000000 9.141672 4.067268
15.072959 30.000000 1.685862
14.980189 16.054045 0.000000
7.394069 22.935469 80.000000
0.000000 29.439348 22.800501
16.483322 0.000000 60.952389
16.998000 18.875100 80.000000
34.764795 30.000000 12.124532
17.907634 30.000000 59.140147
20.246187 0.000000 73.474632
8.328723 14.850637 0.000000
3.754675 7.684075 0.000000
22.221814 0.000000 39.135368
40.000000 2.566921 70.576116
32.175682 0.000000 43.569235
40.000000 6.402368 34.851897
23.388965 0.000000 12.858418
40.000000 10.905083 23.628030
35.923257 0.000000 45.465669
12.005767 0.000000 42.857289
7.169671 0.000000 60.108551
0.000000 10.175421 24.535058
1.166253 30.000000 53.425412
20.803440 30.000000 11.615138
30.127965 30.000000 45.873960
1.010461 0.000000 59.355954
14.693939 17.674279 0.000000
40.000000 17.445238 16.209918
36.606221 30.000000 47.459158
40.000000 9.564561 14.501337
0.000000 11.479496 59.706747
2.322342 0.000000 0.611899
5.972533 28.492454 0.000000
40.000000 16.544792 52.052289
15.985075 0.000000 25.369988
28.394093 0.000000 52.572233
11.038785 2.471576 0.000000
40.000000 29.994774 18.680370
3.298279 21.587516 0.000000
8.161235 30.000000 19.097694
0.000000 12.921237 7.993452
0.000000 11.035820 17.209701
6.751611 0.000000 49.460361
0.000000 22.845204 43.734488
40.000000 17.121051 66.103513
13.600677 30.000000 7.904839
36.540306 30.000000 8.409601
0.000000 11.646281 31.735315
14.923302 0.000000 69.200514
40.000000 3.521303 16.598714
16.461742 20.058456 0.000000
4.492735 30.000000 34.032233
5.712971 6.739444 0.000000
0.000000 19.280767 74.395886
20.268958 30.000000 35.324942
22.846983 30.000000 23.746846
4.824427 30.000000 50.983927
14.448673 4.338009 80.000000
24.390923 25.351258 80.000000
40.000000 26.098141 25.055488
14.762311 30.000000 0.029031
20.301778 30.000000 67.125705
13.503112 0.000000 37.695986
3.465765 15.454179 80.000000
0.000000 19.895493 70.711241
0.000000 9.537211 71.486307
0.000000 21.517776 15.186829
17.353308 30.000000 17.354915
40.000000 29.459746 21.429040
0.000000 29.995792 54.021362
0.000000 6.733795 56.976074
31.304607 0.000000 53.262989
0.000000 22.994152 28.549761
40.000000 20.249771 60.985423
17.503611 30.000000 15.458005
12.719580 0.000000 24.160009
35.572347 0.000000 43.996420
37.197198 30.000000 16.291957
19.625055 30.000000 63.168079
40.000000 6.659571 44.968122
26.730184 30.000000 30.370862
9.792917 30.000000 33.715574
0.000000 10.198540 15.130074
3.538274 30.000000 31.178194
40.000000 22.117364 70.109864
40.000000 17.515499 25.718967
20.300050 0.000000 23.550329
22.211755 0.000000 77.300106
40.000000 0.612354 72.953056
12.244762 14.721329 0.000000
40.000000 23.591302 52.765097
40.000000 20.725156 30.826129
0.701826 30.000000 74.989328
40.000000 5.786186 61.308892
10.276961 30.000000 23.962175
24.421582 30.000000 44.275009
9.363810 0.000000 52.555021
20.623840 30.000000 27.010380
13.891558 30.000000 30.427566
15.859020 0.000000 50.971468
20.273658 30.000000 11.698647
6.870848 30.000000 71.321745
0.000000 28.671076 14.039218
40.000000 27.909944 20.721824
40.000000 15.058328 64.552936
27.410052 0.000000 12.387513
40.000000 2.864020 19.166146
0.000000 13.031689 73.676233
20.797481 30.000000 8.968451
0.000000 12.075487 22.403261
40.000000 15.918522 79.792437
15.432320 30.000000 65.413499
40.000000 2.363410 6.461134
40.000000 14.821263 7.059634
9.005878 30.000000 67.585943
0.000000 0.522282 73.164201
36.981537 0.000000 0.083119
29.708604 1.731437 0.000000
0.000000 22.383328 71.334331
32.128144 0.000000 52.828315
16.451015 0.000000 35.225853
18.916360 2.960703 80.000000
34.489871 30.000000 23.402916
39.604810 0.000000 16.603122
40.000000 28.871519 10.869334
15.156066 2.338665 80.000000
0.000000 6.831801 21.798664
39.971589 0.000000 9.431231
35.625203 30.000000 27.146367
10.342334 19.173991 80.000000
40.000000 10.793211 11.765056
28.396055 30.000000 29.488483
0.000000 29.560462 11.586325
0.000000 15.654297 20.075219
30.757226 0.000000 17.710650
27.409918 0.000000 41.862771
20.882279 30.000000 45.130971
24.808571 21.996578 80.000000
0.000000 11.122953 31.577271
36.175277 25.218872 80.000000
27.305212 0.000000 47.112161
23.836850 0.000000 26.109083
11.343221 29.489687 0.000000
15.281160 30.000000 74.437624
0.000000 24.163680 56.335387
40.000000 7.524473 65.754030
0.000000 20.557512 33.954774
18.365575 0.000000 56.674089
40.000000 28.335833 47.504048
40.000000 4.283455 60.624129
20.352812 30.000000 13.232459
0.000000 1.082612 64.578161
39.935396 0.000000 36.664139
0.000000 3.187104 49.838637
30.191771 30.000000 49.562824
40.000000 29.466993 69.252904
17.079106 30.000000 75.596015
32.220339 0.000000 40.024410
36.768098 0.000000 13.944309
40.000000 8.750699 26.077563
0.886702 17.259889 0.000000
15.833569 7.075746 80.000000
0.000000 22.130992 54.524481
5.633877 0.000000 60.947045
20.467727 26.330230 80.000000
37.955801 30.000000 23.451241
39.243031 30.000000 46.065501
40.000000 14.091314 14.888926
15.170819 30.000000 5.720072
12.779876 0.000000 41.742344
37.456006 0.000000 13.414668
40.000000 22.067768 7.729206
35.279600 1.302478 0.000000
30.713975 9.690282 0.000000
9.743693 30.000000 21.814834
32.567001 10.008644 0.000000
0.000000 25.382260 15.905038
31.964806 25.051509 0.000000
0.000000 11.298221 47.337045
31.095340 15.750247 80.000000
17.021923 0.000000 20.293800
23.163136 30.000000 59.472955
0.000000 2.298977 72.371212
20.742514 0.000000 63.665404
40.000000 7.032693 49.246959
0.000000 18.687747 57.981116
40.000000 19.366757 64.051414
35.227205 30.000000 2.389656
15.157745 0.000000 11.920206
0.000000 19.880837 6.332365
32.655991 30.000000 18.340231
37.810953 0.000000 46.700932
40.000000 27.508026 70.641937
6.660302 0.000000 20.448656
0.000000 26.040777 40.151271
40.000000 29.427477 48.536489
12.150523 3.554918 0.000000
40.000000 2.492815 34.725218
8.547809 0.000000 12.716048
36.161492 30.000000 31.490200
7.588263 30.000000 28.076106
0.000000 29.450636 38.225068
4.647931 30.000000 36.334447
14.425229 30.000000 44.907625
0.000000 10.154607 77.672020
25.522978 30.000000 7.357186
23.646841 8.473939 80.000000
17.632297 19.754695 80.000000
4.911584 30.000000 66.620571
0.000000 10.389419 30.566343
14.974482 30.000000 14.790452
19.883520 0.000000 38.026765
0.000000 21.350570 73.826185
40.000000 12.232586 60.295412
1.180653 15.877700 80.000000
40.000000 10.844861 13.402421
40.000000 6.033844 24.170814
38.673103 0.000000 79.924782
38.445263 19.880347 80.000000
40.000000 24.136047 15.581002
8.039077 30.000000 66.650616
33.576552 30.000000 4.933926
40.000000 25.666238 44.562179
38.040302 0.000000 29.593974
0.000000 23.202529 20.471302
32.235069 30.000000 20.094837
0.000000 14.821046 71.994144
35.101788 30.000000 51.885956
35.443477 30.000000 50.952152
14.627594 30.000000 15.264022
14.719374 0.000000 9.389644
40.000000 28.551493 12.374921
26.071807 0.000000 46.849404
14.435251 0.000000 2.816397
0.000000 1.750960 21.403918
31.045423 30.000000 8.077069
39.074592 5.971386 0.000000
15.852331 10.440611 0.000000
0.000000 18.646215 39.003608
0.000000 24.297259 36.433795
39.407526 0.000000 46.319560
33.545935 30.000000 10.337602
6.519444 0.000000 42.841296
40.000000 5.375127 16.639903
35.345766 0.000000 29.463135
10.894476 23.368823 80.000000
0.000000 28.947619 48.452497
40.000000 1.302872 58.234755
37.687276 30.000000 14.588772
17.851475 30.000000 5.514881
18.578651 30.000000 24.453920
40.000000 13.345946 63.427397
20.696438 30.000000 54.683691
31.458222 0.000000 58.257459
9.394220 30.000000 1.209666
28.781625 0.000000 52.198321
26.939533 30.000000 15.782097
31.722983 0.000000 66.274061
33.033469 0.000000 16.080805
6.025581 30.000000 52.130891
6.273602 0.237291 0.000000
40.000000 14.830841 65.396461
28.821880 30.000000 6.743932
0.000000 16.287132 7.590244
30.289779 7.204315 0.000000
28.435116 0.000000 18.777563
40.000000 29.783497 31.772123
11.699233 30.000000 44.594574
0.000000 6.439948 13.780392
2.064966 0.000000 78.649663
13.396339 30.000000 36.643279
39.452703 13.431038 80.000000
9.920520 0.000000 19.784474
40.000000 14.472783 42.450769
40.000000 8.840129 45.376182
0.000000 14.523922 26.101108
2.626602 28.679303 0.000000
34.345105 30.000000 39.961760
10.697965 0.000000 74.592133
0.000000 19.421647 42.522637
19.483652 30.000000 1.034258
5.068484 20.828345 80.000000
3.684186 29.982793 80.000000
24.464374 0.000000 41.720365
9.655565 16.770914 80.000000
33.898086 0.000000 69.616208
39.339364 17.700091 0.000000
40.000000 18.295720 25.933079
0.000000 22.441460 51.578946
3.227364 0.000000 37.322533
40.000000 22.670321 51.223387
11.607679 0.000000 2.220656
40.000000 4.544887 11.658132
0.000000 7.893571 21.641697
17.066780 30.000000 14.964135
21.266832 23.422987 0.000000
40.000000 3.500851 11.738875
37.622350 0.000000 67.114432
0.000000 8.804844 54.343428
21.382871 30.000000 17.535448
0.000000 16.677731 38.752084
10.707339 0.000000 23.484052
10.325418 30.000000 43.917766
30.079824 0.000000 15.368799
16.882964 0.000000 63.802262
30.973592 0.000000 42.451831
27.382508 4.076007 80.000000
39.972542 15.956624 0.000000
26.303215 30.000000 68.060409
32.059957 13.097018 80.000000
1.148538 0.000000 68.496041
18.233346 30.000000 40.511837
1.337131 21.062568 80.000000
0.000000 24.601739 73.450963
29.913544 30.000000 69.877325
37.885803 0.000000 20.301533
24.769819 30.000000 76.544455
0.016727 30.000000 50.418410
40.000000 19.758161 1.253739
12.424150 30.000000 52.576970
31.341227 21.344193 80.000000
40.000000 8.312149 45.572718
40.000000 9.109533 50.830309
0.000000 10.510671 17.570291
29.999374 28.466363 80.000000
21.819277 30.000000 8.248543
0.000000 13.492112 47.851989
0.000000 1.415944 69.041847
34.828984 0.000000 68.000115
32.080823 28.722754 80.000000
40.000000 17.702304 9.342606
0.000000 17.662253 40.318728
10.137335 4.627896 0.000000
0.000000 27.557000 57.714286
28.506487 0.000000 20.482067
40.000000 16.429240 2.578741
0.000000 4.280037 28.480171
36.435837 0.000000 24.207555
0.000000 10.232699 55.497116
40.000000 23.712305 58.675979
33.014399 30.000000 77.366843
10.208002 28.362197 0.000000
7.503660 30.000000 21.989947
13.489976 16.727217 0.000000
21.489065 30.000000 27.244726
40.000000 3.156798 13.420935
26.602976 0.000000 20.013277
0.000000 3.203161 46.930056
40.000000 5.891701 19.707119
23.797235 30.000000 31.827945
21.954825 23.320661 0.000000
3.129219 30.000000 28.429612
0.000000 24.041229 54.977681
40.000000 21.220006 11.701033
8.986069 0.000000 70.487681
35.910143 28.779317 0.000000
4.395899 30.000000 60.788093
26.572789 0.102513 80.000000
30.269904 8.949663 80.000000
0.000000 8.458872 16.565581
3.123051 0.000000 65.009597
36.109003 30.000000 3.647488
13.450627 21.740135 80.000000
38.020343 0.000000 27.272742
40.000000 10.706000 45.999211
12.454716 0.000000 21.055598
4.385245 30.000000 76.089725
36.454430 0.000000 9.868832
0.000000 28.837437 75.467257
40.000000 4.130682 0.748275
22.935801 30.000000 68.692851
40.000000 14.257586 37.351561
25.159156 30.000000 6.159815
30.347233 30.000000 1.711254
28.673725 0.000000 75.406993
21.971359 4.520393 80.000000
1.715696 15.975599 80.000000
30.976213 30.000000 27.505794
40.000000 1.179058 31.953408
0.000000 14.827122 79.098079
7.011706 0.000000 64.712683
0.000000 29.991198 22.822667
0.000000 24.665777 50.289117
31.021647 30.000000 50.533448
40.000000 3.841171 9.096351
0.000000 20.458529 63.648146
38.653831 30.000000 68.235823
27.119544 30.000000 72.449655
0.000000 19.337715 60.587044
40.000000 23.190809 19.071361
12.597811 0.000000 4.813072
30.246618 30.000000 54.922208
32.067401 16.432949 80.000000
40.000000 6.405406 15.488394
22.679454 30.000000 68.193272
40.000000 18.091836 67.438178
38.884144 4.479818 80.000000
34.428329 0.000000 65.994966
40.000000 1.912601 13.912329
9.779745 0.573285 80.000000
22.658159 13.283809 0.000000
17.148160 0.000000 53.925897
0.000000 13.419334 39.239984
36.024464 23.504281 0.000000
13.726587 30.000000 2.335295
31.377468 30.000000 56.003469
40.000000 20.408085 60.283706
40.000000 11.937680 66.523144
2.714976 0.000000 47.135404
0.000000 18.902448 4.216765
0.000000 13.605876 24.446698
6.879822 30.000000 66.388620
1.202283 30.000000 64.863872
0.000000 29.789198 26.001914
0.000000 25.704561 11.094639
39.558939 3.515251 0.000000
18.795522 0.000000 56.949857
40.000000 16.074168 19.376450
0.000000 28.291031 17.891555
0.000000 18.596701 18.653169
18.641550 0.000000 48.308959
4.031269 0.000000 8.288976
23.561579 0.000000 58.319797
8.820724 17.006049 80.000000
24.982350 1.777737 0.000000
25.231289 30.000000 33.660489
32.463668 30.000000 1.630410
19.983696 30.000000 27.213293
40.000000 7.626070 62.354407
33.460459 30.000000 74.379524
40.000000 17.887283 28.996734
5.042962 2.590932 80.000000
0.000000 15.376798 21.239621
40.000000 27.885729 78.775806
0.000000 19.912747 52.304273
7.297678 30.000000 27.114664
27.360662 30.000000 68.761096
32.572873 26.946479 0.000000
33.208016 0.000000 62.623163
40.000000 29.453082 58.145471
40.000000 21.612489 73.179770
8.690815 30.000000 7.429601
25.471505 30.000000 76.728841
40.000000 12.845099 28.343161
21.151668 2.435160 0.000000
0.000000 11.225861 23.123378
0.000000 16.687438 43.983447
15.436784 30.000000 23.341016
14.834012 16.117069 80.000000
19.243209 24.134841 80.000000
37.151652 0.000000 56.508166
0.000000 26.589803 16.990696
22.943958 30.000000 21.936359
40.000000 23.681982 42.220016
10.821297 0.000000 59.115250
40.000000 8.128094 52.539265
0.000000 19.562191 43.493971
0.000000 0.555397 67.687355
0.000000 20.616347 67.248607
28.427532 22.471153 0.000000
33.823753 0.000000 72.040508
27.853381 30.000000 51.229574
5.702161 30.000000 47.392788
26.995087 0.000000 29.787887
0.000000 17.145229 15.192031
23.007594 0.000000 7.336744
22.094252 30.000000 37.051951
12.166738 0.000000 66.849800
0.000000 4.687360 74.030911
16.974155 0.000000 50.456151
36.136245 30.000000 57.441806
18.082762 30.000000 49.440951
0.000000 26.439018 12.230948
6.927196 18.707689 80.000000
12.933073 0.000000 63.080060
33.660011 30.000000 77.242211
0.000000 21.052143 4.015400
17.897750 0.000000 59.510080
37.690021 30.000000 47.607730
0.000000 9.654073 14.947823
3.078033 12.042550 80.000000
40.000000 3.991184 67.228777
37.479081 0.000000 2.305646
26.419920 28.541770 80.000000
17.221951 0.000000 28.347082
0.000000 24.112958 74.354591
11.558747 30.000000 68.839293
16.643355 30.000000 50.038893
1.427385 30.000000 76.315085
0.000000 15.560736 23.809102
39.298029 30.000000 34.088083
28.510788 30.000000 74.381170
13.773111 18.886325 0.000000
19.291970 30.000000 75.435715
31.585060 30.000000 12.060666
40.000000 20.525682 69.938293
19.756955 0.000000 45.515569
32.195710 30.000000 77.965452
23.938362 30.000000 8.158516
21.067328 30.000000 4.975849
28.902224 0.000000 4.914036
36.408926 30.000000 62.328823
37.578339 0.000000 0.980395
0.000000 19.861239 12.101750
0.000000 9.770405 23.422215
40.000000 6.433161 12.844839
4.568769 0.000000 49.509916
0.000000 24.027215 26.358101
21.982835 0.000000 69.332119
34.485641 27.724501 80.000000
23.697352 0.000000 24.452595
40.000000 10.508983 23.296135
40.000000 9.753511 61.188415
0.000000 4.588925 63.038268
0.000000 16.721600 0.415809
40.000000 27.611437 45.299158
1.676042 0.000000 56.633911
34.733978 0.000000 13.488423
38.475565 1.725774 80.000000
0.000000 18.039941 40.750844
7.483734 1.888332 0.000000
8.160455 30.000000 28.391643
25.096566 22.196167 0.000000
5.208795 0.000000 51.958173
16.001489 0.000000 79.400216
20.061013 0.000000 10.715263
19.702348 0.000000 16.682483
2.248137 30.000000 18.891969
29.084089 0.000000 0.684448
0.000000 7.144992 28.237835
36.670089 30.000000 51.437429
40.000000 9.049905 56.838550
37.359706 30.000000 70.202135
25.696318 0.000000 12.378414
35.847910 30.000000 30.514230
35.219743 4.485907 80.000000
36.875643 8.895005 80.000000
40.000000 20.543890 68.185889
9.598660 30.000000 29.965141
40.000000 9.317111 29.674850
0.000000 19.105243 57.685359
40.000000 8.987083 5.502679
40.000000 7.082878 38.110806
11.701906 0.000000 68.412245
0.000000 5.944033 33.808485
24.559221 30.000000 54.623074
29.013478 0.000000 36.947463
30.351403 17.021047 0.000000
27.204612 30.000000 15.070569
23.767847 0.000000 77.444984
7.536585 0.000000 51.716967
0.000000 8.794362 70.546986
0.000000 1.942896 41.997602
35.996513 0.000000 41.598566
32.776173 30.000000 34.817985
0.786811 30.000000 18.347890
0.102387 25.756331 80.000000
0.612964 18.725494 0.000000
40.000000 4.853524 4.881482
2.339834 30.000000 41.100109
40.000000 17.003208 8.277049
32.198391 0.000000 66.500564
0.000000 19.289140 59.580793
40.000000 24.287641 58.565477
0.000000 22.554140 35.435815
11.355988 30.000000 76.664019
35.083247 30.000000 4.389985
0.000000 29.850055 60.132242
9.351534 25.940740 0.000000
0.000000 2.934554 8.567003
40.000000 3.900687 70.735030
23.848804 9.717194 0.000000
32.647381 0.000000 36.498486
30.903256 30.000000 20.287277
29.417316 30.000000 71.605825
15.314866 24.478752 80.000000
4.905585 30.000000 7.012821
25.807656 18.859118 80.000000
28.288090 17.908363 80.000000
40.000000 10.444527 0.509713
22.773572 0.000000 57.246178
12.953375 0.000000 21.103583
0.000000 26.711156 36.802767
23.354420 3.708226 80.000000
3.671751 0.000000 20.891903
40.000000 22.266286 67.690150
0.000000 24.772356 36.603420
29.601256 0.000000 19.702992
20.290437 30.000000 60.917445
2.947900 19.304006 0.000000
0.000000 29.169429 12.656033
0.586021 0.000000 5.240317
36.653639 0.000000 49.674252
37.041151 0.000000 8.789169
28.921153 30.000000 38.869426
29.846765 0.000000 58.423113
40.000000 11.861616 25.751256
6.125894 30.000000 57.274082
0.000000 23.251242 18.229119
0.000000 17.602563 28.920439
21.370690 6.221828 0.000000
0.000000 5.325976 6.855559
37.191596 30.000000 45.191822
38.383208 0.000000 40.951296
0.000000 20.128409 77.442374
19.932294 0.000000 47.326398
40.000000 28.334836 51.232278
35.157090 0.000000 44.657727
2.179609 0.000000 0.012215
0.626250 9.850324 80.000000
40.000000 13.592290 75.542981
0.000000 26.098131 31.751298
20.455779 30.000000 0.765629
40.000000 8.406078 78.202104
40.000000 22.170350 12.694061
0.000000 15.324533 2.626512
33.801054 0.000000 7.284304
27.931726 30.000000 29.681120
0.000000 20.139667 12.590312
29.088187 30.000000 31.059464
0.000000 13.842984 68.941342
27.778440 0.000000 7.800111
0.000000 6.249234 10.318453
40.000000 8.124782 12.733472
32.489286 30.000000 46.788968
6.003000 20.156811 0.000000
40.000000 16.433990 71.207533
7.676695 0.000000 46.379451
9.369231 0.000000 28.735807
40.000000 26.890304 35.016458
40.000000 2.528710 13.899437
28.419019 0.000000 66.501341
0.000000 15.199038 74.508213
0.000000 17.462626 20.285286
26.372702 0.000000 74.853178
29.804632 0.000000 39.915660
40.000000 10.800765 7.959443
33.527690 24.693685 80.000000
5.777281 26.968627 0.000000
40.000000 1.883879 37.175277
0.000000 15.429483 12.847972
20.965223 30.000000 64.839310
40.000000 29.048456 12.621021
15.553389 7.364962 0.000000
24.969057 0.000000 52.677675
13.130596 0.000000 9.882841
40.000000 20.949540 76.267456
0.000000 20.333763 76.930439
40.000000 9.406279 40.585331
20.760002 0.000000 21.537073
27.862541 30.000000 39.469585
37.042861 18.010964 80.000000
38.467655 30.000000 65.170959
9.808309 0.000000 41.222913
40.000000 9.466076 20.667337
40.000000 7.866100 78.226248
0.000000 3.144622 9.237569
40.000000 27.543402 61.888545
0.000000 12.486690 62.452752
40.000000 12.558434 50.230135
32.788306 16.778035 0.000000
27.999501 0.000000 20.422552
23.732898 14.283421 0.000000
3.215571 30.000000 6.357915
33.874289 0.000000 7.800236
3.114686 0.000000 39.434897
3.961845 0.000000 45.338246
38.807613 30.000000 31.583300
13.331475 8.234131 80.000000
40.000000 3.843219 24.185648
1.620216 30.000000 74.239669
20.885367 18.727204 0.000000
0.000000 9.805654 32.476418
30.584428 0.000000 71.872055
0.000000 10.718522 60.635994
20.856001 6.960904 80.000000
39.079077 0.000000 47.067553
18.601392 30.000000 23.507893
6.046836 0.000000 42.094573
0.000000 29.459993 15.543776
27.504149 30.000000 16.675110
0.000000 22.287169 13.387837
40.000000 7.644100 55.224135
6.401711 30.000000 49.868193
33.803308 0.000000 52.821585
0.000000 22.665115 9.725845
0.690973 30.000000 9.845688
31.841894 15.237268 0.000000
37.669780 19.333427 80.000000
32.319122 2.570699 80.000000
35.064454 30.000000 3.878467
0.000000 17.015594 48.795159
40.000000 11.748434 18.105031
40.000000 6.254686 5.613113
0.000000 4.936803 24.668280
31.523883 19.479936 0.000000
27.962337 0.000000 72.075179
15.537223 30.000000 70.339417
15.520950 30.000000 60.522272
25.015628 30.000000 39.345605
0.000000 14.828443 15.541033
20.811161 30.000000 62.859596
0.000000 14.083266 48.807105
18.720462 0.000000 75.355758
3.241353 30.000000 60.252291
25.736969 0.000000 56.362883
40.000000 17.513520 0.026164
29.499102 30.000000 9.824229
13.963927 0.000000 2.216520
22.206173 17.097496 0.000000
25.774803 30.000000 62.770746
40.000000 4.392749 52.860948
10.863585 21.125069 0.000000
27.341404 30.000000 17.452395
0.000000 9.059858 62.107589
0.000000 18.772668 27.802157
14.612514 30.000000 54.165678
14.995078 18.981166 0.000000
0.000000 29.426199 54.020386
35.622257 23.802183 0.000000
40.000000 14.893801 34.190544
18.709860 0.000000 30.108757
14.256660 20.049292 80.000000
3.637516 30.000000 39.797320
0.000000 4.614079 44.025970
22.327791 30.000000 40.870172
7.289781 30.000000 47.381587
3.102842 0.000000 64.150026
28.576641 18.993514 80.000000
17.327376 0.000000 8.480842
8.097909 15.007601 80.000000
0.000000 4.394677 65.685962
0.000000 27.817789 44.954193
22.600303 30.000000 51.104179
38.721898 0.000000 48.202076
40.000000 6.293882 8.670065
30.086568 30.000000 42.807002
15.603777 30.000000 20.684963
33.038713 0.000000 4.859411
40.000000 24.590856 15.963738
4.768559 30.000000 17.661857
11.217000 0.000000 53.892488
12.204542 0.000000 34.960632
7.193053 0.000000 50.417969
29.615779 30.000000 79.544724
24.763725 7.359740 80.000000
4.124748 1.392163 80.000000
3.514280 26.484262 0.000000
34.081268 0.000000 55.278851
40.000000 16.021010 1.172142
40.000000 12.355415 0.006787
6.630681 14.334679 0.000000
34.832716 30.000000 39.829993
0.000000 22.128624 2.620518
17.340331 30.000000 59.446091
40.000000 22.532097 68.323202
9.217492 0.000000 23.419676
22.390021 30.000000 34.587217
22.270799 15.876785 0.000000
5.141014 0.000000 61.050518
40.000000 17.624684 29.965956
34.621250 30.000000 9.573861
0.000000 28.791716 69.074005
0.000000 22.281977 59.042710
22.426058 30.000000 49.916813
13.773447 0.000000 45.813234
7.651337 0.000000 32.402175
30.258597 0.000000 73.705097
8.830355 30.000000 11.749724
3.982337 0.000000 33.486389
40.000000 6.500560 53.519073
40.000000 11.483351 19.962388
20.917758 0.000000 32.958170
19.589098 0.008465 80.000000
29.864325 17.644873 80.000000
26.881681 0.000000 6.691181
15.619290 30.000000 64.110942
0.000000 5.870194 69.278591
0.890719 30.000000 5.329212
40.000000 28.856680 73.644321
0.000000 24.623775 45.142843
0.000000 12.835486 8.529393
22.477589 30.000000 0.743977
40.000000 18.495888 4.720233
10.435628 20.047470 80.000000
26.492445 0.000000 55.255531
40.000000 24.253538 2.523459
0.000000 18.344740 72.657252
4.868048 30.000000 25.557604
22.677379 30.000000 70.903524
15.917252 0.000000 49.277155
0.000000 13.171603 64.627369
32.935893 0.000000 4.287348
12.484690 0.556996 80.000000
2.658813 17.040769 0.000000
34.760414 0.000000 53.400948
27.336047 26.428570 80.000000
0.000000 28.202149 72.284683
5.983393 13.145648 0.000000
30.353650 0.000000 5.148024
4.869292 30.000000 49.858782
0.000000 5.805426 39.175645
12.357687 26.415557 80.000000
27.823100 7.771057 0.000000
0.000000 3.262411 7.520288
17.104624 30.000000 68.617896
3.907250 0.000000 19.918625
23.661287 30.000000 0.311121
40.000000 10.698355 52.228825
39.054652 0.000000 0.059647
0.000000 3.518886 22.282523
1.344424 0.000000 60.374421
38.230305 30.000000 67.845344
8.713755 30.000000 31.635430
6.882638 30.000000 66.932677
0.000000 23.834488 72.631185
25.314538 30.000000 9.812654
11.222947 30.000000 15.003757
21.946881 30.000000 20.686551
4.746751 0.000000 20.104871
9.360224 13.515366 80.000000
37.652160 30.000000 76.825729
4.876316 30.000000 20.315784
0.672293 4.089653 80.000000
2.618441 30.000000 46.953393
21.392475 30.000000 67.779067
17.067973 1.102027 80.000000
0.726192 0.000000 40.065380
30.847220 30.000000 40.296575
40.000000 2.286342 18.064537
40.000000 5.723085 6.696293
6.944513 30.000000 22.178622
32.388658 0.000000 20.182377
0.000000 7.915401 10.408170
0.000000 26.879490 73.636776
16.396876 29.011467 0.000000
13.793676 30.000000 41.025270
14.005236 30.000000 68.360858
40.000000 10.889036 28.815325
25.806495 0.000000 23.051432
18.377926 0.465545 80.000000
34.966742 0.000000 6.792808
6.942289 29.099452 80.000000
16.816038 0.000000 13.319330
40.000000 8.281872 14.344695
16.356073 0.000000 36.979516
40.000000 0.051106 20.261061
33.972052 30.000000 7.780397
40.000000 6.672528 60.832698
0.000000 9.154797 56.468007
0.000000 11.403556 73.752959
0.000000 6.055094 59.495483
40.000000 18.896946 52.733707
17.288362 0.000000 46.174199
40.000000 14.866130 19.843440
18.109774 0.000000 0.613713
40.000000 23.973345 13.428749
0.000000 23.780810 61.393480
31.104124 30.000000 45.842818
40.000000 22.852058 9.044644
37.535651 0.000000 66.561601
0.000000 26.178354 79.343153
15.660087 30.000000 54.068417
0.000000 19.975896 78.549311
40.000000 22.977173 57.331274
9.236166 30.000000 61.223990
40.000000 24.041697 61.913059
7.225959 13.469250 80.000000
0.000000 2.408351 78.147128
40.000000 29.465621 42.586099
40.000000 24.757415 47.163675
2.335623 0.000000 43.538902
16.466973 17.642922 80.000000
0.000000 24.047675 30.455046
26.490527 0.000000 35.667212
4.144797 30.000000 4.958162
10.059811 0.000000 51.105178
28.069129 1.788623 0.000000
24.163288 0.000000 53.425958
20.328689 30.000000 70.229580
20.487252 30.000000 32.405967
40.000000 12.409291 70.116512
30.496458 2.250073 0.000000
5.830416 0.000000 55.479717
11.751044 0.000000 26.611000
25.262829 7.588024 80.000000
38.559586 22.648764 0.000000
9.802238 30.000000 16.473483
40.000000 27.397477 35.016553
2.278725 0.000000 50.358556
33.166430 30.000000 47.445917
29.434192 30.000000 4.927069
40.000000 18.285035 58.931185
24.372885 30.000000 41.335047
0.000000 25.859816 36.477414
5.766747 0.000000 62.045260
38.005943 30.000000 22.945603
20.075555 0.000000 60.816348
23.650900 30.000000 19.278284
4.690104 8.326565 80.000000
40.000000 6.732856 28.471084
6.897998 14.346577 80.000000
16.004150 30.000000 48.825705
0.000000 19.175539 68.343271
18.084526 0.000000 2.716696
30.871701 0.000000 78.060058
6.882868 0.000000 79.405335
23.844425 30.000000 36.056222
21.335811 30.000000 18.049171
0.000000 15.540958 21.861288
25.517347 30.000000 54.976737
36.376333 30.000000 1.305799
1.202667 30.000000 22.572236
25.875794 0.000000 19.816312
23.742657 10.340191 0.000000
35.171887 0.000000 11.332118
4.659842 0.000000 43.384578
40.000000 6.958337 14.128887
0.000000 15.923032 69.625637
18.240571 0.000000 27.872601
8.626989 6.907710 0.000000
0.000000 7.462656 45.992653
21.986344 30.000000 35.935841
40.000000 27.757295 8.788978
5.345787 30.000000 77.937957
22.672745 0.000000 14.571118
40.000000 20.457015 8.636026
0.000000 17.090820 2.789058
40.000000 18.215678 13.840314
8.110736 30.000000 73.593834
32.023727 13.192291 0.000000
37.850196 14.577375 0.000000
38.558908 30.000000 65.663238
4.361497 30.000000 25.765585
40.000000 20.484773 40.686934
22.602776 0.000000 64.752075
40.000000 1.117626 7.803470
18.342283 4.053551 0.000000
33.790837 28.231702 0.000000
2.780232 10.945967 80.000000
5.683789 0.000000 72.266989
11.505110 16.382864 80.000000
11.788968 30.000000 29.429067
0.000000 2.662941 73.015635
0.000000 13.953153 37.675117
11.823090 30.000000 25.411017
40.000000 27.601544 33.317920
15.077607 0.000000 18.086663
0.000000 16.254205 18.757696
0.000000 14.666099 10.292520
40.000000 29.246822 18.956627
40.000000 24.083054 7.480296
0.000000 15.109882 44.583146
13.744227 27.980591 80.000000
0.000000 28.079241 30.621279
0.000000 7.611877 1.662743
20.967046 0.000000 33.499129
37.505769 9.065202 80.000000
0.000000 29.415543 39.808252
26.551284 30.000000 50.719627
39.611514 30.000000 39.716880
1.815449 30.000000 9.978665
1.654980 24.806477 0.000000
31.107912 0.000000 12.636638
40.000000 4.934574 25.518966
26.804610 30.000000 47.267015
25.290773 20.086158 0.000000
31.908478 30.000000 56.371827
0.000000 4.567622 14.064237
40.000000 3.304538 78.732614
37.195505 0.000000 3.486228
8.080321 30.000000 34.705174
11.066633 0.000000 78.749909
31.846779 0.000000 70.303947
8.119271 30.000000 76.865158
0.557834 0.704571 0.000000
15.352521 30.000000 50.365316
36.246888 30.000000 70.003913
7.427175 10.208054 0.000000
0.000000 15.937054 67.093165
40.000000 5.451431 33.032990
6.788666 0.000000 62.387508
25.947739 30.000000 52.355066
0.000000 11.806779 50.017370
30.091369 0.000000 45.210186
17.193241 30.000000 47.958850
34.974598 9.670273 0.000000
27.309356 29.048824 0.000000
15.315503 16.316194 80.000000
0.000000 29.444943 13.332701
33.681190 30.000000 5.584043
10.401810 30.000000 70.591960
6.324084 14.608176 80.000000
9.579981 0.000000 42.738024
0.000000 28.814582 26.090603
2.836028 0.000000 37.639043
12.718064 0.000000 1.183253
0.000000 1.698730 59.257604
40.000000 22.894104 11.460990
28.328136 0.000000 25.008314
9.339050 0.000000 13.724096
7.856646 30.000000 62.154585
0.000000 11.358395 69.398915
0.000000 12.587060 61.399119
40.000000 7.661208 51.442155
9.818897 30.000000 44.074543
19.098951 28.029731 80.000000
15.809679 30.000000 14.317066
24.943062 0.000000 24.392902
0.000000 16.930509 6.632833
5.960688 25.253735 80.000000
27.285479 0.000000 3.870619
10.834740 9.046482 0.000000
0.000000 8.543326 70.069212
8.756740 30.000000 74.286472
22.972538 19.136060 0.000000
35.922096 1.464095 0.000000
7.482402 0.000000 42.028590
24.867543 30.000000 74.805793
2.618730 22.969797 80.000000
37.204146 30.000000 65.577182
8.083794 27.486924 0.000000
0.000000 4.062596 62.295569
4.458685 17.750295 0.000000
38.005386 0.000000 27.832304
40.000000 0.800975 5.759802
30.214549 0.000000 56.516377
0.000000 6.508611 33.502930
33.134313 14.385905 0.000000
25.449869 0.000000 46.000123
31.496326 0.000000 50.303165
40.000000 10.367402 8.269192
7.866139 30.000000 14.535065
3.870662 0.000000 40.610954
6.908456 18.008643 0.000000
34.193300 0.000000 65.442911
40.000000 11.961614 45.374607
28.009896 0.000000 76.715219
19.964109 0.000000 9.595318
32.007943 11.973578 80.000000
40.000000 14.162552 3.719054
0.000000 11.180970 8.632842
40.000000 23.311256 40.406489
28.503455 0.000000 5.472853
0.000000 6.435643 14.553735
0.000000 9.610348 5.848263
40.000000 3.323662 10.549548
0.000000 22.359802 45.677134
40.000000 15.314343 78.517636
0.000000 13.233904 45.202005
28.946955 30.000000 36.136522
0.000000 10.085735 71.967144
31.700920 0.000000 48.139343
26.029964 0.000000 67.521857
0.000000 3.733287 17.243474
2.254466 30.000000 52.777420
31.245406 1.212562 80.000000
11.206869 30.000000 11.763588
34.978288 24.785197 0.000000
27.819558 30.000000 10.495596
0.000000 0.007966 23.446978
40.000000 13.894510 30.948509
38.890620 30.000000 47.654676
6.246324 30.000000 4.114464
12.390440 10.116474 80.000000
24.885491 30.000000 70.092207
18.716730 0.000000 78.150344
0.000000 19.809663 13.387670
13.956597 0.000000 4.914933
22.469016 0.000000 51.079038
40.000000 17.032069 60.795596
29.018870 0.000000 75.876419
17.514439 16.018233 0.000000
0.000000 18.334902 18.029685
29.765513 30.000000 18.119088
19.167094 11.826425 80.000000
0.000000 25.783010 38.163249
12.109239 5.308956 0.000000
38.053841 4.205522 0.000000
36.604502 0.000000 56.500646
36.613213 30.000000 45.425013
25.122637 30.000000 64.199309
14.386714 30.000000 67.506438
0.000000 7.057656 40.074501
40.000000 3.372581 52.262021
21.245610 11.951680 0.000000
17.197563 11.307119 0.000000
19.319366 0.000000 20.589690
19.044539 0.000000 70.679107
40.000000 0.084463 19.552014
19.945753 0.000000 73.012605
0.000000 3.501565 74.661058
24.910834 30.000000 37.818578
4.550787 0.000000 53.306132
23.913182 30.000000 44.174848
37.701998 3.499588 80.000000
15.686331 0.000000 42.142484
40.000000 26.405076 41.907623
0.000000 22.902493 4.751625
23.124270 25.792216 80.000000
5.639574 0.000000 72.783445
40.000000 17.199579 53.878142
34.062574 30.000000 24.959757
13.533805 0.000000 26.613906
34.188861 0.000000 18.279235
40.000000 0.570646 71.256890
0.000000 6.809584 70.616456
3.250907 0.000000 2.138512
39.157339 30.000000 16.854404
19.176240 30.000000 13.275173
