31.628914 14.095156 34.280966
11.580017 3.416279 31.428557
9.251632 12.436839 0.000000
12.508825 19.341241 23.086602
9.176531 18.142972 18.169791
8.083366 5.435072 75.907831
16.315193 15.158041 0.000000
24.424208 18.745379 44.131997
37.103030 3.875990 65.140414
13.419891 2.354028 97.083655
2.234940 12.920231 96.986290
12.950192 2.625209 11.408459
7.674809 17.399152 3.555762
35.740149 8.180277 17.737719
4.758958 7.354420 92.448886
7.952821 5.510442 77.383008
27.779305 0.000000 58.605877
12.568207 19.382081 87.523177
35.729742 0.000000 97.078612
35.387367 0.000000 51.864785
36.910083 4.705136 26.408955
17.666406 0.000000 97.075016
35.526795 0.000000 64.337863
2.935778 13.660755 18.708641
9.180080 11.112555 100.000000
0.731284 10.838987 18.528971
20.301903 0.015957 98.211189
11.686527 3.354786 76.297377
4.615384 15.260351 83.486710
19.307546 19.894759 62.243607
26.553592 0.000000 13.484199
9.394389 18.241736 17.270463
19.118424 0.000000 73.020927
30.414532 15.245393 96.479529
0.594073 9.759018 72.523309
37.426316 1.237987 38.512739
36.761525 5.364209 6.396409
28.960633 0.000000 85.055255
29.331416 0.000000 5.591191
1.741467 9.096569 63.562583
21.448812 19.602352 84.628105
32.642146 13.049008 71.001523
7.459165 5.795455 86.553890
37.444317 1.042992 72.795192
31.647742 14.075260 36.044051
21.915441 0.000000 50.463502
28.366356 0.000000 68.209263
33.101712 12.492311 13.140977
24.420022 0.000000 97.708291
23.176638 9.564962 100.000000
3.914481 14.643291 20.268858
3.206665 8.250637 82.427892
37.396507 0.000000 29.386277
0.200714 9.986123 37.273956
36.803855 5.190547 96.957604
28.371304 16.757492 21.143382
12.936159 2.633310 15.691634
12.142419 3.091577 26.821318
25.767963 0.000000 35.871427
37.062905 4.008133 39.951495
34.915650 0.000000 8.466738
32.820143 12.850487 40.213043
4.325959 10.465904 0.000000
5.387251 6.991675 7.209958
4.932344 7.254315 34.468132
3.629062 14.401553 79.568474
21.890754 0.000000 5.372409
28.193514 16.854422 3.608261
25.251299 18.386308 12.761744
1.755211 9.088634 29.449536
29.107021 0.000000 35.714550
22.867433 19.219089 3.311633
14.718907 1.604041 68.432868
17.752866 19.972403 53.961330
10.854450 3.835186 68.925366
22.342095 0.000000 36.774225
0.181388 10.007405 4.170217
22.446591 19.346731 33.384075
10.065235 18.548687 43.876444
5.115772 7.148413 71.009936
2.995623 8.372482 80.639246
32.855055 0.000000 75.799003
11.460591 19.026710 16.274506
3.068627 13.822581 93.321250
24.623954 0.000000 17.584299
29.709502 15.809866 47.395609
37.496861 0.006472 20.667052
1.593200 12.108461 5.165649
32.188591 13.503750 32.879843
9.258608 4.756546 30.840808
17.711119 3.744155 100.000000
19.352202 0.000000 10.192840
7.620911 17.381914 64.178612
19.737072 19.842092 35.506578
13.099657 2.538915 42.404313
6.078626 16.403805 87.645912
35.270888 0.000000 32.365918
11.532857 19.061367 63.428319
25.012003 18.497489 57.889341
1.922932 9.009550 0.000000
32.988209 0.000000 22.214611
32.148364 13.572272 80.536249
13.897554 2.078249 59.584569
7.158497 5.969046 28.496670
18.840986 0.000000 89.034881
24.583088 18.666562 1.125172
16.389393 19.955550 46.662716
37.233713 3.177186 75.278164
6.752098 6.203680 54.583847
4.098763 7.735584 24.818799
17.998551 19.972694 65.472350
19.214173 19.904867 47.594753
3.683972 14.448059 35.942303
8.923715 4.949897 51.439441
31.078149 14.677144 16.227157
8.262240 17.735737 44.997253
20.361804 19.780879 76.787934
19.665082 1.913773 0.000000
17.187671 0.178699 66.898488
27.501289 17.278649 26.476363
12.399958 2.942886 76.844329
21.799884 19.522582 73.343769
14.808261 16.291559 100.000000
16.470626 0.592685 74.862695
20.213436 0.000000 47.674398
12.499403 19.365140 97.098936
14.168803 19.699023 47.873033
30.426984 15.229124 36.734779
23.912632 18.939981 49.700786
28.039756 16.958420 27.696269
22.534364 2.319306 100.000000
25.954850 0.000000 76.776496
18.191463 0.000000 47.923551
31.060995 14.012057 99.302611
2.623975 8.587053 62.855878
1.783925 12.369223 93.848591
21.856302 9.175321 100.000000
32.385851 13.295306 8.317014
1.314474 11.691344 1.404631
26.064936 0.983986 0.000000
9.398077 4.676023 65.072021
35.320013 9.015475 44.263868
5.925101 6.681147 84.967237
37.474446 0.448632 66.554852
20.768741 19.725214 64.547697
7.943960 5.515558 86.578794
33.829966 0.000000 73.036639
1.286422 11.694069 55.809226
29.422495 16.041906 51.204175
35.798484 0.000000 30.579339
23.924741 0.000000 68.240323
22.976984 19.198272 20.568488
19.957689 6.569966 0.000000
35.890487 7.816965 63.328877
16.428104 19.970066 86.527358
34.321717 0.000000 81.642196
24.254646 18.813172 29.325301
7.931265 17.562188 35.285543
36.327370 5.409399 0.000000
27.660226 1.370312 0.000000
0.478240 10.452776 5.889874
28.843037 0.000000 30.421364
37.465167 0.631677 82.462738
3.355622 14.127680 50.864176
18.164677 0.000000 36.960255
15.556740 1.120317 21.724410
25.439118 0.000000 85.904509
31.728655 0.000000 87.938465
12.536810 4.936869 99.984053
14.393721 19.737603 56.503361
31.313750 0.000000 69.919410
21.821372 19.512567 29.965843
6.490954 6.354452 39.031275
21.138515 0.000000 41.439317
9.630645 18.361223 73.801093
28.145809 0.000000 93.760473
33.567540 11.831527 2.789905
8.414032 17.813912 95.347608
18.374318 9.372872 0.000000
0.606709 10.676262 78.217014
13.221125 19.534272 92.442723
18.609846 16.772313 0.000000
35.830371 1.563850 99.945541
34.550507 10.447905 85.119395
14.318560 17.664091 100.000000
9.410710 4.668730 79.184689
27.471674 17.306893 47.097900
28.123328 9.764839 100.000000
9.391704 11.937966 0.000000
8.937059 18.031898 13.501164
2.599213 13.286507 21.146897
26.159901 0.000000 25.416222
5.046509 7.188402 49.182121
15.073868 1.399104 34.201850
32.825734 12.845080 90.768862
31.837529 11.594885 0.000000
31.052125 14.705701 97.970935
0.303920 9.926538 16.008265
17.966630 19.964168 9.265926
25.059008 18.490082 95.201056
1.793096 12.380427 45.346604
3.193162 13.954972 74.464120
31.317112 0.000000 47.761773
1.902442 12.514016 30.721564
5.417187 6.974391 68.308553
32.435487 13.270810 82.740455
1.097623 9.468293 29.446688
4.699478 7.388761 11.216017
1.791930 12.379003 81.615624
28.034296 16.969981 43.862768
27.354333 16.914431 99.198923
0.777401 10.944691 86.432628
5.332239 7.023436 39.389767
4.734396 7.368601 78.837666
13.006119 19.487622 91.543042
25.827888 18.156754 86.745161
10.239138 4.190437 87.206641
2.927424 8.411857 44.020394
22.998174 8.798190 100.000000
25.315976 6.764667 0.000000
1.332664 11.752973 43.813903
14.435246 19.760484 90.273231
37.436383 1.055746 31.874637
36.724911 0.000000 35.304357
29.286033 16.147617 57.745890
18.243319 19.972921 75.396431
7.939935 17.567224 52.130430
33.703909 11.700265 81.309893
28.626847 0.000000 51.989760
30.098777 15.512213 80.550619
17.553291 0.000000 2.887404
11.348449 15.670016 0.000000
16.698372 0.461196 93.639127
3.245042 8.228480 90.488700
36.357751 6.535248 49.819465
23.257256 0.000000 62.248950
33.811327 11.518183 37.622419
31.849561 13.862000 33.161524
15.939577 0.899287 6.056938
2.401375 13.052117 0.949670
0.846472 9.613295 33.849996
11.086348 3.701300 58.448118
7.797056 5.600373 12.458513
33.642863 0.000000 42.429388
35.796887 8.065735 12.076740
21.927871 0.000000 60.118593
35.559966 8.544023 30.038431
9.402829 4.673280 15.013306
4.703317 15.311401 39.913615
15.687228 1.044980 31.101425
20.851430 0.000000 82.892944
21.619380 19.554653 5.632856
7.561613 5.736307 80.697845
32.600555 0.000000 58.437280
22.497515 14.809276 100.000000
14.116901 19.697680 61.318222
10.269845 4.172708 84.427493
6.637358 16.782071 80.286486
18.976219 19.928581 64.654977
14.428095 19.731013 32.326218
13.655520 2.217987 57.844496
26.664945 0.000000 76.161537
1.662986 12.214548 58.127495
23.497177 19.065009 86.463619
10.060124 9.761514 100.000000
15.252146 19.849845 17.964971
3.804413 7.905527 76.910178
35.472586 8.720424 54.385852
0.204649 9.983852 68.476517
33.064046 12.544832 80.696389
5.974791 16.327101 13.294266
35.767263 8.125540 53.395783
16.569160 19.970670 82.707083
10.033204 4.309333 76.729524
11.458522 19.032772 34.782569
36.367225 6.517021 56.653275
19.877460 5.915328 100.000000
2.661697 13.387066 67.374130
2.946422 13.692666 75.773480
7.961422 17.579705 47.658113
4.717277 15.329678 46.265253
26.328285 0.000000 90.162518
34.499247 0.000000 12.482533
34.996731 9.634116 45.452076
35.283726 9.010621 98.366062
2.201114 12.829587 2.630799
9.442903 18.279852 94.885341
19.971777 19.804177 14.049345
11.014258 3.742921 97.626409
32.813060 12.843879 1.274816
37.470872 0.519133 41.737936
9.459875 18.280309 37.005765
25.321952 18.355608 7.576444
37.493790 0.067045 23.007531
27.249117 17.436380 41.011030
3.110946 13.867569 73.883635
37.492958 0.083446 11.070478
30.293185 15.347934 95.889491
1.076298 9.480605 66.397701
3.319953 8.185230 21.573188
18.890299 19.938122 44.829191
10.093955 18.559289 15.312197
3.157491 8.279028 26.620764
36.936948 4.629373 48.680074
1.026791 11.277935 18.492367
10.854004 4.396991 0.000000
9.259891 18.177549 10.588721
2.278252 8.786657 87.054579
16.779771 0.414200 31.977588
21.323193 0.000000 50.546319
15.992348 0.868819 2.760877
18.282745 19.973667 94.580981
28.988435 16.365833 18.692403
24.354960 18.772902 37.609185
2.280017 12.971744 83.794051
29.567534 15.931946 61.726118
35.606624 0.000000 74.479334
33.780073 11.599735 91.311074
14.876047 19.791298 15.715657
5.344027 7.016630 54.672361
22.834038 19.264575 79.143727
20.567636 17.862859 0.000000
7.761885 5.620679 51.209201
3.027392 13.752899 3.436315
35.215762 9.206903 35.826500
20.134778 0.177970 98.813473
34.060562 11.199328 94.064548
4.372743 7.577401 97.968055
23.552901 19.046386 25.482379
11.692931 3.351089 13.616407
7.212266 5.938002 43.870088
22.012746 19.474216 86.015309
12.883532 19.458077 44.158114
6.413309 6.399280 10.472477
6.577578 16.741599 85.376136
20.072326 1.482661 0.000000
29.009390 13.998009 99.988751
36.111305 7.201491 60.788715
26.972460 17.594544 56.394707
0.520216 10.540244 83.112934
35.518562 0.000000 26.563247
33.740662 11.587377 0.709483
29.874193 15.677647 46.798243
24.486838 18.733285 87.359391
21.237204 0.000000 87.177747
14.713792 1.606994 64.857871
25.570448 0.000000 38.335480
2.689278 8.549351 18.595939
31.635583 14.088109 59.958497
37.448481 0.707963 0.384297
35.967550 7.602173 81.381463
13.303345 19.547633 8.669223
29.906242 15.674909 92.760033
12.564768 19.359883 28.593817
26.401736 0.000000 93.017782
12.237763 19.278747 73.543569
26.145403 18.016136 57.322752
4.028798 7.775978 33.996619
13.135986 19.518264 47.151893
5.889169 6.701892 12.019371
9.620512 18.339499 5.648639
13.103486 19.511089 37.303696
17.154748 0.197707 63.385852
36.832685 5.072267 41.286026
34.277876 0.000000 57.634213
3.363276 14.135817 51.573833
27.824498 0.000000 47.430834
37.329789 2.438518 2.300242
33.182806 0.000000 33.340408
13.479529 2.319596 62.659732
11.397714 3.521532 20.401232
18.552682 19.970426 18.914735
27.209669 17.454524 30.575678
3.666894 7.984924 65.301135
1.704170 9.118103 61.309851
26.759547 17.714524 30.262094
10.093820 18.561840 24.586171
29.934596 0.000000 62.964648
18.596462 19.969694 1.517439
16.129822 0.789448 88.529566
5.253667 7.068800 20.126825
20.338881 19.773086 50.397154
6.561171 6.313912 44.147652
26.402940 17.907365 80.032304
15.917540 19.936468 53.593513
16.613969 19.954273 34.198302
6.664860 7.313628 0.000000
17.822893 0.000000 44.566150
8.141697 5.401394 86.072461
15.871668 0.938494 23.808787
19.933481 0.000000 81.400128
15.157388 19.841095 29.652961
8.548490 17.874555 57.456607
14.788858 1.563654 38.398662
3.137916 8.290329 88.159697
18.365613 0.000000 6.805523
31.579123 0.000000 21.934484
3.646233 7.996852 60.413710
34.303966 10.827381 56.609242
3.178930 8.266650 22.057904
0.409064 10.365446 68.179756
20.626386 19.727725 26.799586
37.427276 1.246734 42.649163
29.491076 15.996677 67.712842
6.943420 6.093220 21.881138
14.288333 19.719603 52.617893
18.043934 17.777580 0.000000
4.679400 15.305729 59.918444
23.672014 0.000000 35.355300
21.574560 19.122546 99.223543
7.332257 17.214244 79.208517
9.138546 18.143159 57.518109
36.384163 6.492145 76.025823
15.770198 0.997077 76.822462
8.761334 5.043647 38.142904
29.750990 15.787733 66.296817
31.194232 0.000000 44.517547
13.374427 19.563095 88.171688
0.826037 11.009573 55.083730
2.033113 12.668148 41.954229
25.681810 18.214067 70.256131
28.870667 16.450483 45.568268
4.822521 15.412361 9.122302
11.276490 18.980300 46.032474
23.454474 19.077101 34.258269
15.379981 19.510623 99.123725
8.180954 5.378730 1.497783
35.710361 8.240411 73.004437
27.487294 0.000000 14.258322
17.605393 0.000000 37.776166
9.414648 4.666456 70.601798
26.880105 17.646588 27.856567
25.293066 18.367912 8.210638
36.993596 0.000000 33.477937
28.089795 16.903644 98.417402
16.568923 0.535933 95.791588
26.887066 0.000000 87.676778
19.136299 0.000000 89.675431
25.425120 0.000000 23.684000
34.071892 0.014001 98.227823
11.457630 19.039411 95.006035
8.410057 5.246457 85.459437
1.928132 12.545402 61.717069
37.203008 3.295484 21.035058
14.869580 1.517050 41.654012
15.722860 1.024408 44.767552
28.234290 16.833672 10.512156
15.505394 1.149962 88.486507
9.287274 18.197872 28.285298
22.025534 0.000000 12.649195
11.263252 3.599164 77.084791
37.342471 2.456995 65.924131
7.488209 5.778686 17.866732
22.030267 0.000000 55.149707
10.193907 4.216551 34.669153
16.236483 19.957648 94.094948
7.435705 5.808999 32.450583
24.275251 18.797987 9.675188
37.442225 1.024438 41.617713
18.690403 19.958035 59.385187
37.342958 2.452940 56.038598
14.679569 19.765572 24.463998
4.633295 7.426972 88.779551
26.438778 0.000000 52.561856
3.685108 14.449021 5.257470
37.039493 0.000000 21.497189
0.999655 9.524855 67.079391
21.409004 19.611397 47.627131
7.183538 7.267646 0.000000
3.541192 8.057498 51.396563
2.159131 12.827615 72.013389
12.872145 2.670269 73.217155
31.722857 0.000000 8.927885
7.044969 6.034591 26.948268
29.611970 15.889077 49.301173
6.190960 6.527653 4.344101
0.825965 9.625135 22.526303
22.412932 0.000000 11.327805
0.590871 9.760867 66.703756
17.952518 0.000000 88.048353
33.358757 12.145569 29.593092
24.716663 0.000000 24.863019
3.380726 14.154368 57.480478
19.168955 6.436755 0.000000
4.389033 11.218607 0.000000
13.572610 2.265855 68.153670
14.002192 19.681128 75.129214
22.418341 0.000000 65.052119
7.076278 17.037967 35.781868
5.392585 6.988595 39.902300
17.623220 19.967354 31.840420
2.595334 8.603589 26.692009
3.151020 8.282764 53.354402
5.415237 15.918609 16.320311
13.423638 2.351864 54.785801
22.362188 19.384195 63.399333
30.056279 15.519635 25.973602
18.868217 19.941145 24.555844
26.273611 17.957029 27.493766
28.734670 0.000000 34.908462
4.235954 14.915564 49.895124
14.543336 1.705407 89.233860
26.539360 0.000000 76.711085
2.198985 8.832421 19.975180
34.135918 11.084176 78.186018
9.833479 4.424644 18.664957
5.533909 6.907002 42.623954
11.855009 3.257513 93.491297
7.061745 17.029047 36.299184
35.739880 6.863648 99.295141
5.299606 15.816432 5.931018
21.939048 0.000000 96.466120
21.194898 0.000000 78.320362
36.348496 6.540384 12.920474
16.490621 0.581141 59.647615
7.859253 5.564464 68.952805
27.263063 17.430786 50.023900
3.705490 14.466284 84.526324
20.257353 0.000000 95.024457
20.563036 19.594383 0.000000
1.779164 12.363406 85.509028
15.580466 1.106619 85.350160
10.024095 5.102223 99.497220
37.399558 1.833809 76.501081
16.908774 19.958810 35.549847
13.531460 19.591303 26.693375
21.537222 19.582264 51.345996
13.097384 19.509618 93.071677
36.641554 5.780838 64.033372
3.980380 14.699104 18.330374
9.493778 18.293069 30.990287
22.442945 13.323589 0.000000
5.754694 16.184501 31.466289
6.851323 6.146393 89.031709
27.943122 17.012282 20.458493
36.820180 5.123570 69.312878
1.237262 11.614997 48.402048
0.768202 9.658484 70.684402
33.598599 0.000000 10.429896
4.860308 10.250361 0.000000
20.733883 6.163717 100.000000
25.725131 18.197808 77.685621
35.773230 0.000000 36.810158
30.091494 15.518367 97.614379
18.592434 19.967403 76.904817
19.213617 0.016365 98.213095
9.276768 4.746061 87.378094
19.633256 0.000000 67.731613
1.131411 9.448786 65.764225
12.409039 2.937643 24.872166
25.855703 18.133755 28.935768
7.951198 17.573766 28.022178
1.402068 11.860638 91.362526
9.063208 4.869360 95.247967
1.604968 9.175377 84.469450
31.374828 14.377188 86.609302
10.095038 4.273633 54.629643
5.883761 16.271880 90.838563
1.986713 12.616970 57.911754
1.341465 11.778436 65.174833
34.008608 0.000000 44.670858
13.612670 19.607890 84.825647
1.467180 9.254929 60.842841
6.286003 6.472780 92.369389
3.973247 14.711450 86.510740
6.424371 16.604847 0.506102
33.217548 12.333371 17.230992
3.488835 8.087726 23.164441
6.488888 6.355644 75.445279
14.297394 1.847401 71.657340
4.278291 14.951422 30.293412
10.186001 4.221115 19.458690
4.429865 15.079798 9.075159
15.853509 0.948978 70.388087
28.433574 5.908618 0.000000
18.294148 19.971368 37.755932
7.527564 17.327692 84.569957
11.322036 3.565225 64.358337
2.466565 8.677934 64.831966
35.075492 0.000000 74.559812
37.468905 0.557941 28.093051
20.853166 0.000000 34.248429
1.346837 11.770782 39.837751
10.967918 18.885485 80.376830
12.080312 19.234111 93.167432
37.493486 0.073032 82.539004
20.640847 0.000000 12.171170
3.686530 14.450226 25.192961
33.631353 0.000000 44.253869
1.947137 12.553711 14.287310
1.109190 9.461615 24.873618
6.312351 6.457568 55.521334
27.190026 17.454515 7.781676
20.919973 19.691558 27.860503
27.408755 0.000000 0.101267
36.922097 4.705449 80.830868
11.458133 19.038783 79.264237
36.651591 5.742056 50.361171
33.946848 11.347508 61.340935
9.927784 4.370197 89.841208
22.608498 0.000000 12.187983
8.852688 17.993966 14.561797
14.291938 11.396202 0.000000
23.733775 0.000000 89.594362
16.206685 19.941437 13.602760
23.749632 0.000000 71.516324
4.169191 14.883131 96.016723
2.366036 13.057527 68.353209
25.230215 0.000000 43.645253
18.744915 19.951837 0.994978
27.266063 0.000000 19.018742
11.237324 18.965062 29.638195
26.943250 17.611005 48.919707
31.594635 7.287457 100.000000
29.610867 0.000000 9.689685
34.856355 9.888788 30.716184
28.149794 16.913202 67.298472
27.966077 0.000000 82.136352
36.617970 5.844072 60.745437
27.784348 0.345015 99.117836
12.471725 19.347306 70.509569
28.867965 16.452262 38.664084
35.511246 8.641867 35.186473
7.347361 5.860005 18.417933
17.591566 0.000000 5.370206
10.439897 4.074528 28.289241
36.329331 6.614529 52.146924
30.190284 15.415095 30.674442
14.575633 1.686760 20.191076
9.346604 18.237632 57.000025
37.470391 0.528635 72.824514
3.444241 14.221890 32.435745
6.127205 6.564462 74.337088
31.029160 0.000000 28.530139
29.392158 0.000000 34.656259
14.169709 12.517365 0.000000
17.118618 19.971382 63.151397
17.518646 0.000000 46.432761
30.876414 0.000000 54.538859
4.864455 15.458597 45.803955
6.436514 6.385882 59.629143
12.411629 2.936148 34.256869
1.184714 11.501104 4.491139
13.454969 2.333775 31.532440
36.891694 4.756220 10.832550
30.527825 15.147207 34.732462
10.913876 3.800876 8.769079
28.866181 0.000000 55.321569
32.820121 12.851757 67.815722
28.101152 2.978116 0.000000
10.901238 3.808173 53.122002
3.129330 8.295286 81.830190
37.218338 3.266653 85.749439
6.099608 16.418010 80.938625
32.791264 12.886086 81.915949
3.926481 14.653454 43.100007
21.831144 19.515479 52.837611
29.549212 15.936193 43.957520
20.356677 19.786033 97.874478
5.405963 8.084577 0.000000
17.523881 0.000000 9.720605
9.462002 4.639116 41.609868
8.185423 17.696175 76.602537
24.072947 18.887145 56.873155
5.898955 6.696243 20.197872
29.891078 15.638122 2.466296
10.568057 18.760834 89.117572
4.216843 14.899378 55.209524
4.305808 14.974728 51.770327
3.251980 14.017500 34.416413
6.052844 16.386351 34.912628
7.827096 5.583030 85.283096
1.771398 12.353918 88.760281
34.513834 10.506681 59.758218
5.355691 15.891653 85.012269
1.869129 11.238281 99.544866
37.494612 0.050834 57.189148
16.247218 0.721670 37.007592
16.815040 0.417263 98.257747
19.218331 19.904048 58.050991
21.117438 19.666370 43.680270
20.401445 19.763367 45.638725
7.625888 9.308749 100.000000
12.810691 7.083661 100.000000
26.526794 17.845614 79.464188
3.317925 14.087605 44.390901
27.219047 17.455589 63.172529
4.245106 14.925457 66.517507
32.753381 12.914682 23.392410
8.980191 18.076470 69.651745
9.091274 18.113184 38.474115
37.394762 1.516633 5.894939
12.657374 19.403571 96.087142
8.327787 17.754817 14.048291
26.172211 18.010582 91.985460
30.319928 15.306560 22.612462
19.447502 19.874178 25.572533
37.231682 3.189004 43.271503
2.194766 12.839282 27.838899
15.431778 1.192464 49.229333
29.734474 0.000000 19.277838
28.009615 17.000541 74.714144
16.286361 19.940642 8.204610
24.308848 18.802910 77.691463
30.960940 0.000000 32.236580
10.611252 3.975596 7.454112
34.536201 10.472389 45.562354
21.793542 7.816309 0.000000
36.687415 5.627002 36.694042
0.695289 9.700581 81.818494
8.932744 4.944684 24.325045
34.576603 10.403247 74.264582
31.125055 14.627580 80.698685
15.681264 7.999107 0.000000
1.862998 12.465827 46.934208
17.532916 0.000000 45.924118
28.766170 13.263546 0.000000
36.644785 5.724294 16.823107
13.712997 19.615422 19.324685
25.760021 0.000000 61.314024
2.817626 13.516998 0.976617
34.925718 9.737416 10.088736
11.402377 3.518840 79.372532
0.928516 9.565927 93.542538
36.992773 4.337011 37.570923
26.639381 17.782239 14.110754
22.344528 19.398829 84.756112
17.543399 0.000000 73.455934
37.367252 2.044362 29.460822
34.625681 0.000000 26.684212
27.557433 10.014957 0.000000
20.021044 0.000000 75.174970
34.559384 10.432714 89.396138
18.711162 19.955420 72.388601
5.282639 7.052073 15.207868
13.637693 19.611879 35.577111
19.680232 19.855564 90.091895
30.425424 0.000000 79.676402
13.875728 18.972062 0.000000
2.036476 8.926246 94.040673
3.274421 8.211518 47.562102
21.581769 19.572142 47.074274
37.014288 4.303711 67.051873
0.901018 11.089259 16.239084
4.584722 15.237896 92.979982
24.351884 18.766036 12.150885
16.525284 19.973912 93.675659
3.550700 14.335065 97.598614
30.454954 15.211235 56.121645
29.639907 0.000000 75.084634
24.094795 18.876358 13.254958
22.307391 17.435894 99.992200
25.708756 18.195174 25.106872
13.832106 2.116035 32.835723
3.763300 7.929264 75.227686
29.202262 16.196796 14.636640
27.703893 17.182372 97.375414
14.774624 19.776340 16.804632
6.369115 16.586855 30.680212
6.113583 16.427471 87.137764
20.795057 0.000000 76.939818
7.650830 17.399293 58.983182
23.685972 0.000000 70.992812
1.330631 9.333766 10.155159
16.494803 0.578726 71.134651
36.678568 0.000000 24.297819
13.454191 2.334224 73.656518
32.317848 0.000000 74.614709
3.123341 13.880745 69.026541
14.721814 1.602362 89.703723
4.426822 7.546179 74.139291
7.994085 5.486619 71.577076
7.806843 17.489915 53.316947
8.821742 17.996307 51.545836
5.370687 15.896323 55.859627
28.747678 13.773113 0.000000
10.599574 3.982339 85.580175
30.482599 0.000000 44.631013
9.976325 4.342172 14.260092
15.139385 1.361278 16.674938
14.889831 1.505357 60.434388
0.777664 10.911938 23.496087
13.196608 2.482940 76.963746
31.491922 14.239914 44.712252
24.482889 0.000000 38.267177
3.202550 8.253012 54.384864
7.214804 5.936537 53.697983
30.161286 0.000000 76.763458
0.904728 9.579661 64.443754
15.193352 19.855056 49.123616
29.233358 7.725177 100.000000
21.870111 0.000000 66.957702
37.452697 0.000000 2.708496
1.355033 11.775611 30.835712
28.430793 16.739968 81.480566
12.235167 3.038029 13.613673
36.984693 4.329251 17.877599
1.774840 12.358123 71.385106
37.356232 2.127734 15.522180
23.300478 19.124204 58.146568
2.251712 12.934641 75.546119
9.299640 18.191966 2.314121
31.599015 0.000000 23.605170
14.285137 19.693663 0.646563
0.270962 9.945566 51.744815
18.010557 2.398317 100.000000
23.432177 0.000000 78.312769
34.296972 10.838069 73.975582
8.624386 17.921741 85.914799
15.142104 19.837569 27.218636
4.897506 12.918254 99.995571
16.688700 0.466780 86.695908
18.147427 19.969093 16.203177
23.155254 0.000000 9.538155
16.985850 19.970474 98.054018
19.147042 10.495440 100.000000
16.537972 17.684349 100.000000
21.788261 15.941815 0.000000
36.338287 6.613197 73.357097
37.037978 4.230040 96.277905
36.467346 6.209119 19.479667
12.683069 2.779432 79.720079
26.341090 17.252795 0.000000
21.383202 0.000000 23.108459
20.937997 16.339095 100.000000
19.667982 0.000000 58.757129
35.648203 0.000000 96.085445
17.405926 0.052689 47.426354
16.472100 19.969525 83.256230
19.233432 19.901392 87.556040
34.825340 9.926133 6.775978
22.236314 19.394380 98.286875
19.519777 19.872590 43.962762
2.468388 13.170410 66.215768
7.457799 5.796243 4.419670
4.789244 15.384177 31.446392
2.121190 12.781261 73.359113
20.938424 0.000000 76.409418
12.217684 3.048122 76.250181
11.561151 19.052772 5.531216
13.463218 19.579790 91.829373
32.247231 7.694891 100.000000
12.627307 19.376965 24.334092
2.695932 8.545509 73.118561
3.203699 13.949083 2.363807
28.374570 16.763601 36.817538
4.813739 7.322792 31.328805
28.172304 0.000000 14.854508
4.692942 7.392534 7.746823
28.746492 0.000000 95.129495
10.284679 16.769899 99.978081
4.858920 7.296707 30.802394
9.131033 4.830201 62.888965
6.115327 16.428652 97.909447
14.874033 1.514478 86.523421
21.093475 0.000000 72.314240
4.186383 14.892730 83.243366
37.251416 3.074169 88.050739
11.758176 3.313420 24.103556
31.905669 0.000000 27.494103
36.683830 5.639028 44.728285
1.525126 12.006857 4.576076
14.132248 1.942748 35.146030
11.705034 3.344101 61.322313
9.306432 6.722844 0.000000
32.221572 13.468898 6.675145
17.488027 0.005288 85.925875
26.143571 0.000000 96.995612
30.205405 15.422110 89.264187
11.548150 3.434678 38.300419
37.050461 3.992526 8.067686
12.235287 3.037959 61.323214
8.268967 5.327916 22.622393
36.388151 0.000000 84.376401
21.941296 14.784388 0.000000
14.176045 19.713816 85.690920
31.660049 14.073934 71.043171
19.693273 19.833430 0.514658
9.876407 17.610562 0.000000
25.753093 0.000000 0.988693
22.179039 0.000000 62.998846
31.659148 14.063208 53.544000
8.424717 5.237993 54.215979
35.328269 1.365467 0.000000
7.730342 17.445479 81.588807
2.708792 8.538084 84.688372
37.341296 2.450591 34.954069
18.373252 19.973444 90.627053
36.197085 7.015010 92.258007
3.389777 14.163990 59.824664
17.658977 15.259725 100.000000
32.201466 13.490145 32.171140
36.908742 4.716130 28.363959
36.108268 0.495180 0.000000
25.382087 0.000000 71.874811
32.008770 1.728894 0.000000
10.596085 18.769186 80.781805
14.158769 19.695003 42.795768
18.829126 0.373319 99.162022
1.321748 11.751691 74.625591
2.535277 13.203761 4.110792
31.883599 0.000000 59.637488
33.766963 0.000000 46.207489
0.867322 11.062499 44.786473
23.973855 18.921556 46.889129
35.047972 0.000000 12.991927
18.454559 0.000000 58.381031
9.026159 18.092725 59.141645
32.813493 12.859642 69.483395
0.265152 9.948920 76.838243
2.312694 12.977482 37.600720
34.060515 11.174257 43.924085
31.238497 0.036134 98.371367
8.688334 5.085794 7.245920
8.891182 18.019498 32.597909
33.859107 11.428081 8.886800
23.148348 4.732387 0.000000
17.036337 19.953198 14.538245
16.672906 19.944665 4.490183
3.130893 8.294384 15.967846
8.891015 4.968776 53.321471
2.919094 13.663614 76.378680
32.887754 12.771299 75.462831
33.326908 12.197875 47.907840
1.228209 9.392899 14.320942
20.892512 0.000000 78.719960
33.588578 11.800033 0.274838
3.023506 13.774613 43.255857
25.824275 18.143737 9.164985
2.711870 8.536307 94.767943
22.338585 19.399457 81.465450
9.906126 4.382701 75.072022
16.340918 0.667572 76.759239
16.929952 19.951109 12.762742
26.452656 17.882577 45.260164
31.416558 0.000000 28.166646
17.597950 0.000000 69.379809
4.571620 7.462580 24.705914
19.511940 13.652427 100.000000
29.867127 0.000000 22.147130
22.863304 0.000000 15.196095
34.407868 10.668609 38.304469
8.974588 4.920525 91.513472
14.342240 1.821509 91.697070
8.761967 5.043281 11.049598
7.279300 5.899300 3.372862
36.436694 6.294553 12.460287
26.664214 0.000000 38.356996
4.445159 14.944756 98.704052
13.369999 2.382833 67.118497
36.816351 5.139280 35.254742
17.333832 0.094313 41.724207
6.768150 16.863853 73.324936
24.242267 0.000000 81.983002
17.569783 0.000000 76.417450
24.961192 0.000000 76.764465
19.102685 19.915917 57.211472
37.183472 3.469535 65.527932
36.872049 4.883287 25.030130
15.494132 19.890395 42.028473
15.987199 19.937219 10.199777
33.721169 11.639161 31.057713
16.473402 19.972152 90.694303
0.858058 9.606606 72.928401
2.650844 9.878970 0.000000
12.208113 3.053648 87.103348
18.061917 0.000000 91.987771
34.493048 10.538446 36.930029
25.473857 0.000000 63.674356
16.940330 19.965610 53.699314
6.658224 6.257878 41.691251
4.039257 14.748971 30.692716
13.325696 19.550502 7.555429
15.520106 1.141468 51.472655
35.303100 9.026785 21.312337
25.168579 0.000000 0.148659
3.382055 8.149376 50.036562
2.892623 8.431949 85.476137
26.490229 0.000000 4.178036
16.331082 0.681444 98.090138
26.992039 17.583512 60.494651
0.748185 10.868607 24.060827
6.132138 16.435886 29.330143
34.805018 9.996640 41.411129
13.510256 2.301856 38.794544
1.270257 9.368622 80.326774
1.395231 11.012597 99.300206
32.107569 13.589365 19.293411
1.998346 8.948260 33.297693
6.284526 16.543201 51.531948
33.323482 1.851147 0.000000
22.242412 15.329748 100.000000
22.039503 19.468136 91.041286
22.461387 10.729635 0.000000
6.960771 16.985279 72.144722
31.386534 0.000000 41.343178
28.433674 16.738072 74.763371
28.919972 0.000000 52.602275
31.287240 14.456200 8.204186
13.004064 2.594106 59.055244
30.898874 14.836115 73.235812
6.136147 6.559300 61.981426
33.992054 0.000000 82.233843
36.030458 7.461941 89.296291
29.539710 15.922782 8.126573
0.695676 10.810235 48.115465
17.496175 0.000584 39.026679
6.585801 6.299692 64.340041
14.446240 19.757124 79.984113
31.248858 14.496758 35.857302
25.326676 18.356755 26.459887
29.683781 15.837949 60.162161
26.449407 0.000000 34.945246
19.262354 0.000000 75.938402
33.870187 0.000000 48.917170
21.786764 0.000000 24.920920
21.229075 0.083091 98.560691
6.161131 6.544875 47.105538
14.558428 19.740219 10.475480
0.733351 9.678606 59.754849
0.687129 9.705292 55.394785
10.011242 18.523386 89.904804
37.495171 0.039806 69.439519
4.673658 7.403668 38.762924
29.465040 0.000000 92.455407
23.955404 0.000000 6.529561
23.286873 19.120578 31.364810
29.071571 0.000000 19.422444
2.220416 8.820048 77.920365
34.767600 10.038992 9.574477
16.231178 18.887928 0.000000
23.558267 19.041099 17.700786
32.805515 0.000000 37.165273
24.422285 0.000000 37.570184
3.371499 14.135988 1.625071
10.804702 18.831964 31.060643
34.538976 10.467640 41.417310
36.771504 5.323269 66.369927
16.728245 0.443948 63.050771
26.763436 0.000000 62.290578
35.066067 0.000000 59.745071
27.027661 10.385108 100.000000
22.896361 0.000000 76.081844
34.596939 0.000000 82.334938
15.344611 1.242790 1.354035
37.076346 3.914978 27.593397
8.850885 18.018557 71.776278
27.051412 17.550054 79.970061
36.734316 5.469677 72.784452
27.848671 17.093428 68.846480
36.276482 0.000000 56.922608
24.008177 18.910273 45.066253
37.250340 3.021673 0.586948
11.676219 3.360738 85.666014
10.560478 4.004911 34.005956
26.280071 0.000000 7.657219
24.383798 0.000000 41.755399
2.899096 8.428212 46.314535
9.536948 4.595846 94.135159
19.085929 0.000000 68.668846
19.341764 0.000000 31.534204
3.117984 8.301837 43.455061
1.689924 12.250048 2.595276
31.045940 0.000000 73.972283
4.764498 15.385283 76.478915
37.496471 0.014149 94.692388
0.220821 9.974515 48.644692
4.744835 15.363905 65.193411
2.993244 13.742442 50.776741
2.023421 8.933783 60.028350
33.947464 11.347734 62.690573
33.803770 0.000000 58.486844
27.985656 17.012629 70.454816
24.333114 18.794246 95.266794
3.337330 14.108234 32.966462
37.409018 1.439332 29.503720
17.390410 0.061648 85.403027
21.678476 0.000000 1.785746
11.873013 6.668597 100.000000
3.943015 7.825505 6.511876
30.656805 0.000000 38.907500
36.041809 7.395194 16.911161
7.691940 5.661062 90.865146
0.577711 10.630660 80.342142
37.491679 0.108685 6.055721
18.512721 19.968636 0.551388
18.018236 11.040260 100.000000
35.296543 0.000000 85.476847
2.155965 8.857259 83.431405
9.094970 18.131667 78.902412
19.714969 19.852065 88.592869
25.276502 0.000000 58.390402
8.063266 14.926143 0.000000
36.849501 0.000000 97.817437
9.267587 18.179577 7.269905
36.302262 6.705706 68.895016
30.073372 15.532003 70.389556
2.530715 13.227538 47.472876
6.899035 16.953929 85.929910
34.112003 11.120721 69.487301
24.078774 0.000000 59.591962
37.308042 2.743631 40.876287
32.375817 13.323740 55.422755
17.701333 4.363568 0.000000
18.576110 19.970655 34.903450
5.406453 15.929512 62.207993
13.016405 2.586981 24.646417
14.863867 1.582317 98.437373
23.979131 18.919969 32.419725
18.883666 0.000000 27.997773
12.999870 19.486116 22.921690
5.265020 7.062245 94.036100
32.127228 13.568592 39.397370
0.942543 9.557829 26.566495
31.890893 0.000000 10.006966
16.895867 0.347172 6.761162
36.913958 0.000000 96.047382
24.966392 18.508032 21.211063
24.458569 3.242115 0.000000
25.916945 17.565299 99.328339
37.359990 2.210956 40.662791
1.991534 12.622860 48.513194
2.264996 12.948709 74.394199
21.627336 0.000000 25.504341
32.781452 0.000000 97.050669
33.610949 11.791575 28.630723
28.870273 16.450743 16.973445
28.277064 0.000000 52.450023
14.570737 1.689587 66.663420
0.648462 10.741922 70.705076
3.961334 14.682973 66.915805
26.150929 18.016742 74.991119
5.371577 15.903624 89.638442
9.609315 4.554065 56.680462
23.493404 19.062064 24.948795
23.103937 1.303097 0.000000
11.831154 19.139039 21.838463
31.072388 0.000000 21.954251
16.867138 0.363759 12.325768
35.492281 0.013207 98.222017
20.788833 0.000000 13.997602
20.186597 0.000000 29.352436
18.871397 19.938270 92.314032
29.907532 15.644631 36.021383
30.369383 15.282098 48.415694
34.609714 0.000000 42.438278
25.152329 18.438191 60.829056
12.227090 19.280193 96.480670
25.607732 0.000000 50.667552
20.850146 0.000000 64.065086
15.064297 1.404629 60.947835
16.123125 19.927980 98.209968
10.041512 4.304536 5.824307
26.498065 7.834296 100.000000
36.725263 0.000000 76.235388
5.678880 6.823303 6.246069
14.624683 19.783723 78.644212
36.916616 4.717962 45.117127
1.246989 9.382057 19.859223
32.408006 0.000000 1.226090
9.029559 18.103185 89.002624
17.794705 6.002626 100.000000
36.369039 6.526795 70.268642
14.877137 19.817903 84.052912
7.149147 5.974444 67.926044
28.576657 14.407891 0.000000
28.661458 16.588165 55.401701
6.259223 6.488242 0.771973
1.779012 12.363220 94.743763
30.001828 0.000000 72.424168
13.169893 19.524639 67.438142
7.782863 5.608567 30.710087
16.418147 19.956466 48.143571
14.917981 17.600844 0.000000
19.607144 0.000000 62.188832
37.418509 1.552089 91.889119
4.672804 15.285558 15.403890
2.507393 13.173948 6.103968
20.034969 19.791803 2.905396
37.081764 4.021163 83.750677
6.198379 6.523370 75.901748
6.547692 16.719357 64.891585
7.193295 5.948955 70.151696
22.922714 19.212216 19.360541
24.065168 18.889923 71.431797
7.752807 5.625920 31.282652
36.750905 5.407778 88.039442
5.902335 7.531415 99.534724
15.302917 12.069751 100.000000
30.483876 0.000000 13.062805
8.332365 5.291312 13.027082
25.028993 0.000000 85.354449
25.856606 6.637068 100.000000
26.155761 18.016039 83.026473
10.006372 4.324824 7.460990
23.260968 0.000000 66.903206
2.693316 8.547019 22.001750
3.818271 7.897526 66.898553
21.152587 0.000000 19.243836
32.018088 13.683919 24.816660
20.294062 7.729321 0.000000
15.907126 19.935776 75.675267
9.328947 18.204365 0.197095
19.513093 19.865073 23.271136
36.918101 0.000000 49.081542
26.559895 17.827030 82.599942
37.470643 0.523648 76.263769
13.442120 6.087346 100.000000
32.713449 12.949136 8.055691
5.403972 15.908138 14.275039
8.760367 17.961843 36.848710
29.186806 16.220376 93.224773
22.192147 0.000000 15.213417
37.421166 1.296526 35.572483
37.415600 1.480167 54.378058
28.371821 16.747867 3.012122
26.844398 17.666709 39.089409
34.786135 10.003117 9.063612
22.285012 19.374974 2.958821
17.485534 0.006728 88.762176
2.040017 12.682092 88.419307
10.097094 4.272446 92.280622
37.418916 1.195194 11.117173
0.996412 11.282812 79.771349
24.350628 0.000000 2.896810
20.484296 19.758506 59.183920
23.976816 18.920666 85.440791
33.220514 12.334430 23.692465
36.833607 0.452439 0.000000
10.269361 18.636161 41.958936
0.704067 10.808548 30.773264
0.457997 10.442399 61.586367
37.378319 1.867644 26.477886
3.423890 8.125222 13.729854
24.676488 16.915720 0.000000
1.083210 11.382681 44.149346
36.476419 6.220857 55.549807
13.938761 19.669202 73.838062
13.267521 19.542995 56.236624
20.647591 0.000000 75.143575
34.947408 0.000000 62.909037
13.797568 2.135976 73.349306
4.393805 13.073541 0.000000
23.253947 0.000000 63.094259
0.556684 9.780604 39.171119
11.109495 3.687936 38.486439
36.850408 4.999558 62.980017
5.374518 15.891055 34.572654
13.051642 19.498594 80.779911
28.275261 0.000000 36.932115
22.796723 19.275805 87.666999
24.651211 16.380458 0.000000
30.616613 0.000000 82.653448
35.010861 0.000000 6.137739
1.802420 12.391818 38.732667
25.771514 18.168161 22.037270
35.714021 8.233022 19.167154
32.730951 12.957835 91.265158
6.433629 9.659913 0.000000
6.362467 6.428634 51.387939
9.475736 4.631187 33.477630
2.503538 8.656587 12.263139
5.007251 15.596589 84.795643
37.097443 3.953084 86.598331
9.454548 4.643420 76.407630
35.154782 1.831531 99.987210
36.894559 0.000000 64.384892
15.209653 15.090428 100.000000
0.719222 10.826572 25.272496
37.469770 0.473803 13.959565
27.435189 10.707912 100.000000
5.225087 7.085300 54.112527
33.757902 0.000000 4.100897
6.127651 6.564205 94.300073
34.655322 0.000000 0.494959
31.647757 0.000000 96.469349
14.155509 19.678177 9.454189
26.983292 9.728999 0.000000
13.937710 2.055065 45.929540
37.112693 0.000000 24.678858
0.646477 10.738801 56.903310
17.644149 19.968721 34.917391
17.158346 19.973549 71.976479
13.059741 2.561961 66.303254
27.808428 17.104337 43.412458
37.148278 3.608070 42.970704
26.333627 0.202444 98.874274
19.048351 15.922827 0.000000
7.217185 17.147403 79.846200
28.849058 16.464705 55.949984
4.204589 14.889000 3.438428
1.095006 11.426875 76.832329
2.598096 12.840968 99.090862
20.495417 19.743295 24.926905
21.303609 19.633880 77.976927
33.724409 0.000000 36.133271
21.156748 0.000000 5.020166
2.931175 13.662270 28.705888
4.085893 7.743014 17.788171
34.608610 10.344343 11.366519
0.955118 11.188442 39.298912
27.874955 17.065847 45.652703
10.779797 3.878287 69.502679
12.317948 19.308676 97.672117
5.175318 7.114035 58.098249
11.326777 3.562488 49.743023
16.434771 0.613386 9.987457
26.502583 17.856603 5.077444
21.039294 19.669700 10.553529
20.805501 19.703216 21.390928
37.202364 3.359602 74.736101
2.529568 13.239157 66.850176
20.070540 0.000000 72.351170
37.473312 0.471012 84.132649
11.323475 3.564394 10.028164
16.221202 17.187687 100.000000
6.839872 6.153003 71.266754
7.823535 17.499611 48.330120
16.556648 0.543020 28.383693
0.189477 10.020126 46.191380
37.300373 0.000000 6.597899
21.420319 19.608826 69.446137
26.562293 17.825679 11.327712
36.359386 6.510030 9.904888
18.536932 12.897083 100.000000
32.811305 12.856546 31.248096
37.362286 2.011264 10.276418
30.806955 0.000000 61.431395
19.355267 19.889041 84.381450
27.500451 0.000000 48.018890
16.675726 0.474271 66.829972
35.454842 0.000000 9.886207
17.130697 17.404735 0.000000
12.405294 2.939805 86.041253
37.292069 2.837615 64.489276
34.879623 9.884674 88.339773
13.865436 19.655415 83.272535
34.699299 0.000000 4.556878
29.460987 0.000000 6.658128
36.907627 4.700373 19.399110
34.054405 0.166360 98.796097
24.544659 16.954708 99.958462
34.916032 0.000000 35.801572
11.469441 3.480120 82.880335
13.188588 19.528154 26.275363
35.283930 9.101275 76.365746
27.486360 0.000000 27.667822
15.401347 1.210034 60.486448
3.142680 13.901305 97.582369
26.684686 15.304440 100.000000
9.016905 13.993884 100.000000
29.788101 15.749419 51.635477
35.631367 8.399882 25.291523
4.212814 14.895966 45.818953
18.796275 8.887500 100.000000
6.988416 6.067242 58.931893
22.016867 19.460555 30.716222
27.639375 17.196030 25.818440
28.618650 0.000000 48.065344
36.366680 0.000000 26.562565
37.472814 0.480825 60.471274
6.028388 16.369793 36.107579
28.806387 9.940401 100.000000
17.597547 19.973831 86.655150
8.351145 5.280470 6.803453
32.060007 13.639623 43.507840
34.257768 10.897977 53.781215
1.892751 12.502176 55.469816
21.824764 9.201667 0.000000
22.361408 19.379902 54.299650
32.918380 11.760188 99.409632
17.344637 0.088075 6.862440
26.966809 0.000000 57.082090
23.034133 19.200534 56.094131
27.043115 11.825889 100.000000
35.548981 8.566201 32.227250
15.571355 19.899468 40.191475
12.968947 19.478663 43.010757
6.151284 16.452995 96.874764
27.546993 17.270788 69.837463
3.124529 13.873365 21.436308
18.594928 0.000000 62.338310
36.275264 6.744498 42.877409
9.371581 18.249232 96.751489
25.169723 18.423804 31.069276
1.266726 9.370661 31.642577
12.912335 2.647066 90.588253
16.479777 19.960955 58.521217
32.223745 13.485058 58.817305
0.186653 9.994242 38.892179
3.159054 8.278125 86.669109
21.288293 0.000000 27.623685
11.915764 11.866635 0.000000
4.397316 15.075828 89.199132
17.288003 0.120772 13.540921
13.141365 5.303791 100.000000
31.633985 14.089797 24.705638
1.555124 12.068244 79.265842
3.215756 8.245388 58.741928
34.817998 1.341284 0.000000
27.514444 0.000000 72.648554
12.720792 2.757653 34.742700
19.322943 0.000000 40.894753
36.709656 5.552395 47.937825
22.428470 19.335125 0.110722
33.248928 12.293231 21.953361
1.845980 12.439340 12.183346
26.946619 3.941007 0.000000
36.157194 7.073588 36.000782
17.908666 19.972545 60.197498
22.942262 19.197428 0.057298
0.757933 10.914077 67.900987
1.508333 12.004464 32.214529
17.568187 0.000000 54.171090
18.650362 19.962860 40.081660
30.491122 15.180673 88.878491
25.790003 0.000000 46.813219
31.017206 14.736121 75.878832
22.177158 0.000000 87.907994
37.494838 0.046374 42.778444
37.066545 4.061031 69.834677
35.329690 8.977509 22.971658
4.164264 14.854846 17.796450
30.639691 0.000000 72.712536
26.933351 17.616583 91.643535
11.923254 11.199209 0.000000
36.464955 0.000000 87.665317
32.542349 13.144659 45.004013
34.947640 9.738624 57.183219
30.475187 15.194139 90.445437
20.757139 0.000000 16.935315
19.889805 0.000000 63.156699
8.389435 9.067843 100.000000
37.461031 0.555902 5.827398
17.474761 0.012948 54.918985
3.452664 14.230844 78.969411
12.711114 2.763240 96.932268
23.855329 0.000000 51.618694
37.156256 3.584250 49.022621
10.843002 3.841795 18.909993
34.399842 0.000000 34.886041
27.143873 0.000000 76.441333
15.193882 19.855118 89.071456
34.757971 10.092862 48.581419
27.292732 17.396662 14.294055
17.821872 0.000000 28.349965
27.157295 0.000000 67.384818
35.865621 0.000000 97.624887
4.763669 7.351700 19.982405
23.173011 19.158532 46.413846
21.199407 19.651194 14.152082
13.319009 19.552676 31.894290
17.857482 19.963017 10.272425
23.792838 18.976032 77.883124
27.915906 17.058557 78.951091
27.993910 6.894984 0.000000
15.248059 1.298534 68.816051
2.480949 13.150733 15.592177
26.083027 0.000000 53.318533
14.745607 19.791558 56.927801
34.374900 10.708871 12.857073
26.244094 0.000000 17.029407
18.205776 11.940104 0.000000
10.056014 18.542894 82.716012
16.624375 0.503918 58.329465
23.752174 0.000000 63.344753
12.342515 2.976051 42.152476
6.042780 6.613205 28.861598
26.436493 0.000000 25.852341
4.339760 7.596444 66.445594
3.745363 14.500054 33.132007
33.704098 11.700015 87.889736
5.779761 6.765059 93.968465
3.079415 13.834049 88.872271
22.374029 0.000000 84.177479
34.887797 9.812132 12.577985
6.742999 16.853591 83.949360
1.598489 9.179118 36.865518
21.472526 9.510891 100.000000
3.350984 14.122750 52.494202
33.815714 11.551948 87.092675
31.697586 13.202898 0.000000
27.710265 11.249461 100.000000
1.869173 12.473371 54.840648
31.431273 0.000000 9.347905
12.430250 19.321869 34.228479
23.086485 0.000000 61.702227
1.544595 12.051357 23.667910
8.009752 17.605703 93.075573
15.212973 1.318791 18.782016
3.670943 11.742815 99.988707
34.312562 0.000000 20.254791
36.915068 4.623332 1.725155
1.219003 9.398214 44.565152
9.627689 4.543457 66.754153
12.509504 19.349494 45.401143
19.390743 0.000000 9.298168
26.102294 0.755261 99.561215
24.297668 3.737474 0.000000
31.805890 0.000000 64.375072
16.485855 0.583893 47.815696
31.462028 0.000000 54.922570
37.370667 0.358665 0.000000
18.367217 0.000000 43.911263
24.055486 18.893380 53.021660
30.282453 15.357003 78.173439
27.368409 17.371422 77.319170
27.943424 0.000000 95.523292
35.719703 0.005866 0.000000
21.952070 0.000000 36.362119
23.465142 0.000000 33.460137
4.873682 7.288184 95.410682
21.962422 19.483838 48.290339
18.635522 19.963251 70.032093
27.483813 0.000000 56.008563
31.655882 14.066659 26.189156
13.951599 19.671615 91.654192
12.728791 19.405687 20.200907
28.614860 16.618832 89.727252
0.784078 9.649318 75.645373
23.967988 0.000000 7.655886
9.937376 4.364659 33.333352
8.292816 9.833809 100.000000
21.696126 19.539989 17.560410
13.124691 2.524462 49.208709
34.664395 10.236644 10.124751
13.135705 19.518211 24.512408
36.168193 4.589831 0.000000
32.243640 0.000000 75.736973
10.181804 4.223538 26.343230
29.949722 0.000000 57.110019
8.319058 5.298995 43.466746
36.144226 7.109733 0.010478
16.129294 19.950530 46.139016
0.744469 10.857663 17.412670
11.405611 3.516973 23.528791
21.286835 0.000000 28.202587
17.230013 19.970964 57.581563
20.185719 19.803829 89.973987
27.341476 17.386599 73.602676
37.045908 4.063513 29.025891
37.244664 3.113459 68.492493
35.116502 0.000000 23.831913
22.493148 19.362088 89.643568
30.097066 8.290116 100.000000
30.395990 0.000000 47.300881
37.144883 3.664482 60.078207
2.605615 13.306113 39.856780
24.344836 0.000000 42.885552
36.685045 5.634951 81.836345
15.971102 19.940024 90.796404
28.924811 0.000000 65.912603
13.038095 2.574458 41.892681
16.547985 0.548022 67.315869
27.201141 17.465680 94.557595
25.550051 0.671519 0.000000
17.142408 19.953574 11.442649
6.165927 6.542106 50.166379
37.141468 3.683653 61.305915
0.397089 10.340739 16.322637
5.492785 15.994961 42.060899
4.300834 14.986373 72.269631
32.194193 0.040586 98.393970
30.422572 15.228719 30.021691
27.981255 16.995604 32.220565
27.814854 17.112580 66.905069
15.778635 0.992207 64.278033
18.486032 3.926704 0.000000
15.407273 1.206612 0.831656
22.949653 0.000000 40.673751
30.638176 15.056409 85.921024
33.010129 0.000000 41.076950
13.159216 19.522631 23.983876
17.557446 0.000000 49.345498
37.354306 2.336006 48.456169
6.787331 16.876333 73.895862
27.663297 0.000000 42.475949
0.401135 10.352978 52.832291
2.285245 12.960950 58.812347
37.405512 1.712935 70.185409
1.135960 9.446159 36.374076
4.134744 14.851114 89.775477
7.825979 17.501030 89.793472
24.445089 18.748464 79.302446
37.360328 2.259623 50.444014
37.459055 0.752254 88.061242
2.417932 8.706012 50.947786
16.383854 19.952641 38.586319
11.810385 3.283277 20.190304
35.023030 9.626713 92.271000
21.545453 0.000000 72.603746
20.771101 19.726812 94.329821
29.855682 15.667410 4.079193
17.194234 19.958472 23.372505
11.676366 3.360652 9.312281
7.828729 17.502628 22.527389
18.420823 13.971704 0.000000
31.769315 0.000000 51.521649
3.180057 13.941040 97.043326
28.016557 0.000000 9.152424
31.159058 0.000000 11.680620
37.436639 1.194438 79.062779
11.550866 3.433110 57.452108
10.644821 18.783055 53.205921
11.760419 3.312124 78.024626
5.783392 6.762963 63.417598
37.075360 3.981859 54.041877
27.150548 0.000000 65.827513
36.920348 4.712624 60.646879
5.821982 16.230055 30.507833
18.892926 3.700590 100.000000
3.745283 14.499987 44.882201
0.539780 10.571010 76.478996
12.495945 19.330075 2.766135
7.786335 17.478003 53.871530
36.433396 0.000000 71.765330
31.116066 0.000000 87.737271
9.557209 4.584148 52.208707
20.878659 0.000000 88.029688
1.401786 9.292684 52.823866
14.278754 1.858163 87.590828
25.257883 18.389238 47.084495
33.239936 0.000000 89.001803
27.362364 13.428079 100.000000
34.574984 0.000000 80.830318
18.074880 0.000000 62.202186
12.339029 18.991998 99.056404
0.680607 10.792474 81.544247
17.693831 4.888005 0.000000
37.476459 0.408928 50.002972
6.176615 6.535935 32.213893
3.468313 8.099574 48.086598
23.651239 4.872914 0.000000
2.531320 12.311600 99.429643
14.073772 19.668857 15.916920
32.533092 13.165453 75.539283
13.200511 19.530396 10.999708
10.023448 18.529056 80.564438
7.350033 17.224570 67.936791
2.735115 8.522886 76.100775
30.226213 0.000000 88.983161
17.993801 19.966787 15.664736
28.625687 5.559166 100.000000
1.674221 9.135394 30.126369
37.430054 1.324343 67.314317
25.197910 14.728611 0.000000
36.510567 6.088651 2.138118
1.888062 12.478400 0.262572
30.756897 14.956088 27.113856
33.815507 4.031553 100.000000
27.521335 17.270848 34.538917
