31.181793 13.858251 120.000000
16.350583 40.000000 15.523302
55.780061 40.000000 34.047514
19.843386 7.561869 120.000000
23.568655 0.000000 80.710494
27.148415 40.000000 38.450289
0.585724 40.000000 108.163296
49.211267 0.000000 94.333165
3.362153 40.000000 32.204304
54.818781 40.000000 87.854601
37.460354 0.000000 47.496244
60.000000 25.494092 34.922576
41.064046 40.000000 32.807759
19.085677 33.029928 0.000000
8.232150 1.011806 0.000000
0.000000 13.240300 76.311113
0.794863 0.000000 21.131109
10.256913 40.000000 44.815674
48.920238 40.000000 116.379066
37.569193 0.000000 4.830875
60.000000 1.571560 105.132572
36.723549 0.000000 79.145563
0.000000 28.293060 60.753275
0.000000 16.236378 5.911072
60.000000 9.844984 99.569547
0.000000 20.308526 103.029359
53.402737 26.204665 120.000000
28.210362 40.000000 24.664313
29.947050 28.283819 120.000000
60.000000 6.930195 47.157513
46.582463 40.000000 84.469841
0.000000 37.605614 43.035635
24.979778 40.000000 93.063791
48.664415 0.000000 66.999900
28.634107 0.000000 80.890617
60.000000 2.684311 95.563042
47.876983 31.476853 120.000000
31.655148 0.000000 54.927058
0.000000 31.205204 83.432743
60.000000 23.262159 62.665667
51.189932 40.000000 33.625548
60.000000 15.409780 67.686589
54.968023 0.000000 59.735040
54.553656 0.000000 52.634430
48.660585 40.000000 117.487043
8.502042 40.000000 21.924368
60.000000 35.545120 2.946698
14.273212 40.000000 111.236956
0.000000 10.088867 93.079453
0.000000 39.393137 119.477077
17.232101 0.000000 24.649100
20.638965 40.000000 100.142363
12.589884 40.000000 88.639289
18.873269 0.000000 7.428896
47.012248 13.016407 0.000000
14.969559 0.000000 16.758727
58.367175 40.000000 93.776554
44.585887 0.000000 91.983288
0.000000 18.437574 60.770974
2.464358 40.000000 102.783544
21.966818 40.000000 110.653411
17.084059 0.000000 25.851297
15.526809 0.000000 16.410039
60.000000 4.385218 88.751414
60.000000 17.277388 76.812764
10.204107 0.000000 92.104098
60.000000 30.599240 68.469789
27.551935 40.000000 108.167139
0.000000 11.345580 103.037841
52.349360 15.924001 0.000000
42.794627 40.000000 8.146246
26.735930 0.000000 76.896747
26.595434 13.673411 0.000000
42.677032 17.487063 120.000000
5.142074 0.000000 113.978745
60.000000 21.954323 102.424166
26.834613 0.000000 110.139837
36.134986 0.000000 38.531337
11.890220 9.614631 120.000000
0.000000 7.426332 59.468401
0.000000 37.324594 77.713454
53.651493 40.000000 92.369953
35.053864 40.000000 5.890011
0.000000 4.888231 68.297731
0.000000 25.340792 23.746625
58.684959 0.000000 7.551384
10.318915 40.000000 108.600883
32.558222 0.000000 97.288773
49.114149 0.000000 0.626967
60.000000 33.849983 70.773826
28.620297 26.064736 0.000000
25.590920 25.499117 0.000000
6.107739 40.000000 51.834678
44.804246 0.000000 1.023513
8.871106 35.136699 120.000000
21.789984 40.000000 107.110181
60.000000 15.052881 109.412339
23.752027 28.444516 120.000000
36.879524 40.000000 42.050516
53.780863 0.000000 109.830889
30.337381 40.000000 51.173780
53.027856 40.000000 39.513934
0.000000 4.286284 25.794319
36.896568 40.000000 55.347829
0.469932 7.591198 0.000000
46.091988 0.000000 72.700072
57.207471 40.000000 13.327497
52.038195 0.000000 14.102431
0.823625 24.815359 0.000000
60.000000 20.945134 81.144424
39.267226 35.073236 0.000000
46.001049 0.000000 10.871316
34.354625 40.000000 15.482954
26.812128 0.000000 79.046240
52.057335 2.697006 120.000000
23.947116 40.000000 46.300247
13.796455 0.000000 63.178954
0.000000 36.237012 72.779035
22.962796 40.000000 75.093711
45.380695 40.000000 78.203270
21.140116 40.000000 1.842960
48.825926 40.000000 49.408628
3.701077 0.000000 47.028563
3.491667 0.000000 85.463375
8.489344 40.000000 100.123265
31.615182 40.000000 17.891635
1.517555 0.000000 34.740568
40.491412 40.000000 15.414651
11.300019 14.044603 0.000000
60.000000 31.679081 70.436602
24.132298 19.580946 0.000000
52.115299 0.000000 114.908905
60.000000 33.267060 47.820590
7.707570 6.032871 0.000000
60.000000 23.398818 43.173873
53.484544 32.826178 120.000000
60.000000 0.894673 88.632392
23.220759 14.666571 0.000000
0.000000 33.085395 76.361414
0.000000 28.505496 40.328868
0.000000 18.374002 77.610926
40.511082 4.499826 0.000000
0.000000 23.193371 114.914974
39.205469 0.000000 66.610533
47.517175 0.000000 62.020683
60.000000 26.528344 74.048862
0.000000 14.189140 75.501354
53.685739 40.000000 93.811647
18.707482 40.000000 37.276200
1.851443 9.385155 0.000000
0.000000 33.409568 93.269782
60.000000 6.998670 92.579242
60.000000 21.377195 55.535702
4.057215 40.000000 0.832395
60.000000 27.867596 31.848336
50.432542 0.000000 5.817475
20.645426 10.582405 120.000000
60.000000 29.151769 89.918506
60.000000 35.505328 23.787793
21.626227 0.000000 46.543252
57.916064 40.000000 22.198167
46.355137 40.000000 17.818675
60.000000 17.296655 63.045313
25.849103 0.000000 110.272575
60.000000 20.350471 34.571614
13.223204 17.702327 0.000000
10.116376 40.000000 38.180456
60.000000 17.614556 71.380863
40.235812 0.000000 50.580023
59.521206 0.000000 13.657820
0.000000 29.897370 28.715669
0.000000 7.390015 19.490841
10.102977 40.000000 86.894979
36.451770 40.000000 111.712895
11.847765 40.000000 52.938277
0.000000 21.380395 57.107382
38.145403 0.000000 60.961024
39.255040 3.019962 0.000000
60.000000 8.538992 67.388294
60.000000 8.793130 103.790113
27.049888 40.000000 69.038030
0.000000 2.214298 97.533261
38.368330 0.000000 78.381632
43.508328 40.000000 27.074005
58.992830 40.000000 90.695492
0.000000 35.102474 107.097103
52.254260 18.778555 120.000000
29.391579 0.000000 118.033712
9.870289 0.000000 6.369180
15.255799 40.000000 83.301496
0.000000 10.578143 1.108980
60.000000 37.291939 103.019488
60.000000 2.248041 66.931692
17.086802 40.000000 34.556675
0.000000 3.714768 13.458729
18.546095 0.000000 15.403538
3.422993 40.000000 38.165813
57.889827 40.000000 68.401181
0.468895 40.000000 6.739566
0.000000 25.543508 17.648102
0.000000 37.322638 49.532918
28.306679 0.000000 103.681183
53.996106 40.000000 21.926363
60.000000 19.834057 89.444137
6.262632 0.000000 2.829453
55.417002 40.000000 111.127323
60.000000 18.849726 97.655497
60.000000 30.042699 35.213753
16.054700 40.000000 82.798820
0.000000 30.008507 12.650912
24.868880 0.000000 32.048356
8.009310 19.884177 0.000000
60.000000 19.428019 105.513232
23.530934 25.328587 0.000000
57.537428 0.000000 22.864432
53.943495 0.000000 67.508612
54.714645 18.534380 0.000000
20.736249 0.000000 55.088997
43.466532 40.000000 93.307843
60.000000 27.255405 116.533973
0.000000 1.759785 77.155590
18.871601 15.854002 120.000000
60.000000 15.450599 23.029063
41.582874 40.000000 51.506463
60.000000 37.249796 32.054114
54.017492 11.566365 0.000000
60.000000 30.370431 53.863402
37.216583 39.428848 0.000000
0.000000 26.675991 61.105795
41.675937 0.000000 32.410956
0.000000 27.127664 45.331441
0.000000 5.223454 49.529941
23.973745 40.000000 113.331929
31.121181 0.000000 42.724792
60.000000 25.837714 108.647952
51.083661 40.000000 99.079148
19.707805 40.000000 53.244793
22.770880 0.000000 88.287222
5.742803 0.000000 70.160522
26.600944 40.000000 66.265208
60.000000 3.047376 47.400296
0.000000 8.694095 5.292594
11.716309 40.000000 1.526018
20.901622 40.000000 18.057672
13.122878 40.000000 43.822676
60.000000 4.839726 69.873286
58.428733 40.000000 98.375827
45.181618 0.000000 55.241154
1.796159 40.000000 111.417218
0.000000 16.502909 54.722852
0.000000 37.462247 45.738298
20.678601 0.000000 71.392304
8.886693 40.000000 50.362285
60.000000 37.317559 90.971848
54.254427 0.000000 46.753400
60.000000 31.957046 85.122630
44.448090 0.000000 50.650121
48.348444 40.000000 20.863084
40.052397 0.000000 14.653122
0.000000 13.566799 73.858521
53.086018 0.000000 22.821857
37.938582 33.236288 120.000000
24.836332 7.973612 120.000000
56.283783 40.000000 25.366749
22.637040 0.000000 84.324184
57.439558 0.000000 108.840545
37.214419 40.000000 76.216151
59.107758 40.000000 35.958549
0.000000 28.945994 38.775364
12.718265 40.000000 1.314225
18.232655 0.000000 30.614082
46.483036 40.000000 2.124259
18.075698 0.000000 94.026904
56.797331 40.000000 89.999215
42.179290 0.000000 75.733190
0.000000 20.861243 96.506011
60.000000 12.374663 84.054217
51.679318 40.000000 71.154013
60.000000 0.741449 3.212572
60.000000 6.543125 75.059677
29.458671 40.000000 33.425868
46.445593 0.000000 79.442810
0.000000 30.240155 56.220858
60.000000 22.472339 88.063045
60.000000 36.023643 29.922225
52.409254 0.000000 66.129042
43.558223 0.000000 117.946901
60.000000 10.278316 86.739693
52.669689 0.000000 19.797234
0.000000 26.938159 16.338671
60.000000 0.574705 94.294136
22.983791 0.000000 54.846716
41.468110 40.000000 63.885049
0.000000 15.674504 93.142820
0.000000 2.518961 15.545455
56.183457 0.000000 89.986401
7.724207 40.000000 33.614276
39.429007 40.000000 116.346478
0.000000 24.696746 26.837511
0.000000 14.257783 111.289307
29.057755 40.000000 72.082492
55.844792 40.000000 100.403406
0.000000 23.209634 46.979347
36.549883 40.000000 31.777670
8.110584 40.000000 4.177040
10.212349 40.000000 90.337591
22.119277 27.066587 0.000000
8.714842 0.000000 28.465316
7.604438 40.000000 37.202375
60.000000 8.987452 25.399235
53.605143 0.000000 46.419001
38.349288 17.075680 0.000000
0.000000 34.781677 66.030356
40.463753 40.000000 0.520687
13.158123 40.000000 23.316690
60.000000 25.638197 111.928794
5.028319 0.000000 51.352414
29.083904 0.000000 75.027342
0.000000 2.589649 54.810931
33.148043 40.000000 62.214745
0.000000 32.770332 118.939380
21.435158 40.000000 106.148047
16.212144 0.000000 35.486638
46.781067 40.000000 85.652998
60.000000 6.287369 101.411996
3.519976 40.000000 99.559371
34.149043 0.000000 118.120985
60.000000 31.694600 95.607994
19.347653 0.000000 2.675608
13.282948 40.000000 3.139058
60.000000 38.233439 62.409064
0.000000 10.254668 18.197954
0.000000 16.679493 103.459806
60.000000 12.000829 101.487333
42.494094 40.000000 35.013584
15.282468 0.000000 114.780591
33.940645 10.904089 120.000000
21.605187 0.000000 73.302431
0.000000 5.567028 66.019140
0.000000 5.498906 34.314452
25.420350 0.000000 56.703780
0.000000 17.125363 105.913762
60.000000 6.411255 35.366283
47.117543 40.000000 72.503330
48.056824 40.000000 88.696346
0.000000 34.866533 112.228104
2.838654 28.902651 0.000000
60.000000 26.671236 7.339388
32.589758 9.333594 120.000000
60.000000 20.038096 98.666391
0.000000 30.688389 23.517005
13.377574 40.000000 54.109719
57.526440 37.005953 0.000000
51.332004 40.000000 69.913599
34.525597 40.000000 70.897129
60.000000 14.006062 99.517817
15.286989 0.000000 63.629475
58.143534 40.000000 86.953372
60.000000 17.909471 38.751665
54.429329 38.999730 120.000000
0.000000 15.759235 113.423404
0.000000 3.917483 51.676076
60.000000 4.671370 108.577730
60.000000 13.564395 6.392225
31.833277 11.294426 120.000000
0.000000 6.903993 8.436942
44.253070 40.000000 35.942491
22.965162 40.000000 117.116358
8.026718 9.611143 0.000000
58.465028 0.000000 69.291202
3.958324 40.000000 74.327207
9.150652 0.000000 86.870102
0.000000 4.281590 63.253715
0.000000 19.992355 106.818350
5.789946 0.477635 0.000000
60.000000 12.060041 23.742885
13.030030 0.000000 101.968878
12.326433 0.000000 47.307506
60.000000 37.764716 101.384290
60.000000 8.047642 72.179196
0.000000 16.103605 106.606262
43.084171 40.000000 39.628037
31.355751 0.000000 111.437171
24.933245 0.000000 52.904908
53.556476 0.000000 0.824634
13.504427 40.000000 48.282631
0.000000 6.679921 16.192754
45.356353 0.267898 120.000000
60.000000 27.528988 81.971628
58.337708 35.342068 0.000000
19.158329 40.000000 38.230051
32.325948 40.000000 8.618159
47.008424 40.000000 17.970569
0.000000 19.687051 67.164533
33.785540 40.000000 38.826421
44.267185 0.000000 32.164779
0.000000 8.986647 17.376793
51.572924 40.000000 73.006337
53.587978 40.000000 41.264702
0.562121 31.097936 0.000000
60.000000 38.391492 48.907872
55.746074 0.000000 35.583678
59.849044 36.322027 120.000000
49.132300 25.116936 0.000000
59.884136 0.000000 30.076878
35.991867 0.000000 22.401684
42.712556 0.000000 96.953606
25.881591 40.000000 96.123658
60.000000 19.969503 42.609270
60.000000 12.163311 92.617537
40.837132 22.141227 0.000000
0.000000 21.069737 41.076627
0.000000 7.859284 53.187618
60.000000 26.468743 100.196609
30.654408 28.310717 120.000000
5.176501 0.000000 44.285048
49.613559 0.000000 114.969206
0.000000 8.893929 48.764164
5.179312 0.000000 103.291624
12.510991 40.000000 4.872200
0.000000 7.783877 8.574426
6.140884 40.000000 86.191049
6.161245 0.000000 96.938298
57.323682 0.000000 66.575359
13.412376 40.000000 20.293866
59.901737 0.000000 29.419578
0.000000 4.436946 12.979167
4.525839 40.000000 117.330061
46.416563 10.171461 0.000000
57.108214 0.000000 59.279462
30.019289 40.000000 104.559883
43.423619 5.959406 0.000000
60.000000 7.818800 45.907742
50.801800 8.980470 0.000000
5.410150 25.931846 120.000000
12.131916 36.136188 120.000000
29.876150 40.000000 105.100463
30.545214 34.284445 120.000000
24.382971 0.000000 9.077743
34.180237 40.000000 90.324001
0.000000 0.982174 28.273712
56.687009 0.612530 0.000000
0.961781 8.018108 0.000000
17.699590 9.359447 0.000000
17.743173 40.000000 49.573985
0.000000 38.761329 119.041952
60.000000 31.032478 114.853542
20.820055 8.376926 120.000000
6.851478 2.811730 120.000000
42.397326 0.000000 91.898555
55.328156 0.000000 100.249983
37.826847 40.000000 112.783547
0.000000 36.329987 25.280278
0.000000 13.955590 119.133674
14.353091 36.508715 0.000000
0.000000 30.111183 21.866669
42.493531 5.577836 120.000000
60.000000 26.403003 6.279280
7.536648 0.000000 70.642658
14.562035 0.000000 59.241761
30.328197 40.000000 106.427568
45.528590 18.863678 0.000000
0.000000 33.286925 46.776998
57.308167 40.000000 53.122730
29.532127 40.000000 34.036285
19.820579 18.958635 120.000000
0.000000 32.402183 101.896999
60.000000 3.168726 113.035360
19.090009 0.000000 39.617769
21.347286 0.000000 93.325384
7.228688 0.000000 82.337694
0.000000 10.344302 29.907844
52.383653 40.000000 111.880341
47.787785 3.512504 120.000000
38.297339 40.000000 45.460085
10.006262 0.000000 119.266893
34.116323 12.687870 0.000000
39.613302 12.832115 0.000000
16.170060 40.000000 12.492856
60.000000 7.391671 32.390883
57.331597 0.000000 99.390536
20.836307 40.000000 113.732548
13.016656 0.000000 29.197939
52.628958 40.000000 105.941265
11.316017 40.000000 59.250146
32.655892 40.000000 7.520886
0.000000 7.679878 51.532470
0.000000 6.769783 111.942516
45.821504 0.000000 90.957877
11.537705 40.000000 66.679177
0.000000 24.031772 117.311366
0.000000 0.447931 57.130630
0.142128 0.000000 60.218578
49.644697 1.851499 0.000000
60.000000 36.066240 57.655963
60.000000 1.146933 25.400576
35.976150 40.000000 72.400519
8.497423 0.000000 25.057561
60.000000 33.924554 95.596154
16.092487 0.000000 111.217770
23.971669 0.000000 4.754298
38.819454 8.236642 120.000000
11.225685 0.000000 98.969474
23.977068 0.000000 22.150028
0.000000 18.099135 3.661976
17.600609 40.000000 118.712387
31.239640 0.000000 99.909442
60.000000 26.927857 46.133023
9.330807 40.000000 116.333679
39.837204 40.000000 79.510751
0.000000 21.661156 34.306517
54.435402 0.000000 40.111011
60.000000 16.132917 96.625332
26.972015 8.947433 0.000000
60.000000 10.272345 88.605064
53.490257 40.000000 2.651696
5.300927 0.000000 96.248453
0.000000 36.738081 67.813319
0.000000 13.695224 74.971248
46.221566 40.000000 93.971733
0.000000 4.907460 9.598910
60.000000 17.334207 20.763181
59.751625 33.525955 0.000000
0.000000 34.497496 1.628268
24.635550 19.202300 120.000000
35.340601 40.000000 88.570910
59.387680 0.000000 110.267541
0.000000 27.621256 22.623699
58.924856 40.000000 79.589423
31.964151 0.000000 35.677042
34.328324 0.000000 48.964755
60.000000 10.511310 100.821523
0.000000 10.778689 28.318080
60.000000 11.579327 18.979386
0.000000 4.695176 114.825972
50.867271 40.000000 96.752212
46.552850 40.000000 49.329014
46.226415 40.000000 20.889719
60.000000 14.936844 99.887845
12.070712 0.000000 28.812452
51.224149 40.000000 32.173893
52.349222 0.000000 75.778957
60.000000 30.301038 52.759045
55.685801 8.824353 120.000000
60.000000 22.015668 18.994695
60.000000 23.994508 94.464452
15.771907 40.000000 72.110488
17.697178 0.000000 31.862587
52.483782 0.000000 30.662823
19.101053 0.000000 56.363502
22.440096 40.000000 15.492205
40.081004 32.935356 120.000000
28.017009 7.033550 0.000000
10.104890 39.417789 0.000000
25.623361 0.000000 15.642201
3.747391 27.210429 0.000000
46.344183 37.435943 0.000000
60.000000 1.077817 2.014606
31.176845 40.000000 59.623962
51.244585 30.293894 120.000000
57.167370 0.000000 2.243532
0.000000 37.501110 108.948189
9.473584 0.000000 54.790192
19.345830 12.029662 120.000000
6.798276 40.000000 6.167184
2.071705 40.000000 14.023327
58.010685 0.000000 49.825875
0.000000 3.411971 70.080127
19.095299 40.000000 73.545179
0.000000 31.092889 100.060630
52.452907 40.000000 117.176090
7.650189 40.000000 63.002322
43.147054 40.000000 49.591564
0.000000 3.299891 60.333267
17.444278 18.415335 0.000000
5.299026 39.273487 0.000000
21.530821 29.281614 120.000000
11.920236 0.000000 45.992463
11.875044 0.000000 114.766891
55.525568 0.000000 7.170779
60.000000 16.132995 11.164435
40.128000 0.525302 120.000000
43.939127 12.670956 120.000000
47.650637 40.000000 103.866762
60.000000 23.297250 107.982979
12.032218 40.000000 23.640941
60.000000 5.366259 61.993275
0.000000 21.535768 34.845677
60.000000 26.869163 2.044146
41.387224 33.218277 120.000000
0.000000 39.996595 21.419178
14.797707 0.000000 55.538112
28.538180 38.086716 0.000000
51.750248 20.174275 0.000000
60.000000 11.451266 21.934080
39.181801 0.000000 88.532255
0.000000 14.810334 20.944396
30.760874 0.800900 120.000000
50.829752 40.000000 21.284997
27.518793 40.000000 93.822323
0.000000 14.028798 5.641771
52.042183 40.000000 73.268386
27.267229 26.590705 120.000000
11.760411 0.000000 60.640062
42.899310 40.000000 37.445665
60.000000 12.361555 0.710132
34.905382 0.000000 81.379240
53.602368 40.000000 27.526111
25.421581 40.000000 10.729786
11.916696 0.000000 118.674470
60.000000 6.972041 91.791378
16.294698 40.000000 77.466290
36.055878 0.000000 10.581267
3.972799 40.000000 69.646116
60.000000 29.177785 9.233079
0.000000 14.803795 109.853094
25.092249 0.000000 65.844788
13.940240 32.859806 0.000000
60.000000 16.904927 7.619798
15.209768 40.000000 59.186261
0.000000 0.213968 40.561858
57.991824 40.000000 86.299279
0.000000 5.561295 19.134516
56.464153 0.000000 117.351798
34.730775 40.000000 112.073938
60.000000 1.066764 105.289663
52.423716 40.000000 105.148793
0.000000 11.457885 110.831766
0.000000 0.911130 19.820919
8.254568 32.900534 0.000000
60.000000 10.989524 44.922483
35.032532 0.000000 91.819980
0.000000 30.228535 38.955031
8.875845 36.276550 120.000000
25.949170 40.000000 24.502796
0.000000 26.193771 95.693488
0.000000 5.994209 84.108300
60.000000 31.574461 112.906199
41.415701 9.584015 0.000000
48.689885 40.000000 2.593190
27.493150 0.000000 18.163471
45.355770 40.000000 70.690145
36.910415 40.000000 5.076049
44.326914 40.000000 34.725809
28.859905 34.970431 120.000000
2.158469 40.000000 46.885034
7.776392 31.902079 0.000000
56.581048 0.000000 48.903908
0.000000 33.048875 70.880600
0.000000 17.366514 70.418547
17.341353 29.130311 0.000000
28.815467 30.932561 0.000000
60.000000 32.565177 104.822887
36.482836 40.000000 29.302093
40.569250 0.000000 34.755077
48.420901 0.000000 104.520779
0.000000 19.939429 59.125789
47.482101 40.000000 39.737765
60.000000 38.643889 68.423448
39.104099 0.000000 114.526605
8.439647 40.000000 114.213122
0.000000 32.490860 10.965162
27.857892 0.000000 90.767428
60.000000 18.396879 105.444713
60.000000 30.195120 30.509747
60.000000 29.104978 1.156777
0.000000 36.719004 77.630997
60.000000 10.995553 12.230227
48.111910 0.000000 27.667511
48.252198 40.000000 49.440141
29.395190 40.000000 31.215641
60.000000 39.147230 3.304292
50.753427 0.000000 35.725606
39.059941 40.000000 14.663434
37.379672 0.000000 90.570906
60.000000 17.255452 79.142727
30.511495 40.000000 71.190457
0.000000 7.580257 113.245375
46.514897 0.000000 48.962787
42.798229 13.810628 0.000000
0.000000 9.757583 8.878095
60.000000 35.920213 110.625300
42.864183 40.000000 8.760956
20.800710 27.304777 0.000000
51.307851 9.245388 120.000000
60.000000 12.949651 112.663483
55.608770 40.000000 29.365630
60.000000 25.439735 13.329060
41.469737 0.000000 62.412242
20.204842 40.000000 95.592971
45.618453 40.000000 56.202477
36.674990 40.000000 76.102321
13.651228 40.000000 95.575481
33.198018 0.000000 92.142033
60.000000 12.453497 107.152785
21.172656 0.000000 102.269746
0.000000 34.049416 96.077646
55.820752 0.000000 88.047276
55.847540 0.000000 91.248831
17.585391 40.000000 100.329566
0.000000 11.419286 81.690815
42.167336 0.000000 51.339723
56.931683 0.000000 94.895432
40.666853 0.000000 74.994931
9.063307 35.844386 0.000000
0.000000 31.175879 52.826358
46.622335 40.000000 83.278599
4.443096 40.000000 60.607788
41.760942 40.000000 43.718949
8.080835 0.000000 114.230457
60.000000 16.156996 105.695852
60.000000 2.401043 20.352553
60.000000 7.204917 61.921112
60.000000 9.345165 117.888511
16.067708 0.000000 64.583952
26.982918 28.236881 0.000000
28.973522 0.000000 77.943399
20.145534 0.000000 61.433068
9.019720 0.000000 97.852748
0.000000 1.104849 4.552711
30.027238 0.000000 5.152034
2.588765 34.688874 120.000000
0.000000 14.248012 34.059647
0.000000 35.563830 35.551483
60.000000 38.586618 13.915389
0.000000 10.619501 106.941972
0.000000 37.698564 49.946114
52.907084 40.000000 10.741704
47.710038 0.000000 86.696803
39.662630 40.000000 26.814089
60.000000 4.708552 8.360247
43.891342 0.000000 87.189008
20.919419 0.000000 52.750861
51.766732 40.000000 111.976346
39.681826 40.000000 15.117358
6.238411 0.000000 85.628348
9.912692 40.000000 7.211695
53.497336 40.000000 28.184864
32.315444 40.000000 24.003321
12.063529 40.000000 61.181929
42.165197 0.000000 80.391771
42.555500 4.074659 0.000000
20.963324 40.000000 116.908619
0.000000 24.015897 107.637467
0.000000 0.711166 7.447259
46.455875 0.000000 2.415153
21.109756 40.000000 49.783332
33.765012 40.000000 111.746379
6.064616 15.241714 120.000000
46.205810 40.000000 4.772547
8.887974 0.000000 110.010986
29.703646 21.277756 0.000000
38.252475 9.149576 0.000000
36.504555 4.483912 120.000000
39.512713 3.801432 0.000000
57.980016 0.000000 84.116345
50.163502 17.176952 120.000000
40.919998 40.000000 85.801990
0.000000 1.076221 103.873215
39.019564 40.000000 59.494979
60.000000 28.244701 62.559751
7.500128 40.000000 45.755923
23.448961 30.140469 120.000000
60.000000 3.189893 110.217978
20.415054 5.164388 0.000000
60.000000 0.422161 73.727051
0.000000 6.561738 86.770410
0.000000 38.572129 26.360574
57.343625 0.000000 2.969944
0.000000 20.726187 39.041163
40.965691 25.447338 120.000000
27.605001 40.000000 82.117894
38.950076 0.000000 64.238294
21.389093 0.000000 34.294894
30.808559 0.000000 30.509047
15.928690 40.000000 15.187517
35.643421 0.000000 29.263464
35.548411 0.000000 51.190130
60.000000 37.282305 93.088451
57.081838 0.000000 104.268732
0.000000 17.898652 75.682515
60.000000 31.600142 20.377120
52.984663 31.923435 120.000000
60.000000 20.550708 12.335164
7.088895 0.000000 80.445324
0.110800 13.304964 120.000000
52.964649 40.000000 6.572619
60.000000 17.711784 80.664734
10.939539 17.430076 0.000000
0.000000 18.896313 85.621431
1.976057 40.000000 41.012221
0.000000 28.988109 10.130983
16.547168 0.000000 112.965725
60.000000 5.197384 83.502867
0.000000 36.397518 30.175618
32.381804 35.214866 0.000000
60.000000 11.853434 69.051399
26.812297 40.000000 32.833909
24.587777 40.000000 99.598652
49.700871 19.667252 120.000000
0.000000 12.272391 1.820005
48.479110 40.000000 47.333852
0.000000 9.830801 56.747200
60.000000 26.078046 94.069458
15.882740 40.000000 59.875701
16.081408 0.000000 93.751960
25.616476 40.000000 5.703967
53.263357 0.000000 51.039205
0.000000 34.989239 65.477087
60.000000 33.039244 48.394393
15.264641 39.985121 0.000000
2.983701 40.000000 66.226684
51.004800 6.167629 0.000000
0.158168 40.000000 62.579585
10.690046 0.000000 7.815264
9.364424 0.000000 57.435633
60.000000 24.482816 20.901734
42.779959 6.362978 120.000000
51.300172 40.000000 97.707406
60.000000 12.631951 85.614641
60.000000 27.537343 4.462413
60.000000 10.355605 52.838052
26.628975 22.727838 0.000000
26.422360 0.000000 110.607244
50.975810 1.232204 0.000000
55.668964 0.000000 31.195970
49.853432 40.000000 0.571174
0.000000 7.381495 84.672340
14.056306 0.000000 60.014072
17.069434 40.000000 38.790102
10.080961 40.000000 60.224708
0.000000 15.838375 0.453542
6.032388 37.813735 0.000000
60.000000 15.461435 39.287994
42.963079 40.000000 24.472812
60.000000 23.201051 117.926872
9.238703 40.000000 87.580700
57.131578 40.000000 30.513915
60.000000 27.996536 80.242116
26.727486 40.000000 55.741951
37.058139 7.647801 120.000000
55.728494 31.888319 0.000000
39.622200 0.000000 68.902465
60.000000 27.717572 83.284391
0.000000 15.776642 41.640994
60.000000 28.584721 28.522948
16.894099 40.000000 25.057102
54.472766 40.000000 68.566134
1.961136 0.000000 70.263827
51.759119 0.000000 53.902154
18.440676 40.000000 43.383033
38.800995 18.815573 120.000000
50.128433 40.000000 69.776782
60.000000 11.750469 75.337746
10.954132 0.000000 94.517905
11.690221 0.000000 68.252654
15.408599 40.000000 30.315381
0.000000 34.572927 94.526189
28.443919 40.000000 51.389912
54.358143 26.409352 120.000000
54.361787 31.180776 120.000000
0.000000 12.815967 54.317740
46.845046 17.600711 0.000000
0.000000 34.825912 28.255697
29.931629 40.000000 6.700309
13.522835 12.743325 120.000000
40.737142 40.000000 19.221015
15.089729 26.645968 0.000000
3.684847 0.000000 15.147927
60.000000 38.926591 35.880089
0.000000 9.743835 20.748925
33.982258 25.113113 0.000000
60.000000 14.371612 105.077002
20.888144 40.000000 93.741306
60.000000 34.388946 46.289564
10.613855 20.705390 120.000000
12.050174 40.000000 42.319532
50.613804 0.000000 14.947978
0.000000 18.609106 87.343482
25.943778 0.000000 43.814655
35.206421 17.658448 0.000000
60.000000 26.932052 77.739007
0.512860 0.000000 87.251376
13.373103 19.351479 120.000000
60.000000 10.712507 106.870855
60.000000 4.215524 113.082225
51.492385 0.000000 106.196955
2.126027 0.000000 108.043843
13.977672 40.000000 32.057047
48.606578 40.000000 80.415783
13.364102 11.487275 120.000000
58.815895 40.000000 94.085714
38.390713 8.782164 120.000000
11.733680 0.649658 0.000000
48.658833 0.000000 83.168129
17.714544 0.000000 38.246346
28.740155 32.381758 0.000000
33.296020 1.755630 0.000000
26.168314 0.000000 104.676735
4.785913 40.000000 104.400643
59.874319 24.818352 0.000000
60.000000 12.295034 70.052909
33.988323 0.000000 47.745208
0.000000 20.077028 99.975811
31.440964 16.640307 120.000000
0.000000 10.731028 117.245203
50.264699 7.993650 0.000000
10.156922 33.429553 0.000000
7.629514 16.503215 0.000000
24.173653 40.000000 96.394958
42.491747 0.000000 62.950363
9.739505 40.000000 106.072447
42.814394 0.000000 96.215915
27.014325 0.000000 44.123293
37.361172 28.744630 120.000000
25.737392 0.000000 19.691878
0.000000 16.584318 7.085888
21.959852 37.226993 120.000000
10.362591 9.848875 120.000000
37.564368 0.000000 102.093919
60.000000 15.111532 71.954665
28.928013 0.000000 9.602364
0.000000 27.555445 76.612755
60.000000 3.394843 83.347336
28.403990 40.000000 19.393449
53.673815 40.000000 53.491127
19.642835 40.000000 49.001503
21.963534 0.000000 34.602703
47.697346 28.374721 120.000000
36.176515 0.000000 47.308007
60.000000 4.191038 20.447990
19.608997 14.407184 0.000000
60.000000 26.430315 21.353353
0.000000 20.929842 78.408501
60.000000 17.948265 82.010675
21.173806 13.757659 120.000000
50.896483 40.000000 3.085019
33.349862 27.627052 120.000000
18.360364 40.000000 10.294093
0.000000 6.697869 34.958894
4.307109 40.000000 90.866299
0.000000 36.872069 108.204961
0.000000 35.442054 60.093087
30.569415 38.539537 120.000000
48.607620 0.000000 52.347332
0.000000 22.818341 21.395091
6.128588 0.000000 42.827129
60.000000 35.408698 0.906231
60.000000 16.938029 83.681457
0.000000 35.581316 75.521835
32.726367 40.000000 2.820534
9.659025 40.000000 112.516668
8.576618 40.000000 38.410722
60.000000 30.348579 93.282590
60.000000 3.601906 15.785222
60.000000 18.814974 49.281539
60.000000 4.999214 22.004211
0.000000 14.623013 17.602364
7.762605 40.000000 94.970738
54.708135 0.000000 100.211930
28.047920 40.000000 16.582542
51.759957 40.000000 71.822325
49.907330 0.000000 88.681208
49.714984 40.000000 94.510214
50.995964 40.000000 82.343041
0.000000 20.960213 107.985512
60.000000 6.686199 78.428119
30.030090 40.000000 89.077987
40.986910 40.000000 79.134405
28.280867 0.000000 106.140777
7.917849 0.000000 16.489305
60.000000 2.279034 51.279401
38.156021 0.000000 53.054247
0.458914 40.000000 23.493143
60.000000 5.932802 68.023730
22.714255 32.716526 0.000000
14.061708 0.000000 28.115729
2.662004 22.639112 120.000000
1.873074 40.000000 1.040480
13.675871 40.000000 50.493689
21.163222 0.000000 73.719635
0.461458 0.000000 22.381250
60.000000 16.711574 69.942317
57.869750 0.000000 6.145168
0.000000 10.224144 4.148308
32.640539 40.000000 86.655519
60.000000 21.136207 103.290499
4.011502 0.000000 7.015627
9.882869 0.000000 114.096722
58.444770 40.000000 80.738548
48.151352 40.000000 48.211067
60.000000 1.726702 4.232198
40.036812 0.000000 23.199890
40.934602 0.000000 63.942799
54.241833 14.821316 0.000000
0.000000 17.067633 85.906148
50.518731 40.000000 31.335731
0.000000 2.930335 22.022107
31.329379 40.000000 85.646934
49.959513 31.108456 120.000000
0.000000 16.950110 5.129359
43.223016 40.000000 70.462225
27.389528 0.000000 33.786723
60.000000 6.335330 106.355540
17.549353 40.000000 5.442767
27.597074 40.000000 47.010482
39.933681 40.000000 78.736580
49.448552 31.184310 120.000000
60.000000 5.211991 17.734776
0.000000 31.742417 5.699866
0.000000 11.921825 14.694595
60.000000 27.964382 17.954890
44.492322 17.193756 0.000000
25.404879 6.828212 120.000000
53.720729 40.000000 39.814603
30.163166 4.053388 0.000000
40.121737 40.000000 100.257955
0.000000 8.255115 23.495324
0.000000 0.758955 74.925918
16.414892 0.000000 19.655043
15.121897 40.000000 32.003788
43.683686 0.000000 29.157224
13.378276 7.465255 0.000000
0.000000 37.011119 81.031746
6.988631 40.000000 87.516306
16.960950 1.609638 120.000000
0.000000 11.300698 46.576295
60.000000 3.374777 59.260444
5.148636 0.000000 12.266282
0.000000 15.728068 72.773171
60.000000 38.700716 27.299928
28.958401 40.000000 5.542211
9.609903 40.000000 45.301737
60.000000 6.833981 29.100273
40.347306 0.000000 1.630088
55.024240 0.000000 67.177548
17.297879 40.000000 52.486512
60.000000 14.544506 115.302371
0.000000 17.463939 38.311484
60.000000 19.258865 37.909273
26.744789 0.000000 75.126956
60.000000 27.282047 52.813496
16.490680 6.536759 0.000000
26.952349 19.752229 0.000000
5.356793 15.710694 0.000000
22.949015 40.000000 82.624558
13.554891 40.000000 49.982782
47.080389 0.000000 118.888578
28.911652 40.000000 35.783115
56.891767 40.000000 5.005973
60.000000 28.992007 74.875307
46.501265 0.007329 120.000000
0.000000 18.025954 54.352934
51.206069 40.000000 85.444747
7.183307 40.000000 104.416617
33.706961 19.194590 0.000000
48.244420 0.000000 89.677787
0.000000 30.828050 54.836647
0.000000 25.772753 13.986518
15.407517 40.000000 78.726304
0.000000 1.885264 103.238055
60.000000 26.314893 24.870527
2.544403 40.000000 89.623846
0.000000 13.634186 30.429699
37.845967 0.000000 102.905573
25.776953 20.228993 120.000000
40.368301 36.795312 0.000000
17.346162 8.461585 120.000000
24.168554 4.552714 120.000000
23.651894 11.618086 120.000000
23.694438 13.812438 120.000000
34.350910 0.000000 66.496205
36.430290 40.000000 107.865578
0.000000 8.176297 87.326355
0.000000 9.431755 63.655676
17.986974 40.000000 92.379455
36.252691 32.777426 0.000000
12.222093 40.000000 107.374484
0.000000 24.472155 47.866715
22.441553 0.000000 76.121266
0.000000 8.715270 18.441097
51.991858 0.000000 79.153996
43.711676 40.000000 83.379482
0.000000 10.518022 95.823187
12.399153 0.000000 74.595793
6.457046 0.000000 116.188293
17.273094 0.000000 83.624295
0.963665 40.000000 101.650866
40.132992 0.000000 16.006550
21.296998 0.000000 32.404956
17.330167 26.800562 120.000000
36.740559 40.000000 112.199148
60.000000 29.634354 4.582952
60.000000 27.074523 117.364524
45.411343 36.853710 120.000000
33.983796 0.000000 30.588742
24.231318 0.000000 38.544054
1.749975 40.000000 9.737342
60.000000 12.665871 41.202171
24.817493 0.000000 73.362348
60.000000 3.796175 45.927678
5.661304 40.000000 78.176336
15.358724 0.000000 91.547839
13.419402 0.000000 67.281327
0.000000 39.577118 84.008237
1.552661 0.000000 8.580344
14.988263 0.000000 53.516142
14.950495 0.000000 118.643572
14.622510 40.000000 88.989788
0.000000 9.302017 118.566748
60.000000 14.660274 10.148277
47.590371 40.000000 33.367104
58.689209 0.000000 56.954874
6.009814 40.000000 18.054724
28.436552 40.000000 64.848882
45.099280 40.000000 77.366233
24.331351 0.000000 16.606465
60.000000 11.637367 44.211347
28.158401 0.000000 56.218976
57.374355 40.000000 52.593819
60.000000 17.344560 113.716461
0.000000 25.531445 104.513500
6.999331 0.000000 63.700302
60.000000 26.738869 48.311098
0.121374 15.558078 0.000000
0.000000 1.668774 20.742800
36.194186 40.000000 5.463378
6.541732 4.239232 120.000000
60.000000 7.306576 75.753386
50.060384 38.996991 0.000000
39.232797 40.000000 98.679780
18.846655 19.617401 120.000000
0.000000 33.142629 38.377399
58.142998 40.000000 38.509420
5.721994 40.000000 84.643357
9.783850 0.000000 42.610796
2.821007 40.000000 113.011589
2.305462 0.000000 24.701077
17.386349 40.000000 75.607439
57.791691 18.825451 120.000000
29.724820 0.000000 11.432591
25.587234 0.000000 57.192906
38.221114 8.246856 120.000000
19.415448 40.000000 109.277725
0.000000 19.546762 112.313999
52.293488 40.000000 43.583521
33.640111 0.000000 86.844075
0.000000 11.898325 39.540134
60.000000 1.264447 30.402823
19.574387 0.000000 10.517625
0.000000 35.542698 77.235277
0.000000 33.315551 73.818738
0.000000 26.128743 86.824484
51.518716 0.000000 73.785328
0.000000 22.372562 61.717617
22.197762 0.000000 54.594232
23.194216 40.000000 7.929924
0.000000 23.092669 99.046526
0.000000 24.935958 118.731032
60.000000 12.210149 44.290835
48.244737 7.227926 0.000000
37.816173 40.000000 20.013028
60.000000 25.506717 59.810857
20.818153 29.061045 120.000000
15.103285 2.635770 0.000000
0.000000 3.153155 62.922779
9.109889 14.128405 120.000000
60.000000 8.384903 113.169267
0.000000 36.882191 2.334050
45.786580 0.000000 76.346240
37.905093 37.357673 0.000000
13.506292 12.075584 0.000000
24.464185 35.934093 120.000000
26.797680 0.000000 100.880060
55.298195 0.000000 71.154866
12.304261 40.000000 69.062986
49.419133 40.000000 55.140175
32.919955 19.176390 0.000000
58.128854 0.000000 40.229492
60.000000 6.376642 105.074195
60.000000 35.733406 35.437372
25.655995 19.439159 120.000000
13.779907 0.000000 33.192783
33.940565 39.841101 0.000000
60.000000 28.835377 75.920484
60.000000 9.192452 82.467877
60.000000 34.600258 33.816884
0.000000 33.290915 37.082289
38.731528 40.000000 76.902005
1.250929 40.000000 1.233026
9.474367 40.000000 53.849158
29.675715 40.000000 91.774739
38.559743 27.840564 0.000000
4.945872 0.000000 77.513325
9.141397 0.000000 23.840655
20.404645 25.623506 0.000000
0.000000 8.062181 108.519824
4.510490 0.000000 66.403264
60.000000 29.812488 78.900436
33.942555 0.048572 0.000000
36.348811 0.000000 40.179315
43.208435 33.083070 120.000000
32.390795 40.000000 97.620142
31.418349 40.000000 39.516325
9.395770 40.000000 96.604964
21.989983 0.000000 81.275486
60.000000 17.757581 11.160039
43.193774 0.000000 119.379331
34.198128 40.000000 92.686397
42.267726 13.965567 0.000000
58.271209 40.000000 44.277769
0.000000 11.616619 1.959983
20.341616 8.212425 120.000000
47.817004 38.332983 0.000000
49.351833 0.000000 67.282293
40.768612 0.000000 1.121867
0.000000 0.103515 88.643878
29.249469 10.728041 120.000000
60.000000 6.947093 25.012891
1.139880 40.000000 18.535636
27.611895 12.487521 0.000000
60.000000 24.109994 108.878090
50.255278 0.000000 31.096679
5.084267 23.466946 0.000000
15.863270 40.000000 65.177516
53.864051 0.000000 40.280603
20.364896 15.340761 0.000000
20.256709 7.742388 0.000000
50.233644 40.000000 3.309084
4.737518 0.000000 43.885907
23.844533 40.000000 87.004538
3.991263 15.455098 0.000000
55.038695 40.000000 5.832006
0.000000 3.725776 54.214541
0.000000 31.399323 2.777050
47.275162 0.000000 74.802530
9.759514 8.861728 0.000000
60.000000 31.256568 2.914843
58.050374 34.332856 0.000000
39.633335 40.000000 53.107157
3.071078 0.000000 98.519255
25.109659 0.000000 26.807020
60.000000 2.351897 48.684814
0.000000 26.628921 34.045850
53.177493 0.000000 56.770213
41.761898 0.000000 88.451706
27.009486 0.000000 5.430301
0.000000 32.524365 103.146564
41.959598 0.000000 84.348176
60.000000 6.047709 118.727084
60.000000 1.979535 53.922833
2.883699 40.000000 106.269954
48.858461 0.000000 50.550115
53.473889 0.000000 23.396416
15.817206 9.214844 120.000000
46.977281 0.000000 79.755101
3.481263 0.000000 92.097296
0.434014 5.639201 120.000000
39.293474 40.000000 48.786902
15.995713 0.000000 106.797505
52.707662 40.000000 38.955503
56.189259 0.000000 65.666064
0.000000 20.044713 11.283304
35.588629 0.000000 105.740119
44.318121 0.000000 25.565080
60.000000 18.133310 59.330309
55.410484 40.000000 35.643593
23.750193 0.000000 71.289309
39.138405 40.000000 54.453987
60.000000 21.626161 73.663891
60.000000 30.768307 106.743503
0.000000 14.328396 20.795118
32.108086 40.000000 115.647045
22.995471 0.000000 48.319091
0.000000 39.421445 89.277588
0.000000 22.450699 45.985702
60.000000 8.214736 81.335599
17.203149 40.000000 49.098929
60.000000 26.895859 21.962716
0.000000 17.003752 5.743323
10.579872 40.000000 19.437519
60.000000 28.368880 63.124028
33.453784 40.000000 65.325471
0.000000 23.288206 112.940158
53.756165 38.453614 0.000000
54.234910 40.000000 43.895058
41.340154 0.000000 17.936325
40.682821 0.000000 26.898438
41.995824 40.000000 118.569150
28.718214 4.186920 0.000000
0.000000 27.682044 9.086658
36.277942 27.630868 120.000000
0.000000 36.375619 85.882321
54.649648 40.000000 67.966433
60.000000 19.798526 84.495004
0.000000 24.292960 12.143453
0.000000 23.869963 107.120009
60.000000 3.291415 19.009751
0.000000 38.265466 106.831418
31.127736 40.000000 30.248059
22.539863 40.000000 44.613199
45.766693 40.000000 48.287007
60.000000 35.941916 5.261489
60.000000 31.252416 29.307572
16.961700 32.066021 120.000000
53.788577 8.991174 120.000000
0.000000 14.641668 54.958398
60.000000 34.353629 71.105796
2.668261 0.000000 49.083681
12.438325 40.000000 77.368722
60.000000 18.653793 77.624004
60.000000 29.156768 20.758523
50.986536 40.000000 96.050150
0.543634 0.000000 43.745146
57.764567 16.756219 120.000000
60.000000 28.201051 31.067210
1.292329 22.381860 120.000000
38.609741 40.000000 101.955034
24.362915 0.000000 106.457798
0.000000 26.340100 92.746494
36.010419 40.000000 22.465622
23.897947 40.000000 11.766634
0.000000 5.964892 7.642516
0.000000 21.894995 79.284039
26.094037 40.000000 27.981892
52.646211 0.000000 87.561040
60.000000 16.311787 118.409087
54.408293 0.000000 1.714289
60.000000 16.113713 97.702488
13.648255 0.000000 54.929607
45.924552 40.000000 50.007532
44.334275 0.000000 27.580698
60.000000 24.419710 112.743452
37.824477 0.000000 116.616084
0.000000 36.687650 8.120384
60.000000 16.813345 66.090540
60.000000 10.330397 98.448066
17.834221 40.000000 28.699544
29.749159 24.763672 120.000000
16.772730 4.128808 0.000000
35.222761 40.000000 84.119555
54.373604 0.000000 2.546603
60.000000 20.798793 87.023011
43.022749 40.000000 96.620690
60.000000 37.311008 63.832926
33.717813 40.000000 76.074970
15.464665 40.000000 15.415042
42.013752 0.000000 14.379954
25.343744 0.000000 23.638266
60.000000 0.016342 87.850184
0.000000 18.798939 98.991827
60.000000 6.599571 89.646696
9.545075 40.000000 57.332743
60.000000 8.408939 71.248069
36.295239 40.000000 56.939061
32.915729 40.000000 63.646371
46.415215 0.000000 34.782130
60.000000 35.658876 113.272759
0.000000 5.439972 12.861018
51.864531 40.000000 17.111290
50.640295 5.821391 0.000000
60.000000 28.901069 36.925211
56.736056 40.000000 36.384004
41.033182 0.000000 99.590363
54.559509 40.000000 93.378623
45.066973 0.000000 23.525922
42.161087 40.000000 97.481472
16.576012 0.000000 14.538839
60.000000 34.087253 81.099985
9.477081 40.000000 56.748615
56.588307 4.324314 0.000000
49.380717 26.778965 0.000000
2.981153 40.000000 92.476791
60.000000 10.410244 19.038127
60.000000 33.171474 82.179627
31.578368 40.000000 37.611592
6.715531 40.000000 43.950290
60.000000 26.611826 95.820112
0.000000 37.702651 65.699554
7.241469 40.000000 29.329712
0.000000 37.855328 28.184379
42.775620 40.000000 89.640883
29.932804 40.000000 41.006168
18.655511 40.000000 6.677384
0.000000 33.121736 95.614826
4.928450 40.000000 29.171985
0.000000 16.942303 18.642752
60.000000 21.975678 1.281161
0.000000 25.673700 13.003712
0.000000 21.497039 103.673923
18.097517 40.000000 106.859564
0.000000 9.485112 82.155110
59.608662 0.000000 79.157742
60.000000 25.430254 86.183809
60.000000 28.128616 41.554900
0.000000 6.866470 66.965157
51.475702 0.000000 111.754496
60.000000 29.180072 104.622879
10.631920 40.000000 66.206969
15.516304 0.000000 53.559212
0.000000 12.353792 50.539384
0.000000 6.664409 67.776273
0.000000 25.404269 116.691839
46.230516 40.000000 30.577148
31.374209 40.000000 23.516198
58.768886 0.000000 81.975444
0.000000 30.747972 26.309601
39.223778 40.000000 4.684096
21.742931 0.000000 71.279990
2.254152 40.000000 2.503588
60.000000 25.506030 106.561712
16.571454 40.000000 50.415460
2.164841 40.000000 4.577826
19.676343 33.099083 120.000000
24.964429 0.000000 90.365116
60.000000 2.804694 64.579282
60.000000 3.848093 0.494383
60.000000 37.883148 13.429257
52.075473 40.000000 15.338153
38.679879 40.000000 3.164444
60.000000 2.412533 76.099885
30.459620 40.000000 29.992487
48.531999 35.767924 0.000000
60.000000 7.466375 71.779226
0.000000 2.002771 50.072040
32.540944 0.000000 62.857462
6.989192 0.000000 104.402984
12.316039 0.000000 43.994642
42.357341 0.000000 115.344211
14.075803 0.000000 83.766916
21.277154 0.000000 114.007717
14.300767 40.000000 24.738589
29.253007 33.188285 0.000000
6.468986 25.638008 0.000000
0.000000 31.186541 110.759349
40.840242 40.000000 33.969427
16.898785 0.000000 0.378420
59.870154 40.000000 87.713978
14.635141 3.378872 0.000000
11.553094 40.000000 49.144414
60.000000 14.755381 20.911947
0.000000 24.894103 92.232056
34.039087 40.000000 24.885213
23.997854 0.000000 96.969230
0.000000 30.926740 39.897729
34.913876 40.000000 28.733808
19.347753 40.000000 103.716973
0.000000 31.914240 60.254541
3.413800 40.000000 71.982102
15.375181 40.000000 67.729540
60.000000 33.571195 70.291907
39.967754 0.000000 90.557066
0.000000 19.815552 8.308272
0.000000 23.016217 60.069430
60.000000 10.331046 44.242807
60.000000 26.611381 63.580281
60.000000 32.322761 71.039474
0.000000 1.836180 28.874350
30.986098 40.000000 72.175947
6.729879 0.000000 65.458126
60.000000 3.163912 39.361328
33.000770 40.000000 34.296213
11.076902 27.066076 0.000000
27.251684 40.000000 95.457117
45.272314 13.100497 120.000000
15.068899 2.690790 120.000000
48.490569 40.000000 68.459076
60.000000 35.194019 99.520644
42.312858 22.529366 0.000000
6.100046 40.000000 112.439359
40.686031 0.000000 105.236510
60.000000 17.366454 57.880434
18.642045 40.000000 38.061684
0.000000 14.961728 0.244302
60.000000 27.006246 80.898898
0.000000 4.876251 38.158626
11.573119 40.000000 35.184174
0.000000 10.502845 92.696415
14.623213 3.040717 120.000000
24.049132 27.651713 0.000000
0.000000 28.312607 76.184996
52.920493 0.000000 12.394609
60.000000 3.415519 77.919233
58.120232 23.662931 120.000000
36.932283 10.536876 120.000000
60.000000 19.171978 25.547077
29.343329 8.630948 120.000000
0.000000 5.121000 62.546122
59.246158 27.894726 120.000000
33.584079 0.000000 44.846007
19.132474 0.000000 43.120931
10.543935 40.000000 101.355476
32.296545 21.015753 0.000000
17.120277 40.000000 47.620203
4.546574 0.000000 58.839682
57.501741 13.983130 0.000000
45.402579 20.528306 0.000000
51.468424 40.000000 18.781326
19.382381 40.000000 3.603593
49.302886 40.000000 47.449009
60.000000 21.323642 118.772954
57.880138 40.000000 88.696814
48.722627 0.000000 38.148825
10.647197 0.000000 105.911131
26.521742 40.000000 96.405624
60.000000 5.945547 50.830442
21.760428 40.000000 18.693860
54.412252 0.000000 38.353878
2.805282 9.705677 120.000000
3.308461 0.000000 17.940923
46.547800 0.000000 118.856088
14.617268 40.000000 95.861269
60.000000 15.654176 117.359443
21.117156 40.000000 72.347754
35.917682 40.000000 110.615626
60.000000 8.316175 91.702490
31.648227 40.000000 85.176626
30.868326 0.000000 29.916257
60.000000 2.223894 114.913992
2.230275 0.000000 80.914415
0.000000 1.367508 51.100617
12.058426 40.000000 57.037116
6.474072 40.000000 115.810181
45.412211 40.000000 74.872239
30.297052 0.000000 92.962451
0.000000 29.559297 63.272019
37.930208 40.000000 28.515089
45.414289 0.000000 112.262493
49.986640 0.000000 57.647086
22.525683 0.000000 95.971397
27.922121 40.000000 88.064812
0.000000 30.343874 1.129059
41.139825 17.723472 120.000000
14.837542 23.216480 0.000000
45.210642 0.000000 24.031029
9.947555 0.000000 34.568346
8.563872 0.000000 108.804214
25.105842 40.000000 67.215243
32.333683 0.000000 34.651426
0.000000 23.834823 113.423700
13.008914 40.000000 49.756208
0.000000 31.684988 78.971410
60.000000 22.112604 68.002647
10.007767 0.000000 108.069896
7.325972 40.000000 116.033006
14.016225 0.000000 47.380059
0.000000 10.513889 115.983728
46.187260 0.000000 10.157440
0.000000 18.198762 85.483222
60.000000 5.247075 35.507332
40.499589 0.000000 90.789361
39.193638 40.000000 43.375536
33.034147 0.000000 18.393465
20.113882 10.391463 0.000000
0.000000 13.438323 53.371781
60.000000 3.803097 71.882623
59.283465 21.287769 120.000000
60.000000 4.684608 93.459190
36.502077 21.243260 120.000000
34.821303 38.290465 120.000000
44.324912 4.612240 120.000000
11.181763 0.000000 70.669806
58.832505 0.000000 109.992513
10.272712 11.892762 120.000000
25.151469 40.000000 118.062964
0.000000 31.057136 19.605317
20.521428 40.000000 40.384667
39.136314 40.000000 84.850475
35.532828 40.000000 94.102987
39.092239 0.000000 69.401405
46.412397 22.179639 120.000000
9.161441 26.698583 0.000000
60.000000 37.149071 4.912506
38.710271 0.000000 42.014607
7.358077 40.000000 66.438143
0.000000 25.964946 1.684881
56.996359 22.882385 120.000000
55.930384 0.000000 92.761169
0.000000 2.173487 61.168415
3.317190 0.000000 50.579748
0.000000 19.775876 96.267108
19.965033 40.000000 17.412212
53.335559 0.000000 80.758850
0.000000 17.883926 72.538327
51.692547 15.227729 120.000000
5.598726 0.000000 16.467618
7.662238 22.050387 120.000000
0.000000 13.786039 24.588506
60.000000 35.530671 65.171005
27.691462 40.000000 65.690352
0.000000 34.902770 119.531973
0.000000 9.730055 39.504841
42.378514 40.000000 22.304350
14.460488 35.999995 120.000000
60.000000 11.892546 81.310827
47.175728 0.000000 61.556010
0.000000 35.043332 74.848962
14.394017 0.000000 99.882603
40.973725 0.000000 90.361729
26.912097 0.000000 101.521805
10.293678 31.857640 120.000000
56.735020 40.000000 116.683302
44.748497 0.000000 103.947395
8.723971 33.465924 0.000000
23.408270 0.000000 97.817759
4.107741 0.000000 26.488877
26.333382 40.000000 88.803139
48.203883 40.000000 101.461858
29.455516 6.745993 120.000000
3.536922 40.000000 91.292244
60.000000 35.574749 85.499867
55.705258 23.640210 120.000000
60.000000 21.018736 56.202484
60.000000 2.810523 43.796489
60.000000 25.657739 55.434254
60.000000 33.165709 49.894810
34.995453 2.508278 0.000000
0.000000 12.059101 38.838253
14.672108 0.000000 73.367168
16.282630 0.000000 64.129243
4.235551 40.000000 24.062874
4.088687 19.782753 0.000000
33.159543 40.000000 27.491461
0.000000 2.173473 36.707433
36.914515 40.000000 113.532052
60.000000 10.119286 29.408600
0.573158 0.000000 42.100922
60.000000 9.488186 118.383329
23.057191 40.000000 69.874319
0.000000 25.209345 109.655068
57.933179 0.000000 72.362459
0.000000 25.542675 55.236296
