59.386245 89.347915 0.000000
30.034845 75.655705 11.637187
102.597114 109.988512 81.858341
110.515077 8.651482 16.737102
85.292020 127.700839 0.431054
95.170044 12.018070 84.318999
151.622253 88.253776 85.397559
132.985207 65.827632 0.000000
119.456920 25.021251 93.033849
154.741306 96.181575 93.740431
51.715828 114.265092 100.000000
113.041924 36.709767 100.000000
97.267444 36.933480 0.000000
19.552878 85.896675 7.042631
151.056077 87.122052 18.049298
33.041534 72.718145 45.859398
87.380264 125.563453 47.001741
156.790803 98.585155 83.483534
83.008845 73.920272 0.000000
93.667975 13.485604 64.010249
30.445920 136.162391 2.016931
115.884566 26.686202 98.280459
18.009325 123.433130 25.685025
64.782582 47.877980 98.249990
61.304693 45.104801 38.619092
132.194328 49.419432 10.160117
15.194709 90.154642 60.575093
76.335391 92.124582 100.000000
29.516440 135.211038 16.797700
80.285472 26.560421 88.991208
121.621724 63.052892 0.000000
53.038010 123.357866 0.000000
51.958359 62.023817 0.000000
96.557747 116.170000 87.325749
132.243570 61.864274 98.937820
114.430972 13.912383 84.854146
87.408264 19.601394 64.423574
98.124499 78.523249 100.000000
63.396110 150.112017 81.694352
32.129013 137.885092 3.469362
31.735370 137.482185 13.370210
117.466266 90.835445 100.000000
68.733506 127.481227 0.000000
4.754720 100.354599 24.433687
85.258323 127.735329 44.125125
88.396018 97.571868 0.000000
104.530103 108.010035 36.631080
138.316745 118.153632 100.000000
35.292509 111.247836 0.000000
157.201524 99.406143 22.536172
46.334402 59.730901 55.417956
125.255674 106.673346 100.000000
115.329597 15.708638 14.296945
156.057086 98.500852 93.403195
46.547886 59.522326 78.589777
114.993769 15.037354 60.675279
55.651178 89.271948 0.000000
110.094443 44.599223 0.000000
93.047986 14.091338 34.127632
74.750841 138.490079 3.680471
126.281274 108.838573 100.000000
154.975008 94.955575 39.301944
127.040564 39.117610 22.442657
13.023328 118.329801 41.924235
106.211695 96.705313 0.000000
79.679695 133.445236 18.648178
100.765210 32.573210 0.000000
77.889874 100.471366 0.000000
158.402481 102.098811 66.411606
127.382275 65.073332 100.000000
35.205220 141.033689 6.295829
51.771526 157.724596 0.000000
94.666952 30.624760 0.000000
12.550204 117.845543 55.473435
82.776564 24.126604 56.127257
6.884575 111.573555 92.521911
9.568372 114.793540 65.873324
109.516897 109.284412 48.516253
71.111289 108.778074 0.000000
152.977446 90.962662 48.911824
71.518992 96.547997 0.000000
53.334197 139.420797 0.000000
21.934331 83.674019 91.147783
72.162096 34.497028 26.568125
102.809664 109.770960 76.408763
101.596405 111.012769 50.253520
30.507730 136.225656 38.600805
140.620205 77.565542 0.000000
45.819720 80.761322 100.000000
122.492240 68.321746 0.000000
100.923760 14.314358 0.000000
39.374838 80.095724 0.000000
48.342793 154.480423 51.977044
135.856570 56.739862 2.457056
118.916649 128.968232 70.481326
140.047408 65.116899 72.847384
108.112955 106.344447 59.601512
118.490125 128.075058 88.288187
78.692905 109.852474 100.000000
67.929934 38.631885 66.293396
124.491120 34.021543 76.052888
38.635103 132.285874 0.000000
128.182676 126.357223 99.955092
14.038185 119.368540 79.874731
78.257913 60.171361 0.000000
129.437360 43.908549 12.572252
122.148182 80.131858 100.000000
124.091522 75.545105 100.000000
4.739723 100.369251 72.571801
105.237042 107.286459 56.324535
45.334612 114.915730 0.000000
107.214025 7.066196 4.341765
56.628452 157.038935 73.917383
45.702369 60.348403 10.448624
130.658370 62.398899 0.000000
144.626475 137.193386 5.485822
105.248233 6.787965 90.293834
52.469735 158.704483 7.939565
11.869946 93.402964 40.364968
127.227837 39.491948 47.366803
20.520659 84.951144 51.614379
122.433047 32.321087 94.516574
34.726381 103.336205 100.000000
155.164419 115.126093 34.417587
126.902588 132.610978 98.957142
62.664959 43.775810 11.548453
50.042542 156.220172 27.454424
100.927901 7.482306 85.830286
86.795132 126.162355 75.116732
114.680004 75.342820 100.000000
143.976150 138.555217 16.453834
5.011384 110.129315 59.200436
68.985680 61.939203 0.000000
67.286619 146.129954 62.699522
20.921143 126.413471 13.677184
110.241097 8.433668 32.941165
75.220898 31.508553 2.642214
55.786460 148.554964 99.375804
90.306683 17.339422 92.702121
98.559237 24.850321 0.000000
7.564926 112.742948 88.773649
148.216776 129.675011 13.526565
146.764474 78.543596 51.323270
156.777553 106.296538 95.981024
89.785166 17.279140 20.408038
43.395294 149.416497 2.384108
128.000166 45.875928 96.205156
58.065941 48.269090 59.886666
151.419152 122.968979 13.091280
128.138285 120.472464 100.000000
141.507030 68.034527 67.795654
95.994446 116.746557 66.367016
150.920705 124.012767 77.322561
47.795668 132.865930 0.000000
75.435065 51.889308 100.000000
120.882380 133.084627 12.736933
131.059184 146.419587 42.497099
9.308040 113.673781 93.398756
78.127199 135.034267 75.221233
33.744016 139.538100 74.089951
110.960426 45.599680 100.000000
107.594252 105.258242 36.412188
55.473037 158.221539 67.528327
59.911035 123.765232 100.000000
40.535100 90.735309 0.000000
151.711905 88.432982 72.323801
140.572969 66.167439 38.563439
73.911471 139.349201 87.927987
149.343560 83.698912 17.198756
149.662237 126.648098 31.516974
142.706693 123.123042 99.731419
143.632708 72.283530 70.179386
137.504252 60.033402 79.069635
147.076956 132.061883 84.873025
148.304863 81.622669 80.328777
48.932454 57.192582 80.597478
114.276109 13.602828 15.666446
26.897286 78.721126 31.488134
145.574487 132.267617 94.864112
15.354180 120.715504 24.189594
67.520940 39.031476 84.963185
49.939526 56.208665 77.815849
16.794885 89.072314 92.576069
54.184661 73.292455 0.000000
122.449879 50.741770 0.000000
124.898023 141.419973 25.710858
1.948134 106.993979 60.113612
91.129121 87.704187 100.000000
102.641711 109.942865 30.775033
128.453992 145.250349 26.171039
58.307356 122.684638 0.000000
39.447968 115.526095 0.000000
39.619964 66.290963 85.346541
28.007562 77.636377 57.238087
25.513848 80.072756 67.289714
154.061953 117.434744 61.265950
121.325653 132.955161 0.000000
97.308904 9.928386 64.709348
120.372974 25.789809 24.406190
142.477863 113.868845 100.000000
145.629265 135.093464 66.649690
83.845191 129.181716 40.770253
93.771016 119.022310 48.891854
1.014434 104.008889 39.765516
29.850623 135.553085 31.303387
93.848051 100.759066 0.000000
10.626792 115.876867 34.336488
63.398823 150.109240 22.182179
142.533102 141.487604 4.480786
126.047044 37.131669 28.327604
119.736492 101.867251 0.000000
19.145894 124.596446 84.823685
57.841129 110.457226 0.000000
7.348368 103.612755 98.060201
145.853737 134.623401 70.182557
107.489523 7.162892 23.537101
133.771570 128.911140 100.000000
9.540670 114.765187 52.832924
9.008580 96.198542 23.785203
79.299315 27.523905 65.551229
36.174643 142.025926 83.709464
52.303684 152.257313 98.260299
126.304181 37.645659 79.776345
79.618987 131.182046 95.439283
61.387096 45.024293 18.576919
40.318926 68.260967 95.803259
9.444437 114.666689 58.873973
92.337742 120.489313 67.247576
84.455999 22.485782 52.819643
43.484435 149.507736 84.467258
18.113438 87.303019 40.231217
138.937972 62.899255 21.379835
69.015729 37.571054 25.900338
60.276365 46.109487 14.111164
13.250277 118.562090 2.829890
122.708017 136.907655 85.131972
136.000299 57.027162 48.544261
108.081852 33.513686 0.000000
146.223958 77.463162 6.769492
38.742506 92.406723 0.000000
5.404322 110.531500 85.628632
45.645593 94.860156 0.000000
86.822087 126.134766 51.174247
13.827491 119.152887 32.591362
4.951806 100.162044 75.699310
154.815051 115.857697 54.769942
148.011648 81.036564 74.418791
8.244162 108.217707 97.714653
42.628648 107.019225 0.000000
37.514887 143.397709 66.430682
89.554611 114.328550 99.273686
114.964205 55.958086 100.000000
59.167513 151.076061 96.440263
59.940114 46.968899 92.644031
111.412176 113.253276 42.074310
112.218913 96.235482 0.000000
109.429153 65.724374 100.000000
131.000815 47.033728 56.717245
151.565210 122.663123 33.517870
96.510988 116.217860 77.733684
143.486985 71.992246 38.795847
134.810736 103.072442 100.000000
26.304085 131.923088 29.982953
63.172456 150.340934 13.915313
26.200552 90.958213 99.848298
127.811357 144.823927 37.146561
84.901742 76.396951 100.000000
151.825073 122.118950 88.606139
28.957514 76.708266 8.526989
97.906044 114.789974 9.398788
32.933418 94.865449 0.000000
41.669971 83.100591 100.000000
28.659935 134.334377 20.743089
143.057849 140.478214 45.683404
57.118698 49.194554 81.613145
98.821749 113.852721 18.787389
51.662310 157.878057 2.530027
14.252144 91.075536 7.888055
66.724580 39.809527 86.854931
122.654733 136.796075 47.126218
135.291731 66.085255 0.000000
97.206563 84.941338 100.000000
14.544278 119.886543 20.049975
40.423484 146.374753 73.556741
73.084380 140.195756 33.567784
7.022754 98.138710 48.071888
157.148809 99.300771 76.734683
93.790300 118.465505 92.692206
130.207658 116.178185 100.000000
63.619089 110.640804 0.000000
128.832522 105.114887 0.000000
116.215586 17.479635 61.815138
122.896994 135.338598 0.000000
37.637108 143.522806 68.645729
146.630325 108.162584 100.000000
123.859170 139.318260 12.971891
144.481480 137.497016 7.482770
1.521701 106.557511 40.952936
148.269813 86.277706 96.125089
45.787595 150.494465 94.241901
154.598192 116.311817 22.805614
151.541001 122.713818 2.918600
62.840245 43.604554 55.275460
135.465005 146.605334 19.805420
113.859393 43.666708 100.000000
83.411490 129.625622 48.572216
35.233388 141.062520 53.179333
45.427855 151.496890 27.500144
90.329981 105.865474 0.000000
53.490833 52.739008 55.754914
44.026397 116.778158 100.000000
74.552606 138.692979 16.409781
57.850381 155.788251 28.830949
7.368207 97.801200 28.285489
3.317019 108.395077 4.035401
87.124399 33.612651 0.000000
35.141578 70.666384 38.595666
129.287429 47.390839 95.542582
119.562675 121.831572 97.720804
1.219283 103.808750 14.842141
93.691217 119.103987 0.090214
109.131301 99.002992 98.055837
89.937568 100.880352 100.000000
154.545514 116.422128 51.223054
70.920736 35.709847 50.973147
110.613943 8.731349 40.374626
74.167391 32.537838 81.366465
84.730332 82.100993 0.000000
69.385854 103.091980 0.000000
132.421561 53.303588 0.000000
44.265679 61.752060 67.955781
135.898769 56.824214 66.416662
134.897548 146.704570 66.757568
145.133654 75.283761 3.589720
100.227587 47.320553 0.000000
95.495437 107.058805 0.000000
25.892538 79.702774 53.841946
37.824546 95.189641 100.000000
71.076981 142.250394 28.297058
150.008241 85.027539 4.901072
30.947369 136.675641 77.605595
111.035628 9.800736 93.292860
6.421569 111.572685 68.937894
52.473533 54.117344 92.264198
116.299775 17.647920 26.634965
97.372445 57.106747 100.000000
141.874302 142.602538 79.806613
117.482651 20.012362 53.517344
90.613723 16.469634 28.532699
158.417667 102.161812 56.486513
15.050930 90.295115 84.539751
117.466606 118.221340 0.000000
106.453572 106.041301 86.104457
25.641222 79.948311 44.546606
9.870445 95.356493 11.974343
138.479944 61.983706 28.704597
79.380382 81.393409 100.000000
122.821021 48.375192 0.000000
37.311244 126.020037 100.000000
130.790756 119.022878 100.000000
30.828973 76.615233 94.810880
37.524237 143.407279 21.154238
48.266556 153.722246 93.041940
129.630069 44.293753 25.373317
30.523004 124.235701 99.859136
26.706614 78.907414 17.045300
28.428402 77.225213 83.348665
110.116299 110.539606 72.261981
56.721532 135.356756 0.000000
123.279132 138.103615 38.994645
132.928581 50.887125 24.670914
138.333461 61.690902 66.495708
50.513205 156.701910 74.539500
121.884332 135.182795 68.809555
4.643569 109.752845 17.487954
84.021025 129.001743 84.707570
6.688316 98.465460 17.020777
158.330293 101.893836 89.042108
83.124118 23.787040 69.733750
79.405865 83.506726 100.000000
104.977585 107.552022 68.762474
50.476710 118.333779 0.000000
111.959032 9.942476 12.614543
44.283375 138.219644 0.000000
91.825321 120.529450 92.545756
18.428641 123.154209 93.076949
119.894832 79.607793 100.000000
150.835056 105.946694 0.000000
41.654157 64.303540 31.698913
145.960959 115.769251 0.000000
115.634360 58.060551 0.000000
113.052173 11.357094 69.062790
44.694288 150.746059 76.064847
143.161744 71.342124 13.326805
98.139285 22.702791 99.975293
112.833803 11.000408 27.056249
16.340873 121.725416 80.694673
108.028223 44.747431 0.000000
134.891136 146.705692 8.987018
42.917414 63.069327 21.407432
145.206166 75.428705 79.183133
15.744507 89.617485 11.138556
89.242004 110.092758 99.954489
42.295523 148.290846 62.579017
156.742296 98.488196 54.031368
89.962313 122.920642 27.068341
114.003121 118.678918 23.192483
47.721164 58.376023 48.644694
63.982210 149.512124 57.500839
38.871980 107.624440 100.000000
66.934795 39.604145 21.074800
135.103019 63.359740 97.692357
95.957215 99.290116 0.000000
94.776684 117.992977 50.342664
46.202308 59.859958 82.277508
60.295286 46.091000 54.562104
95.804657 112.693794 0.000000
21.937077 127.453313 59.784507
86.108482 20.871292 35.783868
106.820705 6.988777 44.490634
11.942247 117.223279 44.446583
44.546914 150.595218 60.932206
18.791937 91.189321 97.342280
70.738665 142.596672 23.176563
61.541229 60.345451 0.000000
107.281315 65.677823 100.000000
144.994112 75.004832 62.277498
107.938853 41.399228 100.000000
98.700982 113.976329 75.280444
3.907516 108.999470 41.239989
69.671897 142.970448 93.126160
49.788311 155.959958 72.601140
87.888819 64.797086 100.000000
102.110164 89.677636 0.000000
75.510912 31.225206 47.525261
158.686169 106.891782 1.039816
64.332702 149.153384 2.711145
97.292844 9.944076 50.877175
67.083775 146.337571 42.337657
81.558686 25.316480 54.988620
5.188734 110.310839 54.900665
8.095599 97.090532 49.486224
137.762106 60.548826 2.238419
36.062239 141.910877 36.868757
156.361304 112.619719 73.650170
63.482586 91.555585 0.000000
92.871120 119.943383 47.070888
125.108943 95.720795 0.000000
144.567719 74.964457 92.579912
37.324740 68.533416 42.545037
23.266346 83.314286 93.770008
116.554795 124.022325 22.671655
131.130376 104.134633 0.000000
9.061616 114.274860 46.530479
72.522490 126.252542 100.000000
44.899083 109.762788 100.000000
74.538813 32.174955 9.302139
58.282646 155.345813 81.699343
112.355435 40.157824 0.000000
9.700202 107.034804 98.901048
43.470637 100.548174 100.000000
79.215639 133.920213 56.129403
144.629359 137.187346 72.438816
38.332663 125.208944 0.000000
74.199176 89.946157 100.000000
45.447760 60.597158 53.636210
156.682134 110.764275 0.000000
123.036406 137.595327 18.806199
68.348896 38.222556 36.874785
144.215890 73.449249 21.123348
157.830667 109.542757 20.145087
86.496414 20.651127 91.348997
12.439209 92.846789 67.818193
92.746733 120.070698 85.807675
25.472967 80.112697 49.657948
121.866247 77.627037 0.000000
148.643874 128.780633 54.281178
136.621657 63.311128 0.000000
51.231635 157.143253 91.988425
144.637609 74.292221 10.262523
116.988332 124.930184 47.968135
151.552751 88.114851 35.670230
73.741106 32.954322 26.327166
50.900219 66.748478 0.000000
156.817671 111.664051 1.837439
113.355641 14.356086 0.000000
125.906606 127.591934 0.000000
147.708123 130.740170 72.045637
134.523357 54.331185 91.385306
150.962854 86.935708 4.161615
137.485191 59.995302 67.983575
82.878418 45.821653 0.000000
106.842925 99.128843 0.000000
56.983416 129.856988 100.000000
93.204337 119.602324 65.073917
123.782067 139.156801 57.382182
102.896087 47.679692 0.000000
139.303121 63.629148 52.142074
47.423640 58.666707 37.079593
93.300545 13.844586 88.070931
121.507847 29.608400 93.627846
0.246524 104.759144 83.794477
96.414006 116.317124 53.083749
115.355411 101.601322 99.875715
51.019202 110.484125 0.000000
118.031413 21.109280 24.664863
128.764966 145.428139 28.503707
68.112362 136.593463 99.177131
95.555776 117.195550 54.844058
8.152782 100.507441 96.572331
98.148309 9.182223 3.944214
149.228400 83.468722 14.660049
6.022778 99.115695 23.012316
103.274111 36.921854 0.000000
22.878862 128.417261 85.679040
64.586334 45.973075 97.002708
93.579048 119.218796 79.315304
5.662852 110.796113 7.004740
155.431060 95.867176 49.406241
71.212007 35.425273 44.920074
41.141275 64.804630 73.834807
129.919181 44.871656 21.227494
151.872647 88.754287 55.601205
109.463896 109.173423 62.597123
142.507307 141.531420 56.819331
29.951022 135.655846 13.191764
80.354943 132.754098 24.930150
2.054121 102.993107 79.060347
158.387407 108.136718 51.037958
75.366431 47.789586 100.000000
52.249794 158.479366 18.306112
140.933044 135.647525 0.000000
150.231134 85.473079 30.030915
129.027168 90.185829 0.000000
107.006243 83.239719 0.000000
1.403213 103.629049 82.299089
55.725877 50.555352 50.253393
116.053847 122.973300 8.942750
155.071915 115.319803 1.306183
83.452117 129.584040 87.778013
25.628567 79.960675 71.279222
138.591657 131.126112 0.000000
74.870257 138.128309 91.794985
116.256910 17.687936 0.000000
158.078963 108.932586 5.955046
5.290849 100.183618 92.189540
84.710634 118.185901 99.549576
104.115379 108.434518 24.713850
17.668351 100.351283 99.914447
28.148287 133.810689 38.074769
148.797903 128.458084 1.449738
64.839152 41.651605 47.920710
118.627198 117.108621 98.562611
138.426228 115.043152 0.000000
144.180849 102.848985 100.000000
138.922378 145.304412 2.262872
89.307796 119.789037 0.000000
2.732346 102.330475 21.122462
136.843019 127.352562 0.000000
81.608454 57.656779 0.000000
139.180567 145.156801 21.728617
103.260670 109.309340 79.128818
41.611974 65.300405 93.614509
34.399755 71.391151 25.234554
116.445521 83.906369 100.000000
91.245715 16.163075 0.000000
51.956701 72.892046 100.000000
144.454087 137.554381 48.297501
153.776077 92.559040 15.567749
62.018873 44.407041 35.200639
37.050647 68.801208 16.015570
91.607350 85.799535 0.000000
55.605172 91.596034 0.000000
7.099310 98.063914 63.384785
108.066238 106.246618 11.000742
48.590778 154.734245 17.736524
147.030542 79.075437 77.371917
91.084804 28.524690 99.908309
103.262343 6.857182 8.605714
55.573151 157.930876 0.000000
102.290793 103.168285 98.650741
19.678125 125.141202 11.869223
20.978159 126.471829 68.677497
96.598446 10.622509 27.662949
125.227568 88.795668 0.000000
57.807195 122.927557 100.000000
43.124568 149.139400 76.703988
5.378592 99.745071 84.110956
106.011029 106.494259 4.878491
57.304142 145.245901 0.000000
113.863490 118.386519 87.294582
114.203420 119.098360 13.533494
149.339305 127.324344 26.647633
72.144771 141.157476 4.001870
95.635976 19.996999 99.141855
40.471827 75.066625 99.475324
100.725479 111.904190 66.680891
6.576287 111.731044 76.598949
64.094074 116.291737 100.000000
96.668299 104.585612 0.000000
42.013781 98.288435 0.000000
46.107876 64.245046 97.158899
129.861058 45.613603 92.667050
74.514497 138.731985 46.892694
133.144899 51.319523 12.562622
12.851303 118.153727 5.205777
145.577406 135.202062 76.499385
80.304019 26.837099 0.000000
16.806296 122.201791 7.085786
36.195499 69.636694 44.310892
41.222065 139.323208 98.913958
56.714485 156.950877 61.328848
71.944082 141.362888 69.798225
89.062646 123.841480 37.811426
63.921382 92.589706 100.000000
85.815209 59.106242 0.000000
23.955960 116.821914 0.000000
92.740675 120.076898 89.922614
116.736681 18.521248 28.706166
152.416700 89.841792 32.295131
23.709547 81.835574 68.064277
102.005454 110.594095 32.606108
76.805882 136.386677 70.907300
48.217374 57.891222 1.383023
93.438147 119.363012 41.235538
119.979893 39.843322 99.398487
54.123209 52.989105 93.463030
14.074581 119.405792 25.268801
6.942710 98.228980 90.197669
62.899743 73.060125 0.000000
84.895524 22.056362 2.836137
9.623647 96.336431 0.000000
121.717081 28.476535 88.334105
137.253312 136.029239 0.000000
18.649946 124.088827 80.037072
34.937899 70.865380 11.306973
38.249139 67.630271 25.323133
154.107686 117.338976 30.854074
21.321933 124.670033 95.259479
14.036104 119.366410 22.485301
31.725372 74.004046 79.304407
73.153058 33.528850 28.231401
158.125415 108.812729 53.646670
50.717893 156.911416 16.849793
144.880422 136.661601 55.150743
107.659973 56.243434 0.000000
16.549420 88.831078 64.501792
115.917863 122.688538 34.065795
133.980561 55.977399 94.969325
81.398436 50.940415 0.000000
97.685459 9.562895 48.760946
120.615621 91.225434 0.000000
126.123555 143.221558 78.358236
155.228172 114.992589 30.638639
64.157865 128.825110 100.000000
139.468382 122.444798 100.000000
108.528680 102.517830 96.024144
36.553985 131.345578 0.000000
43.478940 65.155623 0.000000
114.456247 14.979563 92.951523
98.682962 113.994774 33.061173
110.742197 8.834957 38.261310
37.926565 143.819074 15.074627
121.510381 134.399712 82.138259
137.684773 145.960323 6.181981
44.295627 61.722801 45.542229
141.651645 142.864113 58.616427
148.356479 129.382460 9.583235
84.299927 128.716278 58.229385
131.979723 48.990460 78.787438
6.103000 99.037318 65.764963
157.661107 109.897830 65.089128
60.749680 45.647054 49.754484
137.133268 59.291845 46.985680
58.830715 62.526804 0.000000
1.726293 106.766917 36.325950
53.959601 95.189240 100.000000
110.120830 110.549095 26.508413
6.041622 111.183797 14.711722
59.198980 154.407915 79.482553
29.587981 76.092295 45.151271
142.557243 132.791427 97.804320
130.571818 80.585228 100.000000
40.386154 124.881230 0.000000
16.389386 88.987433 40.031801
75.074438 131.208870 0.000000
33.244093 72.520243 47.985245
143.601223 139.340345 18.621247
43.506063 62.494212 85.273754
20.717459 126.204994 56.948789
2.479103 107.537443 86.060761
50.010163 109.381992 100.000000
84.323564 26.658183 96.980211
97.993058 114.700913 31.261849
52.088903 135.713790 100.000000
48.457268 154.597592 40.718411
126.483442 143.644352 38.875630
75.624783 31.113954 54.865169
143.814073 138.894621 79.465037
79.818946 76.983183 100.000000
80.749760 26.106808 48.877435
102.986404 6.906074 85.669723
103.386150 16.403617 0.000000
58.178073 53.035692 97.576147
67.100974 76.138485 0.000000
89.441219 123.453998 29.613856
62.618521 43.821181 37.823166
77.715218 29.071581 78.179047
119.926659 40.020628 0.000000
124.996240 76.711067 0.000000
62.103531 52.634222 0.000000
33.630119 90.852752 100.000000
117.923989 72.765404 100.000000
152.554044 120.592425 3.794539
22.387548 104.261299 100.000000
147.676037 130.807361 27.981923
89.676298 17.385506 11.110435
9.788972 115.019331 18.167803
126.468043 143.626261 32.050801
113.420943 53.393798 0.000000
93.108235 34.397236 100.000000
91.516091 15.588012 48.436622
105.881319 106.627021 54.463061
122.623027 136.729680 58.896028
91.099015 83.794145 0.000000
157.994870 106.828327 93.575904
110.738768 75.564026 0.000000
18.107369 123.533482 11.237610
33.138539 72.623370 6.822757
62.020377 146.364143 97.684689
154.315688 93.637665 87.538424
51.855787 54.336462 58.909981
38.300821 67.579777 70.817552
66.412297 101.884848 0.000000
136.226191 89.069248 0.000000
62.779304 45.541323 95.004709
36.468176 69.370287 21.004459
142.440212 69.899859 44.507523
73.312708 106.056601 100.000000
134.910401 54.848571 11.540970
37.701374 143.588584 41.632157
144.547652 84.481810 0.000000
90.231686 64.523621 0.000000
156.620527 112.076886 3.814222
56.967829 155.197550 94.434426
91.985995 55.025659 0.000000
83.952019 43.391105 100.000000
156.296470 97.597036 23.951247
32.316103 96.250073 100.000000
40.037438 65.883088 23.707581
77.566886 104.637748 0.000000
113.666412 117.973824 73.857156
11.059297 116.319551 79.493794
140.231408 131.343236 99.356587
82.276587 130.787233 41.341170
7.763543 112.946239 26.619802
57.135366 156.520092 23.548022
115.590943 116.634286 0.000000
84.815983 22.134074 26.500457
141.743100 103.625182 0.000000
25.073658 113.310619 0.000000
86.562533 95.478082 0.000000
132.743060 141.581976 98.704238
121.321944 45.023520 99.717031
119.058133 23.161583 9.834792
61.376703 45.034447 15.628873
52.851482 67.029815 99.980328
81.511325 92.477556 100.000000
151.795290 88.599660 26.625351
138.182291 61.388729 20.134683
37.432173 68.428454 51.794516
157.490608 99.983992 10.241701
73.674413 74.993277 100.000000
61.551032 74.550188 0.000000
98.203502 75.074917 0.000000
99.457958 33.896702 100.000000
45.880510 60.222561 0.000000
108.160016 106.442995 4.191176
50.188510 156.369575 41.125976
97.491401 20.646462 0.000000
67.091601 63.098912 0.000000
113.199320 83.601157 100.000000
106.229739 43.635542 0.000000
80.008143 49.306921 0.000000
123.175606 137.886823 41.012644
37.067334 68.784904 77.693916
104.480842 58.256951 100.000000
145.585564 135.184977 52.683657
71.518267 112.943466 100.000000
75.328638 106.723416 100.000000
127.619247 40.274334 35.086771
116.614155 118.334962 96.592702
104.462012 26.622494 100.000000
142.401433 139.345696 94.446848
85.566982 127.419407 41.953183
26.286851 118.239719 99.960639
53.107865 159.357630 54.783023
64.080949 42.392376 7.063482
106.215835 58.144251 0.000000
143.697408 109.662712 0.000000
119.431007 23.906919 45.155306
147.104345 131.857734 90.723043
110.925171 8.982769 49.658204
138.094509 61.213262 77.267971
81.000304 114.862178 0.000000
131.109450 77.468569 100.000000
60.906751 152.659956 73.693245
114.013923 117.588774 93.031473
36.657609 133.474403 0.000000
149.887198 126.177014 55.942322
24.502349 81.061000 7.981207
54.950721 93.705687 0.000000
82.192319 117.207741 0.000000
145.503042 76.022129 28.408351
60.308767 46.077830 59.535351
71.286876 35.352125 7.823711
108.195380 106.517052 57.296327
68.369446 102.359608 100.000000
135.339554 55.706403 16.386352
91.063641 16.030060 24.415652
156.780799 98.565158 51.802725
59.392320 107.089439 0.000000
148.241015 129.624252 81.328931
75.474457 137.749434 71.809826
148.128964 81.271067 13.836554
25.063868 130.653685 24.530796
96.000578 101.854102 0.000000
115.512489 16.074220 22.065800
139.683134 84.950492 0.000000
146.418502 133.440738 81.831038
137.876550 60.777586 82.061486
47.601687 146.759195 98.566269
61.744922 66.906486 100.000000
125.564894 51.013551 99.399675
62.956716 150.561750 61.248889
116.987250 19.022109 63.327126
20.197928 85.266456 8.995978
83.397129 129.640321 7.006940
144.070784 73.159197 60.452068
48.245427 154.380766 6.981162
17.528087 87.874912 53.526897
83.577395 129.455813 27.760004
60.513979 153.061971 65.347060
110.864214 46.571864 0.000000
85.361960 83.573262 100.000000
15.210041 90.139663 25.053120
22.861217 113.408910 100.000000
69.957981 114.831895 100.000000
70.352392 56.973250 0.000000
52.347964 158.579847 12.756779
81.829880 25.051522 19.544337
13.809183 115.787889 0.000000
155.112245 95.229898 14.310792
4.877156 100.234978 87.418537
67.450033 138.630476 0.000000
119.138846 129.433530 21.982577
4.987212 104.533206 0.000000
155.560914 104.191525 97.333380
143.355669 71.729760 50.123149
96.742280 10.481982 38.905534
106.773050 50.454461 0.000000
66.188087 147.254337 2.990850
96.641768 116.084002 58.572588
99.595508 60.154505 0.000000
36.260589 69.573101 9.483631
149.167312 83.346613 37.302756
91.554012 121.291486 21.469087
42.690941 118.274455 100.000000
123.743186 32.526503 27.440706
84.088525 22.844806 67.809637
118.302041 127.681196 62.156135
135.410207 73.639427 99.763227
65.238082 148.226698 13.172440
13.998727 119.101730 91.766213
118.197790 92.769491 0.000000
116.140478 43.189762 0.000000
83.818299 23.679086 92.713136
131.145816 111.848101 0.000000
110.476391 8.620231 44.775009
73.822753 54.358554 100.000000
138.316704 61.736775 90.451204
109.526944 109.305451 4.847066
33.832888 71.944985 20.036485
112.551551 10.814771 91.492056
105.767910 106.743098 34.960207
112.548876 76.250756 100.000000
67.543188 114.145382 100.000000
148.311502 129.476646 5.472312
140.529161 66.079873 58.761889
42.351594 148.348236 89.433278
113.424710 117.467681 82.438023
151.806055 88.621177 23.740454
58.092708 48.242937 27.863556
65.711925 147.741704 88.054683
105.156220 6.762756 85.773635
116.104449 17.257484 73.337337
86.427496 126.538642 34.237231
123.709007 125.816809 0.000000
120.985000 67.215649 100.000000
143.859322 82.952270 98.372186
108.681861 50.099984 100.000000
89.066617 17.981169 72.205182
30.833954 74.874969 73.341968
127.987834 144.970317 88.512562
51.916472 103.455243 100.000000
121.320616 27.684044 26.170069
9.435659 114.657705 30.160496
20.778647 84.699088 47.698799
112.116148 114.727449 57.532370
55.123959 158.578832 88.313280
47.805246 135.354585 100.000000
99.074165 112.852072 93.175266
38.009436 67.864462 21.682865
127.751169 40.538033 53.538330
84.439207 109.667781 0.000000
0.583990 105.597733 30.386587
72.131061 34.527349 67.032471
137.491627 60.008166 41.506343
124.520107 140.702314 59.992993
119.206165 129.574503 4.027749
118.710966 57.997275 100.000000
134.893453 100.402440 100.000000
114.014050 13.079001 60.265308
17.189614 122.594130 57.068419
145.106966 136.187199 12.817356
79.704886 27.127659 34.546171
61.538808 131.386900 0.000000
151.687346 122.407360 0.719388
153.159441 91.326452 54.115570
13.503091 91.807367 15.125998
13.704831 91.610265 20.493992
68.383209 145.007558 88.387676
27.781671 103.070242 100.000000
26.880249 78.737772 19.708115
66.392399 131.089564 0.000000
65.727228 136.923440 99.670137
104.124425 108.425259 72.828164
19.519560 85.929226 56.513718
123.660175 32.360574 16.405217
148.881858 128.282274 70.334573
16.260540 121.643192 45.558695
10.504002 115.751189 51.148319
109.192621 43.962972 100.000000
7.942491 113.129398 28.895850
73.571189 37.192840 0.000000
57.534829 141.371024 100.000000
95.918780 17.500738 0.000000
44.479893 150.526619 44.673630
104.943561 41.636877 100.000000
158.618928 102.996795 19.683723
139.143393 106.113568 0.000000
140.400480 144.209339 46.112671
131.417436 79.317998 0.000000
60.734129 45.871023 0.000000
32.807052 72.947236 81.377830
158.212723 108.587451 31.994928
31.822164 121.566978 100.000000
28.072067 127.347451 98.283702
11.425606 93.837087 3.763397
147.862270 80.737972 16.236997
131.527272 48.086059 62.490471
79.747135 133.376209 12.679705
62.927434 150.591721 83.726600
26.365563 79.240624 47.682870
137.805279 60.635123 88.528371
32.890690 72.865520 11.169706
18.946412 124.392270 28.002329
46.780783 152.881656 42.203585
45.286172 60.755031 66.485313
50.055775 134.635190 100.000000
46.855788 110.453498 100.000000
3.882353 108.973715 75.066339
86.949688 109.746833 0.000000
69.702958 143.656751 67.105069
146.105487 77.226352 87.232091
27.814004 133.468539 1.954543
130.307981 146.148579 80.158853
4.695040 100.412907 53.285359
58.363123 155.263442 3.904897
128.671786 82.550521 0.000000
135.897050 146.529779 68.955100
122.561705 136.601267 67.146570
20.543865 99.788523 100.000000
27.841753 77.798375 47.212722
99.376426 8.270411 37.708571
90.830381 122.032146 11.787684
145.313871 89.447995 99.206632
39.576440 145.507776 7.747476
67.469414 145.942857 49.043221
87.351535 112.862705 0.000000
69.750368 143.608226 65.052864
154.130982 100.915241 97.492119
158.717737 103.406730 49.788318
40.424284 65.505136 35.671797
148.536069 82.084825 42.062489
82.528920 130.528962 14.451958
55.427926 148.429257 0.000000
26.776180 132.406293 59.881416
143.960153 72.938057 56.043209
115.315760 121.427688 81.755106
101.120231 75.866863 100.000000
135.265702 55.558781 29.193615
138.752603 62.528724 2.697314
112.375966 115.271528 76.381651
106.627683 68.508818 100.000000
134.524179 54.076555 83.911769
64.254281 42.223030 4.687013
111.694639 113.844776 72.644804
142.778121 141.063987 81.453629
36.176918 142.028254 57.260487
72.441301 34.224243 4.393092
96.295881 10.918118 73.863947
91.341925 47.243180 100.000000
85.041220 43.398276 0.000000
62.735492 43.802802 90.940485
142.704588 141.196313 2.461440
149.330958 127.341825 61.120329
49.177371 64.644211 98.893954
149.235421 83.482754 50.207047
57.379275 132.782764 0.000000
118.453652 99.535390 100.000000
110.251581 110.822897 46.803290
27.564315 78.069434 11.854683
78.871569 120.395692 99.973537
38.889191 144.804354 12.882180
130.214362 146.114804 50.962144
27.364890 133.008856 36.075275
144.350893 73.719106 83.492753
50.549955 156.739526 19.410256
68.829501 37.753001 74.311727
111.614564 9.549985 65.978163
105.705855 106.806614 2.478531
143.342461 139.882213 14.658750
19.060641 121.512032 96.108534
70.761531 60.869884 0.000000
91.961005 120.874916 4.037714
57.860769 48.469544 57.628673
23.019255 94.404959 99.869487
135.317497 146.631130 82.679738
55.325919 99.911831 0.000000
39.067317 66.830904 36.643617
31.193573 74.523618 58.082079
95.700327 11.499979 24.068254
57.791403 59.304972 99.697594
75.449615 76.289945 0.000000
105.417717 6.761607 13.259278
150.264549 125.386811 11.947340
44.622763 150.672851 25.273042
127.875378 40.786313 26.629214
53.758732 159.976187 85.643380
111.962006 114.404662 87.427284
44.575115 150.624083 4.122481
148.045668 83.792380 94.733996
82.514363 104.064371 100.000000
151.565248 122.663042 85.928461
62.355603 144.203494 0.000000
80.585670 122.921752 0.000000
138.613348 62.250368 53.772235
136.533594 68.029737 0.000000
122.968531 137.453193 64.579595
68.576750 144.809462 74.904454
50.281134 71.255714 0.000000
112.561332 115.659698 26.528617
126.218624 37.474640 89.602738
55.180736 158.520719 40.686065
1.593156 106.630648 47.214863
30.649765 136.079154 91.981402
125.294368 35.627150 59.203179
57.053183 156.604209 54.769819
12.057745 117.341495 87.607750
77.349998 135.829757 16.421671
118.943805 29.925526 97.253953
113.957133 118.582616 41.428961
8.532599 96.663579 14.074967
143.801042 138.921908 87.125714
6.849997 98.307495 31.971549
110.064464 110.431059 55.352663
133.251642 51.532890 75.665067
129.680732 145.922289 33.573291
67.719881 38.837109 12.931701
6.283938 98.860540 59.224558
57.871691 48.458873 83.960495
100.766378 111.460816 92.312437
158.208766 101.596574 34.481365
97.915507 43.313309 0.000000
99.158036 113.508520 81.402398
62.938210 150.580692 11.534013
145.123482 127.254983 97.861112
126.452683 143.608216 23.080519
57.853271 48.476869 10.577782
132.953714 146.756607 37.386519
128.667885 100.578615 0.000000
89.386237 17.668898 45.163474
119.134493 23.314219 5.699617
62.015557 151.525058 9.564196
113.897453 109.938743 97.729678
72.823417 33.850912 18.054642
81.968526 45.258811 100.000000
98.195903 114.493294 77.404465
148.945534 82.903302 23.826412
5.150418 110.271620 9.733548
158.487155 102.450102 9.238979
128.310545 145.168338 63.547648
83.200569 99.065935 0.000000
58.793615 80.742662 100.000000
52.950566 158.855144 92.144522
132.953415 50.936766 72.445018
157.978908 109.190756 78.657533
133.712718 52.454532 23.382916
35.768060 92.256893 100.000000
136.621740 58.269355 76.998650
44.294393 150.336754 11.624798
85.600703 21.367396 88.406135
100.677484 45.680523 100.000000
148.099157 81.211485 82.625541
121.387539 27.817817 73.090322
114.349108 34.100466 0.000000
11.084957 94.169904 13.085991
29.273408 134.962287 46.392764
64.237587 42.239339 54.447973
148.572655 128.929771 33.806801
16.311173 121.695017 89.199953
132.572106 50.174570 26.906981
109.984892 92.489798 0.000000
91.820777 121.018443 48.768545
139.175515 103.459294 0.000000
155.665669 113.657361 0.000000
9.637118 95.584455 81.717435
98.512044 111.085027 96.192536
115.193029 15.435654 74.007717
32.343098 73.400522 55.460682
76.032023 136.533347 92.956223
43.915834 62.093862 87.459952
118.874330 128.879614 44.228675
140.643137 121.924468 0.000000
75.771963 38.065100 98.695174
149.665672 84.342782 71.709424
100.837296 32.320972 100.000000
111.629555 113.708483 36.989848
28.509678 134.180584 89.554804
22.132960 127.653806 19.025715
74.779870 112.538299 0.000000
36.969814 68.880182 13.510125
90.151421 70.503304 0.000000
123.794571 139.182984 47.953307
31.419731 82.611923 0.000000
12.386141 92.898637 17.107988
139.507887 64.038454 81.062428
45.808374 148.445682 96.498622
142.009595 142.376847 45.406136
132.976870 50.983651 31.269789
100.451208 7.658864 32.803830
128.420690 41.876334 77.159850
149.125664 83.263362 89.199996
79.674957 50.338140 100.000000
139.919145 64.860515 22.158577
132.597883 67.662634 99.724587
111.707895 113.872535 2.699135
37.313381 142.890018 92.012862
123.379347 31.799229 8.000019
65.288256 41.212827 67.156725
46.819634 152.921421 18.813749
47.606673 76.875472 100.000000
101.425471 7.302740 69.960690
104.228697 8.828631 96.041960
99.497752 94.550496 0.000000
93.548877 13.601964 58.806207
111.850598 21.956617 99.104292
41.298060 64.761846 91.154856
112.033189 114.553726 85.117434
33.140856 111.906638 0.000000
25.214756 112.805803 100.000000
70.241590 36.373379 16.142608
24.866796 130.451976 29.927169
29.661174 105.302386 0.000000
91.701098 15.407260 19.552961
59.842543 153.749208 82.406749
53.813124 70.660217 0.000000
88.737095 24.261239 98.143319
16.706975 122.100133 77.196651
59.890962 86.191481 100.000000
9.589173 114.074194 0.000000
79.531318 133.597105 67.298398
143.203832 134.299429 0.000000
148.008463 130.111234 43.878582
96.468674 99.766202 100.000000
112.705376 115.961338 44.056391
81.031974 62.585578 100.000000
92.797805 120.018423 28.244176
6.024542 111.166315 23.024542
136.987925 60.191164 93.214808
60.024214 153.563262 8.091642
54.444320 62.804125 0.000000
11.348953 93.911978 75.432126
76.764623 136.428908 32.608871
31.205008 136.939343 71.458439
45.446366 128.272287 0.000000
117.911618 126.863618 89.818062
65.563490 92.825559 0.000000
20.956663 126.449827 27.809367
156.182182 97.368587 11.974665
142.243811 69.507275 28.064066
58.866302 97.728244 0.000000
89.505375 33.550645 100.000000
21.102648 88.104082 0.000000
30.986222 99.859994 100.000000
81.277905 131.809416 64.099270
108.836564 7.650753 36.463157
141.709593 68.439429 37.103211
47.382471 58.706929 60.464642
107.207336 94.580001 0.000000
75.422455 137.473354 0.000000
97.448381 115.258408 14.938779
66.487998 129.054724 0.000000
42.909630 63.076932 0.646957
109.355936 108.947348 39.843975
144.074311 138.349660 27.592763
114.365780 13.782071 18.156510
130.657086 57.877424 0.000000
24.740024 130.322221 87.082883
9.876304 95.350768 75.836948
39.895083 145.833917 62.492495
64.752628 121.434774 100.000000
14.806626 120.155064 75.320682
67.621164 38.933557 57.673753
105.856641 106.652279 38.302968
87.349487 115.925138 99.458106
73.757071 134.079636 0.000000
126.540065 68.858958 0.000000
38.905959 99.520635 100.000000
8.332289 96.859284 10.509547
83.662771 64.701794 0.000000
142.319793 69.659153 14.041413
58.643739 154.976223 74.189414
55.483440 50.792214 53.698798
88.277549 124.645052 54.795784
79.139802 75.593545 0.000000
113.644803 58.463100 0.000000
143.538392 72.095004 15.635992
6.104738 111.248399 12.412548
23.432259 128.983681 30.623105
99.597174 10.304264 0.000000
48.785701 57.335962 69.203975
77.354089 102.397725 100.000000
82.700989 25.422154 0.000000
28.563459 134.235631 43.619808
91.736526 121.104677 65.037209
84.128163 128.892084 25.546615
132.448776 146.682779 31.552789
90.156784 78.971673 100.000000
158.751137 103.625180 27.321918
128.282842 132.230585 0.000000
132.954640 92.347875 0.000000
147.832303 90.409792 98.236728
88.489410 124.428206 63.802323
104.014131 108.538148 75.254327
95.499830 56.130273 100.000000
121.742510 134.885808 80.108658
59.341792 50.685780 96.708544
26.826909 78.789885 33.628487
142.369312 141.765823 37.194604
117.098804 106.700159 99.771339
125.775528 67.182955 100.000000
24.382164 97.768256 100.000000
126.326338 97.514352 0.000000
43.979352 93.095851 0.000000
141.625665 110.315843 0.000000
80.572794 123.123115 99.394693
46.874743 152.977826 35.170832
72.393432 34.271011 71.277132
147.643666 80.301008 31.941137
1.964332 103.718980 92.955176
113.878397 118.417736 57.986338
112.087871 114.668233 79.029556
35.400513 141.233578 58.983684
93.428369 13.719701 73.655899
153.584137 92.175373 70.025363
118.010911 21.068299 6.357628
154.865513 111.876233 95.508811
114.973759 120.711511 65.970287
49.322594 132.499818 100.000000
56.373516 49.922602 85.291702
77.848076 67.908177 0.000000
135.446364 138.553606 0.000000
55.250352 158.449465 46.263897
49.041157 57.086379 5.357564
0.554576 105.567626 8.010312
148.507026 82.026772 30.997909
107.138170 105.340592 1.876999
56.474780 157.196223 65.834675
51.218369 54.959225 73.729151
105.541509 106.974827 15.849391
99.779222 73.055322 100.000000
100.515864 23.693158 0.000000
97.919620 9.370310 62.545054
122.221673 103.295717 0.000000
107.902938 105.904655 47.560443
71.119780 129.654008 0.000000
15.755175 121.125935 57.684795
29.249334 78.032012 94.637008
158.465798 107.885776 18.610126
72.673170 34.671557 93.006555
92.231995 37.246468 100.000000
4.407941 100.693405 78.140285
82.458414 24.437439 4.835130
129.351041 43.736005 50.305527
35.968871 133.206613 99.134058
60.133541 72.083163 100.000000
133.901775 52.832437 79.405695
123.054730 57.152913 0.000000
61.829588 151.715402 49.338564
44.944021 151.001670 8.324608
68.701684 144.681588 37.696389
55.402541 84.832989 0.000000
2.964636 108.034402 29.332071
116.301772 20.835215 95.130118
63.398081 49.450172 98.359936
152.142304 116.095978 96.388991
123.156653 66.306594 100.000000
4.991768 100.123001 37.310804
110.894164 67.193438 100.000000
107.748349 17.408858 0.000000
67.458519 145.954008 83.639731
96.378453 116.353513 85.169276
148.373455 116.443481 98.946343
41.641006 147.620927 57.861820
157.551915 110.126485 80.411253
33.286254 139.069566 48.185117
121.459079 27.960817 0.097955
52.632785 115.889080 0.000000
12.674616 117.972882 53.255999
138.939980 143.482453 95.225331
124.721871 35.789690 93.361232
130.207036 45.447047 40.232773
56.483387 82.985792 0.000000
152.217639 89.443889 19.030249
53.505694 150.977247 0.000000
150.953108 122.551745 93.412277
103.280174 109.289377 35.052154
38.953138 144.869806 33.716877
94.168561 12.996528 2.505617
121.089686 133.518743 17.148629
117.065308 125.091378 65.118982
18.268553 123.698459 30.231649
120.540933 26.125543 22.436827
141.501181 143.040875 89.131828
55.228694 137.785013 100.000000
57.830800 77.875159 0.000000
152.929851 119.805456 8.466881
27.410413 80.982361 0.000000
136.032082 107.918953 100.000000
53.408989 67.980539 0.000000
29.731961 75.951625 41.181210
124.702441 139.609843 0.000000
157.119619 99.242424 18.358102
75.895983 137.317989 8.766250
127.357392 77.571299 100.000000
33.467773 72.301705 8.916472
42.125302 148.116618 5.506046
149.859589 126.234828 4.958679
80.146667 26.696035 76.690017
131.135609 47.303165 17.727285
56.841793 95.202657 0.000000
69.975805 65.712560 100.000000
154.598063 116.312087 63.705863
63.395815 86.946117 0.000000
128.633884 117.633433 0.000000
122.633326 30.308012 10.837828
145.485114 135.395328 72.176344
94.881640 12.299843 11.870548
7.957065 113.144316 60.432483
53.413717 52.814351 76.270794
152.507444 120.690009 56.101146
91.041618 16.051577 70.466446
130.976290 146.389681 56.542188
129.721144 145.936868 5.175629
103.483538 6.817989 61.931599
36.541976 142.401903 85.848393
123.124533 31.289882 64.204880
84.054527 22.878023 38.570612
116.744969 18.666801 90.670991
140.141665 144.424029 88.161077
52.886576 159.131133 59.158410
63.043652 150.472768 37.508111
48.322190 154.459336 31.746471
95.060582 12.125015 32.462774
49.508989 56.629303 88.892269
44.781983 61.247627 17.022487
90.934264 16.156463 32.944021
129.037722 43.109714 22.274272
153.873004 117.830418 28.544748
55.624254 150.851040 0.000000
77.067597 71.366075 100.000000
116.005745 122.872570 65.585602
90.381044 121.156272 94.180102
58.869223 135.434216 0.000000
88.463864 66.687700 0.000000
65.862642 40.651647 41.599048
55.954533 124.568562 100.000000
37.465474 68.395918 3.377015
14.275479 91.052738 35.390767
146.196661 133.905292 39.787639
88.087062 18.938203 6.782060
137.092931 146.173839 44.130406
131.865995 76.137907 0.000000
38.176287 144.074673 76.597014
137.215018 59.455256 37.125411
29.464877 135.158261 61.361483
104.204850 72.134473 100.000000
40.457794 128.901656 0.000000
134.970315 122.435517 0.000000
43.350718 103.270711 100.000000
151.147241 98.813141 0.000000
127.887713 128.446682 0.000000
110.476514 8.620330 75.687868
97.764216 74.432848 100.000000
71.198987 63.838468 100.000000
7.943039 113.129959 80.729458
49.838125 56.307735 72.799020
128.538849 42.112521 84.035887
137.479300 59.983526 31.429560
120.157777 131.567252 5.201228
47.167998 110.328138 0.000000
108.422307 9.841236 96.118252
71.299039 58.810955 0.000000
125.387837 35.813984 29.976181
36.476771 142.335163 11.344555
56.842161 73.405742 0.000000
54.336739 114.985395 100.000000
137.239333 59.503858 21.932462
122.204351 29.450536 63.777980
139.838558 64.699431 30.832272
69.359019 37.235657 31.514470
44.267837 61.749953 75.158688
8.357641 113.554318 48.594829
55.769897 103.025530 0.000000
65.948678 56.566390 100.000000
110.044222 75.495770 100.000000
69.917514 119.360576 0.000000
156.873178 98.749815 25.674533
10.828097 94.420858 48.749927
32.933174 134.695701 96.914419
67.692084 38.864267 18.209097
106.749376 105.738537 45.757919
55.116805 51.150420 48.160925
110.330134 110.987394 63.437380
140.134735 65.300150 90.049416
85.761960 21.209847 30.425815
71.975144 141.331095 20.566793
54.790655 51.469071 56.713645
46.347416 152.438090 76.972213
84.928003 22.208468 91.560372
129.018798 43.071887 74.506763
42.683195 63.298161 11.966774
102.427285 10.152062 97.119596
63.883087 42.585689 87.716025
16.612914 88.769044 79.029693
68.609842 144.775591 25.093092
130.788006 146.321755 36.996071
107.051394 21.825488 100.000000
15.351853 105.469022 100.000000
146.540883 122.406396 98.429407
141.029802 67.080599 53.967441
93.328538 17.311220 96.587501
95.152986 111.126512 98.355125
129.730299 145.940171 65.047875
156.644092 107.058641 0.000000
146.394430 133.491147 51.715559
39.857495 145.795445 27.899258
149.496821 84.005267 82.023958
37.819145 143.709126 84.855867
27.522451 78.110335 71.308114
100.138309 112.505179 53.561090
15.623462 117.656041 96.416298
102.221888 110.372568 12.101062
57.754106 155.886791 84.269187
111.266974 112.949211 16.996347
31.009741 77.110190 0.000000
23.084501 128.627739 47.453172
105.659120 106.854449 77.224647
77.057412 29.714263 82.889431
41.027475 64.915814 16.383073
135.491451 56.010029 5.374661
79.396717 85.257030 0.000000
152.174130 121.387995 83.337329
56.137783 153.334444 0.000000
81.535702 131.545553 3.634571
56.499861 98.116569 100.000000
65.009061 41.485603 27.642029
123.197222 81.345527 0.000000
132.916737 131.187287 100.000000
129.060213 48.237599 0.000000
69.588129 37.011815 13.705862
30.350764 101.087357 0.000000
10.118883 99.641899 97.327210
50.940948 133.670133 0.000000
140.187944 143.532061 93.541092
149.612553 84.236601 79.790400
37.617086 143.502313 17.797080
37.578535 143.462855 31.980457
115.352503 16.013897 91.333548
143.477518 139.599393 62.533392
79.864222 26.971986 46.601993
153.747671 118.092876 55.042393
143.556512 115.767109 100.000000
16.389937 121.775635 65.902550
155.152240 95.309844 11.847542
126.094050 143.186896 7.801520
28.434311 107.156682 0.000000
86.938667 20.060194 50.371504
144.300892 73.619160 33.743307
108.795637 7.627939 5.920406
26.890273 78.727978 45.665649
117.768982 124.511684 94.024346
49.796647 155.968491 59.235450
23.690580 81.854105 2.608897
107.791685 105.671682 7.876152
44.821966 82.637419 0.000000
91.964801 120.871030 74.465173
22.358950 83.155119 46.262259
152.265410 89.539379 60.430743
97.266357 31.336407 0.000000
100.238770 16.222229 0.000000
5.903039 102.580029 0.000000
17.475696 87.926099 4.574024
54.169864 106.285474 100.000000
139.138952 145.180593 23.857234
148.962362 82.936940 8.854047
156.251547 97.507240 21.447836
103.284090 6.853329 73.254305
110.321310 101.952511 97.895041
154.722735 94.451309 30.437303
45.235902 60.804144 33.636084
83.897443 129.128234 13.564286
134.036628 53.101992 55.083140
69.734378 36.868929 44.699067
98.737698 8.697479 87.900916
130.718855 46.470120 34.653801
68.660920 47.729907 0.000000
73.852928 96.531862 0.000000
46.379748 118.855190 0.000000
6.362445 109.775438 0.000000
115.792142 122.425269 46.162311
114.441636 13.933699 57.477195
35.381830 141.214456 42.090199
123.659510 32.359245 86.222165
122.189811 29.421472 60.378561
89.383888 123.512679 24.877966
30.962790 74.749095 35.097117
59.994915 50.484262 0.000000
139.857589 91.844900 0.000000
137.707543 145.952109 38.967356
80.398660 132.709352 41.339642
17.153834 122.557507 50.504286
140.513310 66.048188 84.391603
52.038303 54.158142 44.316000
82.118499 62.241715 0.000000
98.538477 61.212208 100.000000
155.011377 115.446575 6.358232
83.229535 99.896265 100.000000
115.850720 80.067601 100.000000
71.945292 34.708847 0.304117
106.204387 85.184425 0.000000
