16.569269 6.336532 15.296067
6.567600 1.309586 2.079681
8.740133 0.055274 11.556902
4.924169 9.201687 16.966017
5.413096 9.387986 7.212132
5.775028 1.767178 16.606585
0.296010 4.930490 10.611365
17.663896 4.354811 0.000000
4.728606 2.492209 18.633485
9.979292 0.207092 0.000000
0.389412 4.876565 9.311750
8.148958 9.965513 6.057916
3.726148 8.595576 17.151000
17.798134 4.430426 17.818934
15.320430 2.900165 0.000000
7.428766 2.850790 19.979467
18.831958 0.103889 14.119213
9.869470 0.000000 12.192257
13.438835 0.101851 18.627337
8.896788 0.000000 7.873532
9.441021 0.000000 14.943738
4.489117 2.509599 9.677063
18.827881 0.212209 7.223844
18.146108 3.384485 0.000000
17.053086 5.689507 8.891338
9.157143 9.988707 7.787004
12.942511 9.115864 1.176164
3.117147 8.196536 6.826059
13.813632 8.673000 8.520035
11.858179 0.000000 10.761023
8.247604 8.619897 19.891298
4.606692 8.813310 18.911957
18.761006 1.201812 14.136700
10.027538 9.927138 8.325093
18.758409 1.219015 6.374654
10.432371 6.200255 20.000000
10.886583 0.000000 12.096364
18.835258 0.016235 1.278634
3.732129 8.598180 13.811666
2.803067 7.970534 11.310167
15.229287 7.682573 12.324484
13.664751 0.000000 6.309333
3.015469 8.131174 12.325927
8.218623 9.971853 12.204657
2.464152 3.678713 2.974411
9.910832 4.926218 20.000000
6.128319 1.563205 8.444066
1.555063 4.719455 0.000000
18.771860 1.104032 0.099157
17.536428 4.923990 10.916807
11.631818 0.000000 17.917015
10.827866 9.796903 11.140618
13.023705 9.075965 4.450933
13.148626 5.852033 20.000000
13.396976 1.386578 19.902125
7.962491 0.504245 11.095340
12.517975 7.958445 19.838540
16.264917 6.693922 16.776415
3.796978 8.635219 0.577971
0.325427 5.230956 0.194689
7.292565 8.292172 0.000000
7.592851 9.918901 13.068402
1.032557 6.245933 14.995799
8.198843 9.967193 2.316738
7.296940 2.165923 0.000000
9.665713 7.851958 20.000000
11.610449 5.987003 20.000000
15.056157 0.000000 11.082988
4.856920 2.297248 8.574023
8.534200 0.174169 12.798106
15.700961 7.263670 13.100973
3.701563 8.576195 8.243805
15.048677 0.000000 10.064597
18.532010 2.099227 18.524024
18.742185 1.348491 12.122161
13.007406 0.000000 14.331310
14.784860 1.215113 0.000000
3.821633 2.894971 16.622833
7.082041 9.731622 0.000000
2.131085 3.871010 15.713750
4.550181 5.885393 0.000000
14.010543 0.000000 9.017206
14.176220 6.145777 19.988414
11.974193 0.000000 12.719953
16.641158 0.000000 7.396252
10.043856 9.924466 7.178433
6.043906 9.590470 5.351846
16.121272 0.060128 18.481948
0.793146 5.940050 3.640614
14.938426 7.918536 11.218911
10.510973 9.851958 9.291269
1.102312 6.325529 7.366774
15.487277 7.465083 10.031707
18.827283 0.228098 11.150488
8.295117 0.312204 15.419461
18.409930 2.875037 16.391885
8.328086 0.293169 13.963146
16.195283 0.000000 11.027065
0.189577 5.022601 11.947976
12.491209 0.000000 3.732378
9.517626 9.967632 4.720553
1.445639 6.733959 13.999873
9.139677 9.988843 6.691925
17.512223 4.969639 16.326502
8.719821 9.997639 14.900787
0.251932 4.955939 13.352167
17.161947 5.525937 14.938455
4.646470 2.418751 11.191374
18.673593 1.766512 8.878471
18.392875 2.920778 2.535728
10.521682 7.265188 20.000000
4.791933 9.144920 0.666742
5.946986 9.227547 0.000000
9.201993 9.982944 2.994124
7.166596 0.963756 10.600726
16.555208 0.000000 5.240096
1.399511 4.293384 9.707717
12.368740 1.566474 19.949544
6.525070 9.727308 14.216327
12.263650 1.544622 0.000000
5.113584 9.272002 5.778888
2.349780 7.599560 1.997134
12.826642 0.000000 17.562728
9.241320 9.985211 9.072927
13.818522 8.670197 9.520409
18.771281 1.121730 9.642063
4.690168 4.955990 20.000000
5.284691 3.185780 0.000000
13.688494 8.737653 11.969866
7.248593 9.866448 9.200863
14.665338 8.124018 9.137361
18.832522 0.088908 6.178366
9.995156 9.927771 0.870559
2.473009 3.673599 9.395663
18.781164 1.044466 1.301239
7.167721 0.963106 14.118181
11.477288 9.630808 4.168746
10.489917 2.909189 0.000000
2.670176 7.867930 17.589569
5.426200 1.968574 9.424512
17.679937 4.652493 9.209171
4.815814 9.155585 4.553756
7.234100 3.849698 20.000000
6.748210 1.205311 7.740379
12.693714 5.877793 0.000000
0.240242 5.104615 8.195889
16.481795 6.439310 17.750750
6.248960 3.812385 0.000000
6.978749 1.072209 17.648770
5.082277 9.261819 8.377262
0.967798 6.154596 2.498936
7.728183 0.692629 18.411278
6.109206 6.604147 0.000000
8.389019 4.172892 20.000000
14.465087 1.672931 19.972629
11.012193 9.755430 0.045108
3.697529 8.572098 4.389528
18.827509 0.210572 4.337943
13.721060 8.721933 16.500286
4.022149 7.118420 19.907051
14.506975 0.644817 19.468150
10.534303 9.845269 5.005915
18.731859 1.393108 7.724278
10.781640 9.805088 14.484154
10.597012 0.000000 11.108531
9.828461 0.000000 13.423512
18.693988 1.612731 3.656565
1.372532 6.652824 16.214138
16.549997 6.351932 8.056063
8.244588 9.971858 9.910458
1.644862 6.933759 2.339504
10.594459 9.838233 12.278973
1.681816 6.971824 3.631162
12.718550 9.211987 8.147033
2.955412 3.395084 16.821395
2.205141 3.828253 2.013583
17.321946 5.269836 9.986989
13.291465 4.077818 0.000000
10.541878 0.000000 4.171004
15.066111 7.808192 3.673638
9.711553 9.959716 12.898870
13.166077 8.584074 0.000000
10.482452 0.000000 17.924780
18.596429 2.173723 14.603236
13.881476 8.631487 1.040086
3.693310 8.568441 1.997447
11.512282 9.625499 11.897625
15.147281 0.000000 8.709590
10.986758 9.762245 15.668149
11.909305 9.515795 13.305504
18.492640 2.562778 11.956375
16.201759 2.733891 20.000000
14.194577 7.516455 19.565505
1.286901 5.812689 0.000000
18.813934 0.516347 8.310736
6.540508 1.325228 3.166656
2.456592 3.683078 4.908262
1.111373 6.340221 17.419784
8.820480 9.999412 0.876286
6.627887 4.660911 20.000000
11.606148 0.000000 4.598494
14.621288 8.154834 10.213262
5.310447 2.035404 13.197652
1.830865 7.124145 7.435958
13.339751 0.000000 4.421104
6.323922 7.500920 20.000000
3.750607 2.935978 10.545793
18.663670 1.824499 16.231953
4.205448 4.943606 0.000000
6.719361 9.772544 2.040807
1.170966 6.411634 12.941394
11.842369 9.407785 18.667673
6.133519 9.616901 13.064136
18.046332 3.888744 16.744534
13.966886 0.000000 1.286611
9.986780 9.932172 5.903720
2.186102 7.467141 12.725716
7.739686 1.170417 0.000000
18.758641 1.220245 10.705323
9.786381 9.953320 14.489004
14.306931 4.677701 20.000000
13.583108 8.792581 15.128258
6.099377 1.579915 4.192880
2.503815 7.727728 5.547861
4.737068 2.366444 14.020159
1.303441 6.567363 0.764347
12.925188 0.000000 8.751914
2.387412 3.723019 13.484875
8.290918 9.500512 19.287581
11.334579 0.000000 3.348904
6.646003 1.264320 9.627403
9.233954 9.986393 10.190782
15.624459 0.000000 15.991209
10.660879 8.329150 19.923983
9.634177 8.916040 19.751882
17.503677 4.985755 14.033888
7.400620 8.030721 19.987251
18.812600 0.594384 12.779247
8.565217 3.110690 20.000000
4.776682 3.833725 19.867491
13.853915 8.648989 17.625131
0.676419 5.777820 11.109754
1.063901 6.281005 10.304217
14.961907 7.896714 8.169185
3.800626 8.639454 5.444445
10.686271 9.819998 3.287023
0.318919 4.917264 6.401404
4.745331 2.361674 1.202061
9.282172 0.000000 10.414832
8.581196 0.147036 17.130644
7.829731 9.948937 14.101163
6.463528 9.704809 7.165515
2.365445 3.735702 0.448616
3.198354 5.082177 19.953618
11.988457 9.487664 1.297934
7.329977 9.878548 8.173717
2.640779 4.672954 0.000000
3.947283 8.720004 6.544116
17.692887 0.000000 11.117264
8.400353 9.978123 3.795735
13.084867 9.045003 5.648731
13.336870 0.000000 7.738160
17.682668 4.648188 12.091744
18.834907 0.025548 3.036570
11.983228 0.000000 14.175917
5.813465 1.744986 17.722613
11.948861 2.696703 20.000000
16.689117 0.000000 9.330072
7.482026 5.342160 20.000000
17.961644 0.000000 2.547980
3.081633 3.322210 15.574866
8.358971 7.727204 0.000000
8.702661 1.875188 19.944064
9.521887 0.076672 18.545080
13.924411 0.000000 17.501821
7.629266 4.309337 0.000000
9.760284 3.513239 20.000000
16.625104 1.570551 19.951041
4.073036 5.754427 20.000000
17.355792 5.223133 17.390818
18.805323 0.776702 16.681907
2.259415 7.530137 10.529688
18.663779 0.036697 18.378177
3.630003 8.514100 18.209994
17.912029 0.000000 3.561683
5.878087 9.546039 10.142066
10.198979 9.896246 1.953956
11.403553 9.656749 16.676288
12.864248 9.151612 9.487838
13.074275 8.772442 18.967883
6.114412 9.614864 17.479702
5.657291 7.785237 0.000000
10.653575 4.276287 0.000000
7.884000 3.253690 0.000000
8.775532 9.999715 17.307186
15.516085 3.967630 0.000000
3.790285 8.633552 11.865361
18.497304 2.552443 17.563788
3.682918 8.564554 9.462302
8.276562 0.322917 0.169790
14.766533 0.000000 16.657841
16.654465 5.915442 18.838361
5.255580 9.319529 18.145438
15.804022 7.156857 3.462382
3.235406 6.425735 19.923342
9.097160 9.957080 18.345500
1.193973 6.314356 18.543616
13.423723 0.000000 13.216880
2.997346 3.370873 1.193096
15.775926 7.187833 8.383926
7.679495 9.930433 17.460542
8.378076 0.264308 1.234904
11.195818 8.687385 0.000000
9.760098 9.955567 16.465357
14.530276 8.218505 14.303042
9.921658 1.839162 0.000000
13.494630 2.541856 20.000000
1.214847 6.464178 11.756939
9.592722 5.001549 0.000000
6.240308 3.605637 19.984672
2.475093 7.707160 8.330705
14.784673 6.511407 0.000000
5.402417 4.823049 0.000000
5.675452 9.484566 1.367499
8.424664 0.237410 2.838918
15.635449 0.000000 7.185804
11.723448 9.568904 9.078351
18.712369 1.556824 17.486469
6.109463 9.608036 8.804564
1.359690 4.316374 5.491378
15.727966 7.233604 4.522952
6.396394 1.408432 5.150908
4.566385 2.464988 4.504012
18.732684 1.375876 5.213142
10.701673 0.000000 15.326027
4.364086 8.942276 15.686139
7.307057 9.876649 10.425522
15.763699 7.200820 11.005316
14.559964 0.000000 15.480002
12.823118 9.168655 6.907764
12.674931 4.969869 20.000000
6.362067 2.633735 19.755153
16.257175 6.702354 2.255484
3.334894 3.175990 2.403645
13.111133 9.034823 10.525703
8.922086 2.585306 0.000000
16.807391 0.000000 1.041831
10.806584 0.000000 5.410534
7.737924 9.937602 0.941148
18.226132 1.461398 19.308361
0.308639 4.923199 5.187016
15.458476 0.000000 2.736441
4.722025 2.375129 6.218016
6.815277 1.166590 12.962829
11.451468 9.640298 10.343690
4.855329 2.298166 15.692736
7.384415 9.883637 3.576239
7.563082 0.734844 6.965356
6.935702 6.384256 20.000000
7.200419 9.856067 5.622364
18.191106 3.473287 18.209837
1.182596 5.342499 19.486125
0.635862 5.716702 5.821255
2.946824 8.081528 10.034120
15.819066 7.147186 14.636908
9.814277 8.660071 0.000000
7.004682 9.808622 18.199274
12.034478 9.472148 5.031367
2.130154 7.418092 9.287698
2.202149 6.334739 0.000000
5.603238 5.481908 20.000000
16.845078 0.000000 16.453976
16.893212 5.920789 16.246154
6.497347 2.824398 0.000000
3.840996 2.883791 1.432662
11.299709 9.678390 6.176518
14.504655 0.000000 7.295560
15.345925 6.344975 19.667000
0.982125 4.534362 12.550336
14.036172 8.281854 18.898505
18.248653 3.357809 6.293146
12.540676 9.284312 11.872987
18.453194 2.697255 3.565850
2.096774 7.387153 6.508221
9.528495 0.000000 3.007497
8.239440 9.971054 8.852513
11.082773 0.000000 6.383485
1.732402 7.028969 15.233362
3.768556 2.925615 11.590148
6.333003 5.221969 0.000000
18.671941 1.746743 2.573679
15.959721 1.003461 0.000000
1.088071 4.473194 14.111660
6.265539 1.483981 12.127282
10.792564 0.000000 13.105046
1.237570 4.386881 16.882393
2.392420 7.636553 4.545463
4.617382 9.064329 9.351590
2.578382 7.785959 3.321682
2.931775 8.069641 0.745939
6.162300 1.543586 13.629607
13.663769 8.748384 2.279253
0.573576 5.629328 14.339244
16.474988 4.240036 19.850860
5.527649 9.430992 14.662062
14.189701 8.430486 0.015573
6.316864 1.454349 6.556361
9.434531 9.861921 0.000000
2.552333 7.776155 14.998081
16.884795 0.000000 2.615172
10.333821 9.884384 17.671559
15.057745 7.816336 5.159575
14.185237 8.439122 7.041804
13.914256 8.611319 4.558171
9.387169 0.000000 5.641842
8.754516 9.999616 16.147522
7.209398 5.885392 0.000000
17.742503 0.000000 4.752821
18.062623 3.849949 11.090079
12.410052 0.000000 7.067200
15.413837 7.526995 15.624712
5.079990 2.168458 12.081606
9.152746 0.000000 0.561882
14.471757 0.000000 14.432757
14.688778 0.000000 6.169189
1.231529 4.390368 15.727609
5.059507 2.180284 0.084578
16.542451 0.000000 6.281697
9.085771 9.991772 11.637032
14.437159 0.083880 18.570723
12.322355 0.000000 9.744284
10.998632 0.000000 2.347664
18.317732 3.169990 14.600716
14.338113 4.005054 0.000000
8.119780 9.966619 11.111024
6.798236 1.400484 18.853782
13.770828 1.424476 0.000000
7.962783 9.957174 7.245725
18.563155 2.283912 1.650986
18.085628 3.772301 1.318797
4.657716 9.083312 13.990205
4.817204 2.320178 3.434617
4.094710 8.799068 10.760900
12.291487 9.381092 17.459708
9.147596 0.000000 8.937839
4.249291 2.949449 0.000000
3.557021 3.047745 14.075219
5.962068 9.568541 3.150265
8.562542 0.157806 6.653688
1.163145 4.429850 4.307396
11.448410 0.824831 19.610734
1.883817 4.013770 14.700492
10.817323 2.834467 20.000000
15.394649 7.540658 2.055648
13.577466 8.794771 14.085912
17.972514 0.000000 10.119918
4.810448 2.324078 16.948513
12.150687 0.000000 5.985033
7.666317 0.675242 3.815076
7.154931 9.340175 19.319454
7.684628 1.781904 19.709314
8.445367 7.636153 20.000000
17.121762 3.444588 19.739143
13.974018 0.000000 10.606658
2.209210 3.825904 5.977555
16.656749 3.469392 0.000000
8.625158 0.121654 4.363369
15.556458 0.000000 5.629983
1.039912 4.500999 3.261178
2.302940 5.560627 19.912750
17.730046 3.842717 19.049182
17.494337 5.003085 5.994094
3.683158 2.974919 17.757779
7.223997 9.864403 11.608892
15.899305 0.000000 17.106363
16.572818 6.320023 4.962056
17.500050 4.992596 4.876302
3.460640 4.046024 19.609442
15.464330 4.819019 19.984229
3.452183 8.417636 15.673321
2.165885 4.529399 19.413906
12.831289 9.165269 16.321727
10.942542 0.000000 16.958648
17.990516 0.000000 13.023033
14.008879 7.169562 0.000000
14.941773 0.043401 0.000000
1.284734 4.577305 18.844208
17.491345 0.080005 18.557705
16.505101 6.401634 3.291061
0.178430 5.004555 2.315251
8.967580 1.206877 0.000000
18.018997 2.885261 19.161086
7.937450 6.495011 20.000000
4.363434 2.582162 13.059937
5.436157 1.962825 6.925485
3.813083 2.899907 8.752896
1.355186 4.318975 7.104145
17.947855 4.117848 15.339078
12.181577 9.073939 0.000000
3.948899 2.821494 6.901128
16.658469 5.017140 0.000000
12.726077 9.208868 14.596052
17.522302 4.949842 0.846887
6.075396 1.593760 15.474641
18.002871 3.992242 9.981289
4.406752 8.957219 7.410510
12.819324 0.000000 0.829533
17.155163 4.708183 19.240321
10.972475 0.000000 14.128409
6.146887 1.552485 0.024532
13.310074 6.917200 19.980923
14.652703 0.000000 4.642096
18.567281 2.282566 10.735933
2.434840 7.473630 0.000000
16.944558 5.851646 13.998932
1.885874 7.186879 17.188765
14.448426 0.000000 11.944899
12.405237 4.805328 0.000000
16.228247 0.000000 0.143264
6.963257 9.820053 16.424798
18.688314 0.000000 9.376686
18.641803 1.944692 13.006431
11.202515 4.891424 20.000000
2.980412 3.380650 6.604919
8.304362 0.306866 5.493614
1.066104 6.278174 4.700195
10.812061 1.279012 0.000000
3.494619 3.083773 12.816414
2.243818 6.626418 19.467170
2.755408 3.510556 14.598364
11.489013 3.585380 0.000000
10.539894 0.273478 19.008685
10.819752 9.684826 18.646710
17.813581 0.000000 0.944139
1.330066 6.602150 8.334712
17.261548 5.365571 12.754696
1.809466 4.056696 8.443301
2.874138 3.442007 10.399896
11.399984 2.452789 0.000000
4.954750 9.214698 11.351319
0.799818 5.950032 9.326506
16.071522 0.000000 1.803455
15.257327 5.447215 0.000000
18.414963 0.091261 0.000000
18.435600 2.776326 13.568584
16.895346 0.000000 11.895102
17.642509 0.000000 14.057643
9.657452 0.000000 7.091698
7.476740 0.784694 2.770485
14.526500 0.000000 13.398339
17.557188 4.884836 3.762571
10.673320 9.824269 13.433106
12.072331 0.204378 18.876351
15.595145 1.043108 19.755452
11.341250 5.075394 0.000000
12.409230 3.126011 0.000000
14.813264 7.976522 18.319094
10.844232 0.000000 7.372126
2.465484 7.707204 16.527790
9.917031 0.000000 16.096243
16.949387 5.844813 4.010342
17.617617 4.765256 2.571367
16.578700 6.320636 11.501252
16.121462 6.183973 0.000000
18.052092 0.000000 16.448437
5.865679 9.542714 12.004768
0.556333 5.435013 18.608644
14.109894 0.000000 2.560070
4.919444 9.195902 3.547895
18.077740 3.801064 5.323464
4.605481 9.058727 12.309588
3.350145 3.372007 18.816042
7.767330 9.942124 15.745451
0.787391 5.930862 1.540221
7.174582 0.959145 6.056742
7.699455 0.656109 16.969266
14.553357 8.202358 15.457663
0.513318 5.542323 16.709635
5.712263 1.803415 11.195727
17.909409 4.198665 6.800087
3.544813 3.054793 5.583581
16.960005 0.712370 19.530228
13.907023 0.000000 0.257249
14.523784 0.000000 3.505524
11.733388 8.642040 19.651380
2.121353 3.876628 12.385893
5.975872 9.025189 19.350412
4.567228 7.140068 0.000000
8.812152 5.140503 20.000000
18.425155 2.247510 0.000000
12.427639 0.000000 2.216034
11.262035 0.000000 9.884462
2.903283 3.425180 3.955988
10.118787 2.099337 20.000000
2.180478 3.842492 17.447121
0.322692 4.915085 1.317833
17.487570 0.553353 0.000000
16.323639 6.622833 0.893374
18.830970 0.130158 15.712780
12.997600 7.487032 0.000000
18.759418 1.214190 15.426053
16.603910 6.287628 9.943565
12.460057 0.454723 0.000000
16.402309 5.279187 19.572953
4.174020 8.834972 2.948985
14.103506 8.491320 5.965585
16.573859 6.321257 7.054255
13.439880 3.990279 20.000000
8.389876 6.498434 0.000000
15.213641 7.296016 19.047265
14.130421 8.471792 3.456182
5.489689 1.931918 5.595553
16.544853 0.000000 4.226701
18.457216 2.684807 5.221701
8.692335 4.555855 0.000000
11.451193 9.637800 7.542537
3.343811 3.588556 0.000000
10.337786 0.000000 0.916714
18.401237 2.898396 9.239371
15.141597 0.000000 1.288303
3.738778 2.942807 3.541627
0.660384 4.720119 17.807782
18.484253 2.588083 7.923045
16.260329 2.536048 0.000000
7.000854 1.059447 0.701624
8.073450 9.004038 0.000000
1.835429 7.095309 18.325632
9.151350 0.886560 19.652662
16.066173 6.896306 5.919701
7.605917 0.710114 12.390632
16.853230 5.973079 5.862258
18.665626 0.000000 17.340383
15.360826 2.128317 20.000000
14.197328 3.309767 20.000000
3.337407 3.174539 7.651506
18.087311 3.781113 7.752996
2.440422 3.849863 18.722961
17.140463 0.000000 14.953647
2.675202 3.556863 11.586565
4.556251 8.297411 0.000000
17.132317 5.560696 2.961500
7.417086 0.819135 8.439766
17.371406 2.121515 0.000000
17.135223 5.558048 7.659607
15.557311 0.000000 3.982382
13.210269 8.979624 3.166620
15.646165 0.000000 14.870645
11.306562 1.891104 19.990603
13.502766 0.000000 16.323524
18.045723 3.880129 3.206977
8.398504 0.252514 9.994835
7.518283 0.760709 1.632216
15.393222 7.540279 0.387836
10.920613 9.779968 1.261288
14.586150 8.179417 17.095037
13.731737 3.048420 0.000000
1.822589 4.049120 10.587760
11.867280 6.721995 0.000000
5.741263 2.113686 19.023946
5.430106 6.915367 20.000000
8.503863 9.983831 4.927945
9.785596 6.362426 0.000000
15.388917 7.548003 17.013843
7.631654 0.695255 9.434442
17.440275 0.000000 17.496639
15.585990 0.000000 13.407621
8.935905 6.759306 20.000000
10.848339 6.489166 0.000000
6.449783 9.699224 4.037172
10.152690 0.000000 8.574776
2.832690 7.993406 13.301448
14.455184 2.273867 0.000000
12.530868 9.280425 2.490502
3.457072 7.361733 0.000000
5.259640 9.333188 15.912450
5.806465 1.749028 1.247450
10.044766 0.000000 9.730429
9.958201 0.000000 1.885661
6.841793 1.151281 16.307762
17.956679 0.000000 7.701240
15.619039 0.000000 11.957372
16.383735 6.554524 12.524566
17.784389 4.453144 13.137110
5.572348 1.884195 2.810739
1.272188 6.532918 6.140243
14.701640 8.098622 13.281774
13.110809 0.000000 11.920842
3.143009 7.926148 18.940185
0.183335 5.012496 3.840374
17.660390 4.689148 8.021735
12.421669 0.000000 16.446211
5.273719 8.331644 19.685224
18.519114 2.456182 6.761663
11.129925 0.000000 8.804653
12.322328 9.361351 3.563674
14.790020 8.029449 1.156369
9.617554 0.000000 17.061828
15.358431 7.573702 7.098813
11.544036 0.000000 0.042801
3.269762 6.129748 0.000000
13.816409 5.677628 0.000000
13.811940 8.673970 12.998918
17.743782 0.000000 6.473011
14.972593 0.000000 17.650773
2.867330 3.445938 8.498757
17.181285 5.485128 1.948537
2.312399 3.766327 7.450485
7.301684 7.135709 0.000000
13.066867 2.297467 0.000000
17.127369 0.000000 8.357863
12.841728 9.160943 13.465675
10.931358 3.927171 20.000000
12.144448 0.000000 15.246617
15.314986 3.772435 20.000000
12.065060 7.881251 0.000000
13.347107 0.000000 15.302520
0.201660 4.984963 15.247764
11.884736 9.523472 15.127171
7.365644 0.848835 15.423132
16.511839 0.000000 12.877469
10.429625 0.981004 19.719494
18.094180 3.772698 12.374016
1.274463 4.365580 1.580422
4.939272 9.208113 10.288695
6.300215 9.665460 15.630548
7.506685 0.767405 5.051402
11.438322 0.000000 1.067527
11.494388 9.626226 2.213649
11.993984 0.000000 8.279505
4.929929 9.199042 2.294403
10.657446 7.716846 0.000000
16.499006 0.000000 14.093323
7.420856 9.890200 4.606619
17.417725 2.246246 19.794847
9.900411 9.613536 19.076212
9.321931 3.761312 0.000000
7.011803 1.053125 11.613890
4.673522 4.046791 0.000000
0.999058 4.524586 11.334769
9.311091 7.269322 0.000000
9.481882 5.883516 20.000000
18.163201 3.576296 4.282386
4.674746 2.402426 2.277551
