83.562346 58.790817 0.000000
57.684331 62.063769 50.000000
107.548102 46.211971 20.143151
48.805400 21.303779 35.937876
50.613324 56.074080 0.000000
113.557086 79.608368 0.000000
127.248574 79.925759 25.421801
32.091049 39.834831 12.914563
36.931669 103.455056 15.817027
9.665536 84.131865 23.836546
33.942492 42.642687 47.349933
113.524650 73.628905 50.000000
27.892687 100.572110 8.743558
32.768100 44.616025 47.733942
40.138475 30.912722 5.765194
45.829244 24.603416 32.413812
1.144286 76.446000 3.612644
48.024299 31.423740 0.000000
51.227993 60.477657 0.000000
106.063992 72.068843 0.000000
83.487723 90.124913 35.417258
21.697864 93.657989 0.000000
126.804786 80.637649 10.528560
106.142995 99.176348 44.135893
64.263974 78.802286 5.332939
121.795578 82.943587 45.912211
114.690706 92.377370 22.889347
126.435474 68.310128 20.584872
59.533933 16.872596 48.627380
77.125956 33.311303 0.000000
11.166395 85.485587 19.169748
103.451337 89.244539 0.000000
85.589618 23.856744 0.000000
74.753941 7.994239 25.982635
57.258603 11.931787 8.280711
50.681114 91.053544 39.616782
105.955641 89.264915 0.000000
28.745762 101.341554 1.025543
61.695267 80.959205 41.527737
104.209353 73.538693 0.000000
100.666456 83.970701 0.000000
25.461959 98.379680 18.587275
87.461962 86.918650 0.000000
87.789520 61.548813 50.000000
56.496995 34.928318 50.000000
99.451507 102.253517 1.033848
11.221759 62.972429 5.273051
93.301609 99.376713 40.758330
98.334909 35.440729 26.242295
41.520907 76.378780 50.000000
4.737363 79.686828 2.392311
45.043535 96.138441 21.427045
77.510225 84.401872 40.347378
53.198438 83.385766 0.000000
15.149446 89.078158 35.958268
57.358507 15.010491 46.142910
91.958488 60.264329 50.000000
91.954058 46.585990 50.000000
128.469610 76.949290 23.821149
9.447024 64.940062 9.461140
65.232429 5.527525 37.974755
11.220940 62.973338 35.482086
79.798394 27.735847 0.000000
109.612199 70.653908 50.000000
98.632219 73.267228 50.000000
4.607385 78.441982 43.991967
49.895725 33.329929 0.000000
45.057950 90.570984 48.091650
49.645854 20.371974 21.840902
74.209070 79.480553 44.912448
72.300990 6.247003 19.357033
78.890208 85.752131 18.771562
43.558078 75.562537 50.000000
67.604079 18.309050 50.000000
89.910006 59.736319 50.000000
57.717334 11.423196 10.660995
28.548813 43.762077 17.229275
103.874973 41.917676 34.179112
50.489877 19.533661 0.000000
70.684286 9.511740 47.691579
41.284526 99.528933 23.101159
92.294890 98.501573 13.174432
108.137769 82.873128 50.000000
27.596146 45.914764 0.000000
84.372011 19.116555 6.831179
70.241438 66.676439 0.000000
98.475330 35.604896 2.137448
69.494494 76.615233 0.000000
26.078405 98.935692 16.411919
35.666737 35.870498 10.373687
128.485355 72.454894 0.978819
63.211884 47.667051 50.000000
74.949245 46.358886 50.000000
91.539491 40.892798 49.898311
5.775982 69.010114 5.449111
13.905920 59.996524 35.792095
1.837851 73.376285 21.044168
73.018457 80.167399 33.025841
53.687721 15.890793 20.357802
128.729309 74.883618 11.781981
29.757602 42.421904 21.494788
107.560210 46.226126 25.371366
74.563079 7.806105 23.777386
91.988176 98.209851 19.052740
33.595758 38.166575 12.125972
67.243934 29.534551 50.000000
112.362742 51.840819 37.677868
53.949182 15.600913 15.725879
35.524455 77.126788 0.000000
37.027711 103.368430 24.249315
26.554804 99.365387 35.983553
112.543973 74.375097 0.000000
64.084220 14.448343 0.000000
45.714111 71.755612 0.000000
24.744448 97.732510 2.634249
93.385850 73.541940 50.000000
38.963278 101.622617 32.857799
115.340540 55.322194 14.806934
82.609161 89.020418 41.863050
0.449812 75.819609 33.123518
86.505887 92.995544 29.570412
82.885566 89.552190 26.801415
14.532509 88.521703 11.559983
38.899927 100.592717 43.926603
100.643267 38.139455 27.367122
1.882594 77.111928 30.816102
68.040334 39.979435 0.000000
88.946517 24.464659 16.854779
81.905753 87.749020 0.000000
85.839880 35.023700 0.000000
63.478267 47.577003 0.000000
22.306882 95.533912 19.963854
100.619019 38.111106 24.045490
23.647155 93.118345 46.792950
40.603380 64.095304 0.000000
113.074585 86.302121 48.933172
112.366104 94.588342 25.920829
87.882428 94.304798 17.177358
27.727344 90.010549 49.707935
86.717085 64.549660 0.000000
75.187607 8.421708 16.687976
37.235177 61.743316 0.000000
126.434603 68.308916 14.890192
45.866025 51.710369 0.000000
79.141681 85.991311 38.323971
106.602381 97.751488 45.503158
5.604743 69.199965 14.637370
28.057155 80.500970 50.000000
29.676625 92.294625 0.000000
90.457406 75.585489 0.000000
87.882298 23.873029 42.818313
83.488488 35.860327 0.000000
97.376380 101.832841 33.972679
95.618619 32.265085 16.440638
98.008387 36.823323 44.632747
10.590071 63.672776 28.731947
121.778426 85.636110 18.468145
82.424285 16.839448 38.383951
74.741706 71.180122 0.000000
37.665853 102.792848 34.833748
113.173342 93.820562 7.293854
52.821182 18.999476 45.117524
42.361814 28.447726 23.510399
34.724670 67.847991 0.000000
46.004575 78.721063 50.000000
66.531534 72.046942 0.000000
128.673901 75.960187 1.182147
92.707160 29.348763 42.371402
55.815050 20.353903 48.363969
20.964066 73.163304 50.000000
73.006253 14.901762 49.091256
53.816151 24.921817 0.000000
32.069512 60.959632 50.000000
96.468231 33.258375 25.893733
115.375636 69.600103 0.000000
106.087700 83.101638 50.000000
119.665014 87.646215 10.025505
92.880787 99.058830 0.422355
38.150221 102.355966 39.526388
51.242631 18.601642 4.860851
21.721172 51.331823 21.287453
71.157550 52.597110 0.000000
93.704437 30.027195 2.288565
119.332777 81.830360 0.000000
16.009061 87.630036 45.488865
107.923052 71.203209 0.000000
77.131142 10.651178 0.545181
123.149221 81.366071 46.158279
117.715274 59.239496 0.000000
7.405173 82.093098 30.590513
26.454359 99.274789 38.156100
46.459858 38.196574 0.000000
100.961528 92.762587 0.000000
116.227243 89.536669 44.321363
72.196206 79.338650 40.603702
31.780482 104.078763 22.890388
64.593782 5.688267 29.654688
99.714017 37.053058 35.402847
102.538027 78.529554 50.000000
68.039969 75.279785 41.457719
38.645398 33.432378 43.332610
50.912825 58.359175 50.000000
22.748732 51.794877 44.503542
128.635559 73.358726 17.735468
54.221454 87.860283 20.740073
48.740147 92.804228 39.090083
127.849552 78.805053 10.080141
82.038479 74.094280 50.000000
33.008265 68.343975 50.000000
113.189061 93.805612 27.625530
49.001369 21.086510 25.528859
43.531183 27.151257 24.652864
85.823094 20.813032 18.161790
71.046073 5.704353 35.934157
23.994346 83.789599 0.000000
79.728589 86.549530 27.718843
73.737559 7.129528 27.665901
99.874686 37.240899 17.688747
116.849816 70.465375 49.897391
106.290594 84.886953 0.000000
36.328561 35.136740 7.725609
122.361494 63.530466 21.656152
31.597240 40.382313 27.044830
7.216332 81.922770 5.633232
102.035045 102.096929 32.853494
115.930182 56.874174 43.262233
10.166453 84.583675 15.730845
94.286739 30.707969 23.147060
71.053952 5.706518 1.268779
97.273812 98.590497 0.000000
65.597480 68.612284 49.412726
70.758581 5.625354 12.169437
27.308321 100.045032 2.718989
41.314539 99.501863 28.517733
28.962215 68.313038 50.000000
58.543975 10.506707 26.309349
114.374719 92.677911 25.328333
62.671039 80.239056 16.858971
84.918756 91.485995 38.279319
75.504394 82.531820 35.884467
48.389683 52.314423 0.000000
81.034934 87.792019 2.207666
48.654189 21.471425 29.008534
128.683790 75.768041 17.525251
94.934533 100.722102 9.329436
69.902193 63.445179 49.997575
19.438861 53.862201 22.777254
82.326054 46.615071 50.000000
58.894766 42.144567 50.000000
23.626703 95.335327 44.413017
35.380338 36.188026 33.765768
69.854375 77.157982 5.198284
102.656698 74.899249 0.000000
78.312772 12.032633 16.815682
40.715667 43.361884 0.000000
110.766164 96.110074 18.872668
55.464813 86.738817 21.842792
110.984327 92.496898 46.531078
59.540158 83.063000 14.560854
65.118914 63.900362 0.000000
76.896424 68.913170 50.000000
57.410000 11.763934 15.740385
61.087177 73.271573 0.000000
95.647480 83.338945 0.000000
51.817640 17.964135 0.120513
56.839252 80.020449 0.000000
121.431524 62.443228 17.076659
49.985015 28.148864 48.910264
10.762076 85.120906 22.112013
30.550219 98.755804 47.241657
21.811165 51.232048 35.749908
74.836150 8.075273 36.523253
55.377709 82.569758 47.263423
64.981074 17.493472 49.957463
102.770410 40.626320 17.287920
96.816529 36.335222 0.000000
106.988426 57.535303 0.000000
38.155114 63.597481 0.000000
3.559352 71.467673 23.340977
51.237606 46.948479 0.000000
82.538494 16.972971 32.891984
112.619632 94.347207 17.372659
42.334466 98.471105 41.219397
32.796939 92.461954 0.000000
66.042816 36.027957 50.000000
25.019207 47.675320 38.558506
94.423277 82.812080 50.000000
96.330214 97.828341 47.291939
128.737016 74.220124 28.687934
20.287168 93.712202 16.123199
32.297372 67.372225 0.000000
56.899627 85.139518 42.084555
128.211420 77.921621 17.272145
126.349966 81.165933 1.314186
122.961340 64.231753 34.990680
31.359509 40.645884 8.423978
61.792678 31.890309 0.000000
96.294014 44.309517 0.000000
103.920554 53.796915 0.000000
50.328920 76.673302 50.000000
83.314741 79.852190 0.000000
15.444321 79.112578 0.000000
117.112914 57.394296 29.137589
103.033802 83.171741 0.000000
75.043606 42.847705 50.000000
54.578328 15.573022 42.933164
108.577125 98.192109 36.160749
36.227028 104.090618 39.086983
126.661163 80.815460 27.281297
104.825837 81.977707 0.000000
24.958822 90.128743 0.000000
60.127899 82.532879 31.631747
24.133202 48.657627 0.186842
102.371966 102.039452 21.243655
36.939536 45.326838 0.000000
55.745736 86.485435 19.829349
87.064188 26.020368 46.500545
49.160500 54.675981 0.000000
43.526612 67.999275 0.000000
34.372960 37.343725 40.499888
78.194225 11.894040 24.535410
73.324878 45.592383 0.000000
111.429527 95.479137 38.025652
120.352154 86.936393 40.518081
41.106281 47.892265 50.000000
75.136316 81.397494 0.000000
61.414844 71.013928 0.000000
52.394058 89.508529 35.979413
25.245476 95.766075 45.707172
115.059557 92.026550 30.637561
87.504760 22.779085 7.093406
92.351393 28.445336 28.902735
5.373302 80.257180 40.061281
63.131405 79.823823 12.538887
65.285663 77.880758 22.430365
4.449604 70.480658 6.203293
28.515019 101.133432 4.861426
76.396235 83.301945 0.000000
17.777282 91.448373 12.015614
92.553992 33.421317 47.200485
111.248846 50.538551 35.664038
45.284372 59.608941 0.000000
80.690599 14.812577 6.924425
97.812091 94.907418 49.301390
42.917591 45.991827 50.000000
39.304825 101.314554 27.336567
91.263478 27.173443 32.918848
74.608118 32.185167 0.000000
37.311171 78.184496 0.000000
67.433203 5.189731 29.185282
27.343324 45.098593 18.348065
90.184528 25.912031 2.713409
73.644618 67.758650 0.000000
51.920488 84.816441 47.816209
52.760528 82.507111 48.599674
127.526667 69.948119 16.628558
68.107450 75.496449 31.852155
82.248376 88.946146 5.479831
7.905265 82.544164 35.083441
45.416048 37.317847 49.822449
79.811257 86.628158 14.513303
58.508277 20.064044 0.000000
69.851721 71.886117 47.830528
70.100455 57.947067 0.000000
92.084223 65.905509 50.000000
36.777895 34.638567 29.643674
29.827540 42.344365 32.788672
6.743035 81.495873 16.593974
80.814030 59.076211 50.000000
65.233384 44.018037 50.000000
8.690929 65.778338 11.890916
59.890338 44.114694 50.000000
20.990149 94.346265 21.339206
101.330827 58.569895 0.000000
90.975029 97.246228 33.246087
46.275247 54.774806 0.000000
62.289342 80.583334 27.854917
53.995341 55.380035 50.000000
25.940810 98.811586 9.418622
124.175438 65.651168 34.175892
42.200391 83.958184 0.000000
31.117981 80.272874 0.000000
56.573642 53.059279 0.000000
86.564100 93.050912 22.863301
31.968119 39.971124 33.344556
53.431259 67.533474 0.000000
64.556531 53.599086 50.000000
6.340521 68.384216 16.645717
91.044753 74.461346 50.000000
79.360358 59.232558 0.000000
110.161485 96.685195 15.772312
5.525790 80.397961 29.645689
64.050317 67.297184 49.896621
33.319766 38.472564 32.750216
53.449078 16.155374 18.303567
39.719134 90.046361 0.000000
17.786613 91.456790 32.006925
91.675542 82.232910 0.000000
37.155976 62.115010 50.000000
30.310892 41.808477 37.841437
55.340813 26.908877 0.000000
21.204013 90.748944 0.000000
95.585302 99.112065 45.559551
103.693239 93.251452 0.000000
116.488393 64.065892 0.000000
53.555143 33.775811 50.000000
121.857006 85.100470 42.442596
124.988187 66.601361 30.270996
110.343976 73.931818 0.000000
41.859369 87.175248 49.904649
67.018344 5.335591 0.000000
82.746431 89.419856 3.562486
126.665791 80.810248 22.365559
120.609722 61.482451 36.944615
118.182218 59.348041 42.956513
117.168325 57.459077 11.295359
105.028002 62.299854 50.000000
62.329252 6.837831 22.488822
27.338697 96.925463 46.377813
43.315431 27.390459 11.879294
105.270487 43.549187 33.589477
54.877305 71.683020 0.000000
86.463404 92.955138 24.946278
43.390661 30.627506 0.000000
90.296583 70.279420 0.000000
30.870168 49.334559 0.000000
115.407176 77.031152 0.000000
60.898200 59.601695 50.000000
121.359607 72.592787 49.400803
72.028362 76.332765 0.000000
123.572003 73.203221 0.000000
112.436127 90.570434 46.993985
61.663381 14.029935 48.429649
106.272861 62.094696 0.000000
44.476774 69.757649 50.000000
110.057498 96.784099 25.058346
52.235759 71.814676 0.000000
11.744242 62.393158 11.399086
76.812148 10.278239 12.794208
96.143300 32.878495 37.304369
66.487223 12.010517 0.000000
33.143275 105.307955 10.428654
66.449799 76.830749 24.454432
52.291101 75.381733 50.000000
76.863497 10.338271 9.021782
25.747854 52.852808 47.993360
125.124914 82.453204 26.890378
103.239925 98.653844 0.000000
36.622048 103.734324 26.902257
88.478812 46.137445 50.000000
117.820488 58.221527 17.424854
48.104732 28.620429 0.000000
4.642986 74.505045 46.965785
13.747648 67.293006 0.000000
32.687774 90.188980 50.000000
82.208498 67.198898 50.000000
70.595014 5.580408 38.370371
69.814618 48.801296 50.000000
90.222443 33.704951 48.650568
105.195507 100.953448 31.517632
15.449056 58.285662 6.819552
67.867275 72.741591 46.085411
110.907088 54.900966 0.000000
48.089271 85.120888 49.192246
97.712989 34.713635 15.316945
97.303482 34.234876 0.853023
120.370887 61.391675 0.000000
18.817967 66.450439 0.000000
70.849183 71.337022 0.000000
38.430669 102.103012 4.668686
94.144675 81.932714 0.000000
74.247885 81.336731 37.415969
10.009650 64.316284 31.356204
125.053355 66.677550 14.933341
50.530707 83.654143 48.966068
112.891951 76.524453 50.000000
48.072057 23.950436 0.000000
104.692251 74.440480 50.000000
105.362035 58.836689 49.989564
108.844397 95.315870 0.000000
76.644769 10.082554 29.621341
105.062603 50.219450 0.000000
66.786883 76.526711 8.157693
110.084998 96.757943 3.987856
47.213717 23.068464 11.648523
49.469755 92.146147 24.350910
86.586183 93.071915 9.498633
94.523272 30.984503 20.683451
85.760458 60.672662 0.000000
41.342445 99.476693 39.793365
63.003364 59.200533 0.000000
15.710376 57.995939 32.127410
58.625767 22.637406 49.816831
81.723280 78.242462 0.000000
20.636678 94.027447 38.083887
117.465090 89.738603 9.080342
62.032598 15.179630 0.000000
30.846129 77.379087 50.000000
31.485099 45.554103 0.000000
118.513539 88.741404 15.081305
17.049239 80.346665 0.000000
54.804395 66.607604 50.000000
82.555385 16.992718 5.931619
42.890157 27.861956 30.951619
56.997003 12.221821 26.903750
66.801587 75.809549 43.180329
85.757143 92.283400 2.890000
126.929554 69.332003 41.867758
114.966510 76.047488 50.000000
1.525808 73.722245 12.626080
96.234281 85.734717 0.000000
12.486211 61.570543 36.514127
18.725458 60.082185 0.000000
101.955858 54.825686 0.000000
81.346321 15.579188 16.343290
111.708611 95.213695 21.936058
18.787121 92.359212 29.582245
32.874941 60.764273 0.000000
110.691839 49.887348 23.596805
121.681977 85.727845 16.179303
12.091345 86.319860 20.743709
44.873241 57.286954 0.000000
84.920845 91.487982 23.881259
76.465382 9.872830 22.946005
128.045063 78.327749 4.918711
123.335503 64.669190 32.647519
105.607270 100.724796 9.745150
128.627175 76.244997 27.517190
75.652823 82.368301 41.971158
71.859181 63.919594 50.000000
25.102813 87.059407 49.812033
118.079457 73.323292 0.000000
38.794257 32.403044 31.812115
37.259197 50.174654 0.000000
87.464538 38.246554 0.000000
66.455219 13.503818 49.737655
43.370714 55.401522 50.000000
107.454793 89.728149 49.509151
56.550800 83.731918 45.217990
63.604819 27.142318 0.000000
62.182910 6.934104 2.740737
71.878971 49.498581 50.000000
5.578322 71.303756 45.074695
122.230864 85.205788 34.337637
33.808693 58.700003 0.000000
96.347158 33.116828 39.664396
25.963753 74.008059 50.000000
12.611846 61.431252 9.310924
89.607673 95.945711 27.293022
108.966321 47.870026 2.381278
42.794736 73.297133 50.000000
124.363240 83.177646 38.044389
128.234217 71.600584 29.626680
118.962191 59.556304 27.519523
50.730678 46.228237 50.000000
111.361784 95.543568 14.102267
51.511347 18.303719 27.184989
51.255569 64.230117 0.000000
84.457562 38.164849 50.000000
116.498726 56.676241 4.490820
49.380511 71.276396 50.000000
118.007358 88.341070 43.451071
53.771751 15.797629 9.668942
111.449909 88.330012 48.729947
104.768960 101.190310 23.674839
76.413737 50.150636 0.000000
33.525203 105.558415 0.000000
75.657288 29.472737 50.000000
104.662743 68.934459 50.000000
81.947789 16.282371 14.498571
66.460468 5.259744 34.891037
58.783474 68.494435 0.000000
89.135576 95.478606 0.000000
20.081811 87.366759 0.000000
88.543027 23.992934 4.593958
61.874946 52.877821 50.000000
106.268901 100.253727 4.907103
128.185910 71.436256 21.875056
52.533642 89.382630 39.271180
47.295000 64.007916 0.000000
91.507480 30.873099 0.000000
25.972833 79.004986 50.000000
69.627801 58.108867 50.000000
105.338982 43.629265 36.781842
84.077278 90.685650 17.926659
11.114045 68.982506 0.000000
35.917656 104.369661 7.933400
106.657570 92.159854 49.006887
85.886899 68.352513 0.000000
108.746628 98.030891 16.932263
15.306150 58.477436 40.568199
116.341685 84.744590 0.000000
49.189814 25.951678 47.472099
7.609317 82.277229 0.044840
40.131679 100.568761 3.472943
75.384750 60.474003 50.000000
128.129937 78.120547 35.725150
56.108573 76.784601 49.522731
63.270755 79.083625 42.972742
86.494264 90.999815 0.000000
38.582452 74.556646 0.000000
47.671678 22.560726 34.207704
56.578131 85.734644 6.213715
113.105059 83.307476 49.691814
61.205110 7.696812 24.765523
69.266015 8.223558 47.050458
117.211100 89.980178 16.007518
72.306284 79.490038 38.160745
44.937956 92.298934 47.062728
110.731668 94.596374 0.000000
73.448599 6.928347 38.070819
95.130605 42.621364 0.000000
20.113718 53.113993 26.288271
38.889066 32.297931 38.901933
4.986300 75.474867 0.000000
16.126028 89.959000 32.874115
66.138903 77.111166 33.328983
76.747218 82.331691 44.348155
50.713972 42.463050 50.000000
28.538175 57.791396 0.000000
50.602038 19.311862 12.132635
128.659634 73.563134 4.905298
95.169176 100.852400 30.294912
14.615316 68.320315 49.175866
51.070044 18.792988 14.130691
64.515801 70.704540 0.000000
69.422081 38.945990 50.000000
88.669817 95.053699 33.011385
73.800308 80.911032 25.725630
3.665231 78.719803 17.983668
111.840393 60.447849 49.130209
93.057058 84.074337 0.000000
106.466369 100.095388 23.458251
59.762006 74.970938 0.000000
74.815528 16.462144 0.000000
5.642007 69.448532 41.921444
114.721187 79.714396 49.933459
98.754236 79.392142 50.000000
80.453479 29.678072 0.000000
66.623912 9.828223 0.000000
83.653783 34.660107 50.000000
48.956898 21.135814 7.707826
62.930069 32.894454 50.000000
77.762394 62.413366 50.000000
65.744893 5.401105 27.507082
37.097613 49.644158 50.000000
113.329758 52.971367 20.584630
101.772664 39.459845 15.980745
63.007109 49.778221 0.000000
19.254578 92.780842 13.837478
80.721376 14.848559 20.933476
108.842820 47.725639 19.522063
14.958556 76.998178 0.000000
98.428410 35.550042 17.086336
101.076919 52.837938 0.000000
90.719764 26.537781 37.516272
112.613406 78.563676 50.000000
90.831792 26.668754 8.900619
82.393240 28.616492 49.695164
127.329354 69.553631 28.627286
125.877364 69.769225 0.000000
115.562596 55.581802 38.509296
58.990228 10.011950 6.802165
67.746164 26.491721 50.000000
7.710930 66.864855 34.577891
108.155755 72.255751 50.000000
41.591538 29.548210 41.775345
36.775404 47.125640 49.859109
113.093991 53.143510 42.263871
71.533032 75.545745 46.364088
26.451613 46.087225 39.052330
57.115139 12.090844 1.572846
27.949341 83.229816 50.000000
70.542105 19.398040 0.000000
12.971620 61.032374 29.546269
13.506001 87.595829 4.863213
55.692523 86.533431 10.003586
35.116792 61.970219 0.000000
66.659740 76.641390 21.385278
13.152421 84.961590 45.592685
35.504463 89.574232 50.000000
53.603844 15.983786 36.969872
83.213593 70.722520 50.000000
79.157830 64.240919 0.000000
50.533577 19.387764 17.011927
71.652850 6.008459 40.752290
38.443068 32.792405 12.598917
63.525580 21.031103 0.000000
7.558773 82.231640 24.568857
6.225200 68.512070 3.327806
50.638908 23.486248 0.000000
56.412422 12.869940 32.282390
46.804795 23.521832 18.024673
86.850531 93.323342 4.542298
0.580101 75.937126 11.303616
46.103273 94.422206 43.294018
17.920244 91.577320 8.936071
23.313505 49.566417 38.581459
83.529259 82.904074 48.787942
102.567386 76.020733 50.000000
107.641517 49.761736 46.260194
53.122077 25.039947 49.012667
11.180267 63.018431 17.985059
103.152200 41.072675 2.565941
57.588295 28.590848 50.000000
13.802454 87.863219 28.281927
69.265494 53.574099 0.000000
45.018527 25.502252 36.011172
52.004270 17.757219 17.866470
10.502972 81.450066 0.000000
81.086714 15.275679 37.797243
21.301709 94.627281 13.983371
104.761815 101.194278 21.373430
79.743061 15.978393 45.172928
44.391270 35.076415 0.000000
82.867644 89.535144 32.875030
61.396004 78.643691 0.000000
57.632447 84.783688 3.810692
62.575731 54.880579 50.000000
11.678330 85.947334 7.341416
75.134893 82.180381 9.881522
83.133206 17.668255 13.476737
99.985751 102.253517 13.729179
65.206601 61.679958 50.000000
71.672194 25.574854 50.000000
97.911308 99.871673 46.024238
83.700493 62.425379 0.000000
27.793444 75.911126 50.000000
91.215982 54.508146 50.000000
119.243832 75.763145 0.000000
99.639807 49.349915 49.784158
19.448347 55.580814 44.661653
82.882275 52.745465 50.000000
21.936750 51.092814 6.478798
65.156696 77.997082 0.412939
10.881699 63.349451 33.270709
43.446856 67.744656 50.000000
66.493850 18.949545 0.000000
66.061170 77.181278 3.460376
47.537662 25.911300 0.000000
91.052315 72.559432 0.000000
1.652915 73.581323 38.296530
23.039456 96.194668 3.140192
121.515375 80.762584 0.000000
8.176683 82.788973 26.699589
40.426101 100.303203 25.410858
115.735842 55.784346 30.113999
50.655278 19.252835 34.513175
108.835979 67.347195 0.000000
104.388526 49.206011 48.228083
80.925476 86.046556 44.702083
100.420360 37.878852 29.642389
62.773023 6.545892 8.229884
46.266354 87.864697 0.000000
17.881355 55.588994 37.598219
47.922173 66.851467 0.000000
5.145451 69.709178 27.085383
96.325472 64.761944 0.000000
112.470932 51.967305 32.817483
70.861288 63.880918 0.000000
90.016104 95.430692 43.489052
22.045489 95.298145 30.414442
78.841015 12.650209 9.568376
40.198577 95.254300 47.901755
61.439894 26.332379 50.000000
54.149135 41.444461 50.000000
95.774934 95.841091 48.215168
86.317371 21.390896 24.054094
39.771981 100.893196 19.011012
83.611007 85.658691 47.406066
93.202218 96.954420 0.000000
30.465678 97.726824 0.000000
80.525414 87.307406 34.604631
8.428305 70.922186 0.000000
107.286029 99.420094 17.581652
120.849383 86.519740 2.309273
19.386425 85.260036 0.000000
36.741762 64.462250 50.000000
55.834067 29.898468 0.000000
30.773040 103.170086 2.503209
107.298080 48.040519 45.010907
64.787030 78.305066 40.480834
25.724488 98.616471 14.162935
5.217273 69.629550 1.489599
29.031603 43.226812 31.123967
44.135391 94.255602 45.990903
50.145560 86.928185 47.492238
79.246450 68.012627 0.000000
70.555568 77.824900 36.414012
63.032915 6.374918 11.413445
66.092169 41.939961 50.000000
53.122899 50.871416 0.000000
77.269174 84.210335 18.557020
95.102707 100.815489 15.654863
67.615159 38.068747 50.000000
80.592976 30.309149 50.000000
61.223662 39.663757 50.000000
28.001322 46.243148 44.835000
66.143940 5.302664 31.558596
46.644457 23.699597 7.076960
48.444081 93.071269 17.099829
94.842831 100.671180 20.481956
29.991391 49.526934 48.586656
104.082695 42.160526 0.040298
10.126197 84.547365 13.323238
89.188185 72.247331 50.000000
24.788183 47.931456 3.938661
73.602364 62.150907 50.000000
84.940110 29.272052 49.203876
102.908833 40.788152 14.686178
39.767726 37.289466 47.982130
117.467688 89.736132 18.150166
94.035655 99.366792 43.218143
97.878786 101.988974 35.907960
91.639380 97.878105 16.644820
89.148520 25.446800 43.071236
2.950132 77.506561 42.850935
87.034355 82.426390 0.000000
33.239357 105.394617 12.841745
50.778651 90.965569 20.255298
12.414476 61.650075 1.756800
78.049073 84.952112 36.894284
29.698139 62.885896 0.000000
28.075859 44.286437 22.051570
64.767475 7.304586 45.300952
60.970743 30.052794 0.000000
85.362952 91.908477 4.835414
35.889968 35.623004 35.669026
88.998285 28.801806 0.000000
2.081228 75.894280 44.425580
14.597492 88.580315 38.120561
28.835139 101.422168 25.808135
46.705979 54.023574 50.000000
53.089354 88.881397 29.682793
103.486506 41.463516 8.890827
85.471819 47.326965 50.000000
18.570509 66.096897 49.664164
100.557491 38.039173 33.493126
69.491649 46.143563 50.000000
70.203167 69.842659 48.943589
122.444622 66.390045 45.691395
73.750632 7.138630 21.812249
85.360339 74.423614 50.000000
31.475630 40.575082 40.681455
85.641824 49.853234 0.000000
110.892006 87.454471 0.000000
51.702279 90.132489 21.832810
1.681604 73.549516 4.341084
34.762738 59.610931 50.000000
70.634871 77.900326 34.203295
64.739582 9.017538 47.234673
116.793773 57.021183 32.856447
61.124924 7.771798 26.924509
84.025620 18.711586 18.248372
104.184316 42.279333 24.799029
59.624004 9.309287 35.681374
53.855160 15.705155 1.094735
108.271030 61.619136 0.000000
72.654218 54.742786 0.000000
115.677721 79.920112 0.000000
60.314117 8.544166 29.427982
67.880697 66.501978 0.000000
29.942626 95.089118 0.000000
38.737023 101.734299 0.000000
40.928392 47.481310 0.000000
123.977895 65.420217 12.266155
65.393499 77.783494 19.822464
56.566893 22.397982 49.339275
113.901493 53.639788 27.603422
121.595196 74.201881 0.000000
119.100806 59.718360 33.251640
6.154476 80.965014 34.200046
24.232147 48.547927 28.036953
117.113581 83.594448 48.440768
11.995139 62.114990 7.016166
121.074342 67.618698 47.674553
99.153781 72.910027 0.000000
78.375284 50.600990 0.000000
28.462635 43.857622 27.775049
113.464908 53.129373 35.333138
127.381114 79.713147 8.133443
71.792879 61.966173 0.000000
91.437978 27.577342 41.592726
108.865214 65.236212 0.000000
15.082034 58.692576 4.609192
43.287169 27.421792 14.035857
8.854964 82.750659 43.066433
78.351887 85.240124 4.175614
46.960214 92.378612 45.222440
72.791932 6.477037 9.190488
31.677582 55.240942 50.000000
57.516248 33.114377 50.000000
104.986295 71.529766 50.000000
34.609265 37.750460 43.035072
53.749125 88.286307 12.881792
63.393733 42.640417 50.000000
84.119352 72.516176 50.000000
65.536226 51.486567 50.000000
91.965348 27.994007 19.470717
115.490488 90.984021 42.960987
25.709115 81.036781 50.000000
128.302633 71.833319 25.082286
126.515270 80.979765 32.790282
96.284381 61.584049 50.000000
48.019390 73.262794 0.000000
27.454942 51.439369 48.217387
86.876775 22.123565 40.649696
54.778944 38.204231 0.000000
69.883260 76.482924 43.137540
81.433707 85.020526 0.000000
80.855360 64.578685 50.000000
30.942944 41.107726 5.532604
54.163579 87.912484 7.165123
83.753065 21.262656 45.805243
99.297594 86.383685 50.000000
84.623566 73.309969 0.000000
20.860658 94.229469 24.957243
112.325043 94.243610 42.209845
68.285690 41.478535 50.000000
114.742238 63.833951 49.128465
80.022759 83.622709 46.362194
16.533102 61.778894 47.255299
80.452193 14.533854 3.513557
47.645198 77.047902 50.000000
73.081773 33.663691 50.000000
83.101550 17.631246 28.615135
97.469058 34.428452 6.924897
113.894455 93.134699 16.275621
124.840390 82.723820 2.963754
100.490202 41.559484 0.000000
95.398791 100.979905 6.618628
117.973298 58.400179 25.582962
35.217618 105.001070 20.166214
99.294446 54.004243 50.000000
46.037161 85.074161 49.664371
78.891761 85.753608 1.549257
100.047527 52.096091 49.962587
33.984449 106.066664 38.650534
111.609457 65.220705 0.000000
101.939631 86.748009 50.000000
88.724146 24.204683 38.753480
57.369780 50.294257 50.000000
40.720443 94.934666 0.000000
105.654322 43.997933 14.372632
85.611897 32.620682 0.000000
47.104929 90.620468 46.822708
50.158084 30.583650 0.000000
101.359956 39.075957 40.814470
93.087928 70.426298 0.000000
44.129610 95.544565 44.460026
101.018060 102.253517 10.994805
8.768607 78.695875 47.504026
96.165823 36.839255 46.636065
104.949226 43.173597 26.790251
91.529127 27.484016 39.581935
106.237434 100.278958 25.771035
84.444833 19.201692 0.479917
48.020882 22.173567 23.753406
100.380814 37.832618 21.744739
76.454855 24.545048 49.964193
119.334966 64.649080 0.000000
25.662218 49.477424 45.540581
66.748510 7.449488 46.232541
34.849594 61.879628 50.000000
91.631132 27.603271 10.532507
77.757374 46.446081 0.000000
75.256317 8.489436 28.113357
103.873659 61.039886 0.000000
48.167194 93.321011 29.987893
89.939281 86.566875 0.000000
8.663143 80.099090 0.000000
53.145313 39.295564 50.000000
7.156466 81.868774 14.659100
60.608168 46.460034 50.000000
65.497581 75.960224 44.856904
119.432892 60.106606 19.105772
73.663988 80.781376 3.398412
124.726820 82.831839 24.271917
51.845418 90.003383 11.660175
82.367336 16.897598 41.030166
114.202920 72.874733 0.000000
106.179381 100.325508 19.314894
77.410241 10.977475 38.863757
93.533498 99.656956 7.174515
77.892766 26.337380 0.000000
67.017427 76.318769 30.269956
51.095755 89.072576 44.708563
35.364676 104.868428 30.433998
27.246188 99.988991 18.411359
69.021190 21.946341 0.000000
25.372574 48.321989 43.635491
3.960190 73.705375 0.000000
32.658065 39.206187 21.763870
49.730815 20.277779 14.835386
55.681464 13.680348 6.845373
52.928356 89.026612 15.294227
42.552567 86.095133 0.000000
48.177796 29.687177 48.719370
40.977534 69.206527 50.000000
71.126847 56.264749 50.000000
112.331288 68.039021 50.000000
88.944950 26.726780 45.162701
57.224872 38.039097 50.000000
120.819450 70.140724 48.913567
86.645582 93.128411 38.595565
105.008017 95.518361 0.000000
114.373626 66.362316 49.750908
53.176903 17.030560 42.667724
107.631167 99.091827 1.007025
28.673842 101.276684 27.898647
45.371509 41.565574 50.000000
18.690832 78.422690 50.000000
74.469971 7.714327 7.731103
5.926637 80.759511 13.033975
90.613375 78.043734 50.000000
113.351633 54.297894 0.000000
103.381306 58.777070 0.000000
15.001068 88.944327 24.713645
87.362988 22.613339 33.338163
85.947638 35.000448 49.931315
27.663265 58.687539 49.947982
109.608728 58.987939 49.439608
29.479046 42.730737 15.758710
85.973799 43.181972 50.000000
94.194934 71.233067 50.000000
97.197548 72.267105 0.000000
18.374960 62.045938 48.438887
76.954563 18.960384 0.000000
45.243247 76.994143 0.000000
60.874036 8.006412 31.367260
64.141649 37.274399 50.000000
17.018637 67.844341 0.000000
104.933235 43.154902 4.950169
37.487666 71.157103 50.000000
16.678270 56.922844 10.662909
83.235020 27.903337 0.000000
33.656105 38.099668 3.295052
16.703880 90.480202 27.588223
46.843125 85.790379 0.000000
24.887305 97.861362 7.026585
78.013066 11.682244 7.381895
71.409217 46.434201 0.000000
67.708601 54.991449 0.000000
99.064527 52.991113 0.000000
67.668737 58.850791 50.000000
38.664761 32.546615 15.440635
125.040044 77.423098 0.000000
92.059598 66.387739 0.000000
55.381022 22.974875 0.000000
70.571791 77.840330 16.626618
13.726522 87.789877 40.091723
96.511499 33.308960 33.944536
25.639153 98.539502 20.974434
65.217199 24.216961 0.000000
15.364092 58.379861 36.214985
13.778967 60.137276 6.400000
1.965182 77.186419 12.679563
116.764237 56.986653 26.776953
117.092034 90.093424 25.534488
35.703356 35.829899 24.073825
77.675798 69.502759 0.000000
7.655297 66.926535 4.225511
76.920624 21.145797 0.000000
32.045959 94.430760 0.000000
62.754871 6.557833 15.749692
87.615346 50.367629 50.000000
58.774938 63.945149 0.000000
100.146133 39.358682 44.671034
124.576678 82.974641 5.084400
34.655043 47.123924 49.459252
113.568265 93.444945 21.485952
66.771302 8.933051 47.719628
38.900652 69.249066 50.000000
16.254177 90.074586 17.270035
40.036461 31.378101 0.000000
78.565722 12.328361 31.425582
48.319246 21.842773 15.041669
98.842084 55.102057 0.000000
47.349132 59.035072 0.000000
21.507733 76.752056 0.000000
15.967641 71.197862 0.000000
119.990612 87.336533 14.210515
28.546157 71.835386 0.000000
87.196872 93.652753 15.119076
93.630388 44.339454 0.000000
82.259094 88.956341 29.808611
108.740877 47.606457 26.250182
77.370329 72.121123 49.907880
43.413224 97.608923 22.214638
89.818367 96.146106 5.114367
106.970167 76.470331 0.000000
59.968518 34.824505 50.000000
21.614325 67.028112 0.000000
33.820771 41.307628 0.000000
86.585441 21.704299 26.068017
93.274575 39.426735 0.000000
53.649135 30.790956 0.000000
15.989979 73.446897 0.000000
73.760183 80.872869 10.964576
74.003624 81.104410 17.796681
2.908021 72.189797 37.565795
48.266617 21.901122 18.744454
12.049584 72.831442 49.584545
62.824178 57.862341 50.000000
101.824314 64.655404 0.000000
8.158715 66.368400 13.789122
96.212175 70.032152 50.000000
34.240913 72.987531 0.000000
29.279725 42.951722 23.392090
124.045998 66.060045 42.568258
51.412521 90.211421 41.626390
46.936688 69.476739 0.000000
42.370075 58.217376 0.000000
38.528139 97.173227 47.640301
99.711875 56.131541 50.000000
45.504056 33.372468 0.000000
1.242733 74.036088 35.105009
8.080265 72.483587 48.017887
94.974484 45.952639 0.000000
42.560936 62.908054 0.000000
23.521727 90.802863 48.215578
42.231712 85.137128 50.000000
81.563907 22.598963 0.000000
102.163554 70.655838 50.000000
101.510284 102.186451 29.804895
58.021843 82.367002 45.264144
58.457780 43.545433 0.000000
111.202180 55.003054 47.078317
69.566347 14.738952 0.000000
108.450458 98.312584 4.252438
10.124692 84.546008 33.469929
72.202329 79.391164 18.788629
4.061047 76.995955 45.332121
83.363950 17.938020 1.622509
110.371473 96.485472 10.735416
18.911675 74.792078 50.000000
35.510432 36.043792 14.442955
48.938833 48.315979 0.000000
74.750534 7.990881 14.130272
13.018961 87.156537 9.767223
79.965066 13.964348 30.488169
82.310324 77.544160 49.845399
47.457376 36.493579 49.934889
8.141573 66.387404 25.980008
91.224440 57.961449 50.000000
52.811417 62.694656 0.000000
95.236403 64.337094 50.000000
90.410765 26.176528 4.845907
80.485160 19.266386 47.175430
72.700836 6.434353 11.748272
39.474530 80.018950 50.000000
98.057552 75.554718 0.000000
126.632793 68.584624 12.655585
80.405254 14.478977 18.448127
89.454479 79.896655 0.000000
76.886835 83.846685 24.486809
21.691644 90.128187 47.645967
25.540644 93.331237 47.816324
78.854116 12.769732 40.860659
110.181062 49.290193 26.946200
127.458178 69.807979 4.528660
49.693250 74.678965 0.000000
97.263493 53.089718 50.000000
60.937962 78.703218 46.336126
118.201049 58.666445 35.539719
18.281225 91.902912 39.341499
17.059968 90.801381 21.528054
19.410405 92.921392 34.942950
6.010236 80.834915 6.963628
96.826846 54.657028 0.000000
59.531299 15.643530 0.000000
87.197183 88.042405 48.041738
25.375846 83.028540 50.000000
122.785160 64.239287 41.629601
57.020649 47.853243 50.000000
75.968702 9.292157 37.648670
122.358487 63.526951 26.337896
88.563617 24.017007 20.427555
58.273708 36.222601 50.000000
126.405854 68.268922 22.936057
110.340035 49.476050 2.774407
76.060526 74.863348 0.000000
32.224891 47.466783 48.757442
113.252628 76.372010 0.000000
56.906355 60.021694 50.000000
22.034494 94.687701 42.935909
115.546467 62.214429 48.213564
79.109255 26.887807 49.925288
78.120577 85.020120 27.143381
84.797351 19.613825 28.726296
70.888571 67.938768 49.626549
46.086915 36.188026 0.000000
42.001226 98.882495 4.192513
112.521059 52.025908 0.645788
127.776928 70.460191 26.797419
27.071511 99.831438 31.749362
117.070604 68.195324 0.000000
8.549608 83.125338 16.357545
75.500148 82.527782 30.297709
31.104716 40.928371 22.505157
61.319282 7.590046 9.713782
68.131780 70.768850 47.509585
28.306667 100.945505 38.170516
105.517887 68.463912 0.000000
35.723228 104.545027 22.597123
32.636096 104.850497 20.260517
59.950698 77.169762 0.000000
41.109093 41.160798 0.000000
126.897148 80.426410 40.425524
102.691644 40.534234 5.331562
77.214646 10.748803 36.856445
82.383254 43.076376 0.000000
33.360586 49.135334 0.000000
44.501753 26.075195 21.538489
85.811844 92.335428 15.767721
88.521516 85.037539 49.569532
40.617071 38.016939 0.000000
119.320738 87.973662 17.705238
43.203364 97.798210 19.897710
44.493221 47.550626 50.000000
102.625603 66.595614 0.000000
37.346402 103.080982 2.382351
13.692771 87.764289 31.971312
76.375962 9.818864 40.417703
107.881044 77.975826 50.000000
76.004014 9.333440 35.152831
126.659151 77.006614 45.634206
82.689082 58.044265 50.000000
13.197386 69.620808 0.000000
99.971162 102.253517 33.525466
28.873876 64.889354 0.000000
49.111527 20.964378 2.314203
38.564945 35.623847 45.968109
34.065195 79.083451 0.000000
35.175331 36.415315 21.989752
55.515749 86.692875 38.328122
96.150277 76.865791 0.000000
73.002925 59.880288 50.000000
92.588044 28.722007 11.940052
85.848457 92.370251 20.862490
60.474323 8.380199 7.304154
50.484528 52.159609 0.000000
41.250372 99.559740 19.297645
71.006394 33.528229 50.000000
22.946062 55.211649 47.565772
42.705308 94.337701 0.000000
56.435669 41.456764 50.000000
11.822371 66.636920 47.037615
13.917171 74.575693 0.000000
30.619690 70.516946 0.000000
109.655884 68.497089 50.000000
50.816155 90.931742 6.521837
128.077276 71.074749 18.213024
70.566839 16.873099 0.000000
103.381134 64.679398 50.000000
97.351214 101.823997 4.303660
97.841497 77.389274 50.000000
99.483193 102.253517 18.395379
72.218548 79.406591 3.924958
41.320112 29.602651 25.227158
44.584352 43.576191 0.000000
33.508792 39.361019 43.720934
27.159537 99.401051 42.696990
55.409455 13.981921 16.644573
95.204556 90.372671 0.000000
20.021954 53.237398 40.369307
54.212334 87.868509 18.540060
111.284222 50.579909 17.955262
0.228385 75.160687 5.543654
48.239197 24.162476 45.212823
44.060358 50.503373 0.000000
126.980738 69.068660 9.577386
76.651439 83.622796 31.785830
83.190384 17.735102 20.810516
103.551938 41.540013 22.219348
36.597273 103.756669 11.371255
32.219141 63.801505 50.000000
4.711323 79.663341 35.373273
61.610995 81.195179 18.865526
86.831321 55.075745 50.000000
26.997561 45.481937 5.258835
29.301100 88.192657 0.000000
114.290747 92.757779 13.888336
101.926265 39.639421 7.791354
37.243713 35.365918 43.951720
28.859390 99.311296 45.355187
109.164846 53.840710 47.755346
120.031557 87.297589 26.035380
92.125014 87.197816 0.000000
55.089248 80.650643 48.488663
24.384654 48.378844 14.183991
4.824371 79.765306 5.688348
10.478935 66.590555 0.000000
99.865310 37.229937 2.325194
76.669839 83.640296 5.548938
118.285926 88.957891 36.078795
98.049805 101.074158 44.163150
100.190513 98.313509 0.000000
19.964189 93.420885 19.337537
85.303208 91.851654 31.235412
54.274821 87.812148 39.449326
50.952101 60.693771 50.000000
125.710773 81.885797 29.033535
27.234608 85.995736 0.000000
45.015533 63.855656 0.000000
6.948989 81.681636 28.279976
128.680167 73.737459 38.194643
119.153507 59.779975 1.691371
85.467794 20.397647 37.040279
9.806773 84.259256 17.872177
31.333478 51.127419 49.532424
35.353422 71.239171 50.000000
6.588790 68.108961 26.847001
108.477732 84.055252 0.000000
50.847585 68.003497 50.000000
115.774448 74.100656 50.000000
64.127577 5.891932 21.507971
72.682461 17.293804 0.000000
81.504460 59.223440 0.000000
34.604463 65.584079 0.000000
88.556451 51.670958 0.000000
72.848371 9.285948 46.294656
122.681338 67.543338 0.000000
51.291151 90.503312 9.631724
12.901863 61.959006 43.305373
118.067165 58.509921 31.833659
107.649354 58.589892 49.764796
60.996607 66.528694 0.000000
19.696181 53.576913 18.194660
102.134187 102.080016 18.804223
41.588642 80.866105 50.000000
99.835844 37.195488 11.554756
34.501648 105.646849 8.559994
43.030026 36.675544 49.136574
94.166896 100.164840 33.245152
64.518344 78.572853 33.161362
103.586902 56.623786 0.000000
69.636721 76.950967 8.605863
53.447710 85.577133 0.000000
56.829564 85.507860 24.435525
6.392924 68.326117 24.751657
59.474640 13.982920 47.148290
1.392672 76.592447 41.010919
94.289605 34.308565 46.379449
75.098020 33.855686 50.000000
50.007586 89.198623 0.000000
113.218806 57.508837 0.000000
82.750984 89.424186 39.657370
87.616140 41.095022 0.000000
34.666775 95.699655 0.000000
126.837987 80.584391 30.293153
16.851629 90.060070 42.811829
55.062035 18.114756 46.580640
72.113707 36.643609 50.000000
44.136391 26.480268 34.278766
98.881240 43.416502 0.000000
33.537159 38.231543 34.730328
106.166956 100.335470 33.213149
119.353323 68.588938 48.957260
70.605570 23.536946 0.000000
65.634653 20.829552 0.000000
43.700831 27.121379 41.419416
87.849198 70.724218 50.000000
46.370053 94.941968 2.206026
78.369131 29.330857 0.000000
92.713366 28.868523 26.706889
1.088300 74.207306 22.729082
91.260900 97.515398 40.025116
45.441225 95.779739 16.715187
25.177979 98.123539 11.593283
45.378496 83.753625 0.000000
30.478995 101.319117 0.000000
89.655667 28.675395 46.215377
27.707421 78.923649 0.000000
49.108195 89.505587 46.221063
67.902252 27.939339 0.000000
55.234488 14.175905 2.821992
38.154017 102.352542 17.084046
122.641125 63.857386 16.200442
32.321707 104.566929 2.155837
75.813224 82.825554 37.892402
93.244315 41.437242 0.000000
106.238992 100.277709 7.227966
110.850519 96.029843 27.213782
40.047494 51.878206 50.000000
22.398936 50.580392 23.948449
46.819190 23.505873 25.079507
42.155495 28.676470 32.854615
69.072914 76.414720 16.297493
115.542784 55.558639 25.405387
45.694219 82.444255 49.978992
44.360491 73.631887 0.000000
12.386880 61.680671 19.361774
93.464385 92.125721 0.000000
15.901518 57.784022 29.104665
49.373515 64.431904 50.000000
61.265573 81.506737 38.224330
81.245841 15.967996 42.422266
31.223386 40.796802 31.583980
42.058248 49.794498 0.000000
49.374522 26.720960 0.000000
45.704345 31.174933 0.000000
47.428233 34.275588 0.000000
76.257203 47.894286 50.000000
101.838039 39.536275 2.112927
35.621753 93.083562 0.000000
86.464181 92.955877 7.040973
49.263454 92.332223 15.375585
103.208901 85.488883 0.000000
57.428664 36.080478 0.000000
50.880368 54.798391 50.000000
14.202443 78.073470 49.661245
49.568306 90.714308 44.338813
78.524216 12.279835 28.909918
19.067232 80.470326 0.000000
55.902223 31.111360 50.000000
83.454396 56.060925 50.000000
88.473332 93.992146 43.438649
109.334976 81.100414 50.000000
11.582410 85.714001 41.445269
60.239515 72.988761 49.535189
99.194400 40.258658 46.543720
91.155448 97.417829 26.489703
76.912848 10.395968 15.860556
14.449857 59.393466 37.890467
64.183317 5.867582 6.372718
32.502122 104.729657 28.077145
65.222314 5.530021 11.729691
111.627872 95.290488 7.008175
60.421604 10.186217 44.687094
6.789892 81.538136 20.797023
16.528542 78.155270 49.924027
83.087392 17.614693 11.239706
59.950818 55.998935 0.000000
22.925428 96.091818 11.289238
116.210927 90.931460 28.301530
25.429417 59.050994 49.753972
32.678409 104.888662 25.450625
91.645422 80.053930 0.000000
117.312944 67.354592 49.267178
68.287275 6.650757 45.149886
10.996381 85.332240 36.046210
22.024733 84.759276 0.000000
126.146697 81.394856 24.254214
111.092850 51.290814 43.375248
56.116031 20.558154 0.000000
94.439611 52.760052 50.000000
14.768224 62.306949 46.203279
34.876217 82.562999 0.000000
14.006950 72.340271 0.000000
35.611921 35.931272 0.376785
87.225659 80.074180 0.000000
92.291202 28.374967 37.293270
6.782751 67.893918 38.957337
46.617288 58.399174 50.000000
82.699797 18.047477 43.298812
85.629319 20.586488 39.125865
111.378807 94.326370 44.009516
94.583087 86.966663 49.994892
6.419439 70.680480 0.000000
81.676339 62.441862 0.000000
29.818119 102.135126 41.593666
70.889158 78.142183 19.994522
108.272789 47.059211 38.843958
88.998085 24.524948 7.816846
19.894581 90.843229 45.814450
17.797038 74.599041 0.000000
30.901502 73.507826 50.000000
120.258874 61.072271 10.461365
49.727590 36.006029 50.000000
87.486419 93.928147 31.627569
124.003704 65.450392 26.465420
94.085009 68.498727 0.000000
42.915245 31.084648 46.190777
95.468486 97.245449 0.000000
113.082364 88.320463 0.000000
65.474385 67.027135 0.000000
42.217785 36.116379 0.000000
21.933802 95.197407 32.457152
44.111557 26.507801 16.506406
58.052425 84.404883 12.341703
78.352153 52.632747 0.000000
78.851796 57.994176 50.000000
106.417235 56.761007 49.704185
123.068666 64.357229 24.033664
103.265922 71.605665 0.000000
29.578390 74.591622 0.000000
47.033159 23.420968 41.383723
121.137734 62.099755 6.911373
55.339146 78.770210 49.134281
65.065758 77.665565 42.443601
100.868315 64.408745 50.000000
42.071269 98.819319 16.946925
42.432512 90.848820 0.000000
111.841350 51.231253 2.691441
61.818853 28.122409 0.000000
18.106226 89.683231 45.289136
41.034632 29.919161 11.854730
97.057901 33.947765 3.084063
35.265970 104.572037 0.000000
124.966683 79.559035 46.110806
72.272099 31.590950 0.000000
113.577371 53.260854 38.445911
104.578337 42.739988 15.805034
41.984834 28.865680 15.592789
94.335609 68.813691 50.000000
34.360739 105.773944 28.441746
120.430443 70.216764 0.000000
78.009576 38.595822 0.000000
79.170956 68.795509 50.000000
95.499628 33.379505 43.875680
100.949319 68.372275 50.000000
61.831252 80.996515 11.546138
18.369792 91.982796 4.543519
127.133886 77.332422 0.000000
33.325730 46.740575 0.000000
30.637235 41.446663 24.851909
91.388468 94.908560 0.000000
58.795918 13.668702 0.000000
81.881088 16.204390 1.961195
60.076615 82.579135 36.987670
37.463083 102.975740 6.971148
66.772397 76.539777 16.181666
64.378095 30.294738 50.000000
57.916097 11.202829 36.219080
73.980580 24.218617 0.000000
80.893636 35.268853 0.000000
114.988925 54.981423 40.580675
92.248153 48.350421 0.000000
93.006139 29.210807 14.497968
33.024524 38.893178 40.972243
21.368873 51.722414 27.195037
30.137226 42.654845 42.907480
25.059193 98.016398 31.455523
70.115196 32.426392 0.000000
103.723653 69.583003 0.000000
80.410874 14.485548 9.049565
45.853518 27.028115 0.000000
7.511274 74.496092 0.000000
102.186453 44.124367 46.823537
107.642042 99.081484 27.942842
52.827081 16.844976 26.717857
84.751621 91.327029 9.392936
78.419998 12.925236 43.112571
106.277374 95.342866 47.686470
60.649449 82.062460 16.220176
75.369964 8.602890 0.000000
62.416615 6.780359 28.557522
96.570257 33.377655 18.018888
52.094593 57.730555 0.000000
115.931192 91.197521 20.804141
43.012959 27.725807 21.113698
37.906431 54.951657 0.000000
74.298570 37.594092 50.000000
92.430552 68.060032 50.000000
78.896680 49.276673 50.000000
7.048670 74.901980 48.561476
87.753436 23.069815 24.461238
37.061220 79.812841 50.000000
50.187117 74.573031 50.000000
89.356667 48.117236 50.000000
2.424896 77.601065 28.019622
125.423926 82.168809 18.190782
123.326872 64.659100 9.899933
115.229339 68.209657 49.878913
21.403381 71.997003 0.000000
89.201678 95.559562 20.499129
35.851040 97.882095 48.543599
34.671880 64.723986 50.000000
55.795458 86.440587 33.504181
12.854266 87.007987 12.054965
10.099537 64.216627 11.858890
126.515726 80.979252 19.860428
11.782963 77.624286 49.237467
45.404319 25.074527 18.149199
87.566912 91.315683 45.923072
1.727301 76.971859 23.739941
22.359398 95.581279 15.453384
3.421601 78.500057 29.713093
75.690774 31.814215 50.000000
95.110305 74.615926 50.000000
128.596453 73.026707 12.686295
92.690424 32.629255 0.000000
89.261401 31.196263 48.098841
60.842403 28.740161 50.000000
37.797610 33.508018 27.414392
41.682893 68.904871 0.000000
37.047574 38.831880 47.139291
26.832453 69.966119 0.000000
39.739562 100.922436 38.661445
42.594353 38.639970 0.000000
56.480165 55.041717 50.000000
76.304617 83.292927 28.608839
96.193875 68.353885 0.000000
81.191577 26.727698 49.619647
78.847999 20.101811 0.000000
118.615142 81.778428 48.612989
26.055372 61.073714 49.979795
119.928545 60.686079 29.330529
25.537275 98.447612 23.170575
52.054197 17.701866 33.547303
49.050715 92.524106 8.506599
90.573232 96.864071 7.065824
63.584860 6.129023 26.617073
28.885237 85.144572 50.000000
8.048331 66.490781 31.982441
98.038784 41.539866 0.000000
35.780766 35.744075 39.978928
89.031377 87.954737 48.868978
