18.322555 11.630465 54.364352
17.959451 12.487738 41.908195
78.623630 12.092691 34.523853
80.782474 23.115349 78.690460
98.650163 39.565004 54.339007
59.648180 14.886955 84.200949
30.269593 44.381932 95.548500
4.920900 44.564095 70.804965
63.828910 89.234067 77.671193
94.966739 28.244651 49.612874
40.525262 46.972365 1.044866
81.163071 88.745232 54.705677
66.459411 77.855331 88.063357
39.637754 91.005637 23.429480
10.851578 19.069859 52.496753
81.241946 86.708726 36.902605
56.533441 57.825885 1.109140
86.364018 16.396882 43.452775
95.341207 62.143265 32.927825
2.106174 35.813876 49.015581
71.532362 61.922690 6.542089
84.378355 70.602973 20.197029
23.390860 80.260571 79.500690
79.038381 9.827317 43.607960
4.388396 43.759866 69.466496
53.813486 12.846124 16.804636
36.072234 63.829504 4.055419
97.052261 53.699599 66.260932
13.918998 32.883367 79.988791
49.319344 17.127515 12.386948
6.592872 68.495356 66.358477
20.323526 87.496842 64.528549
32.768492 18.604763 84.842245
25.986614 45.522490 6.430557
78.424705 34.253241 12.074915
2.197525 56.659655 37.132338
38.592693 3.322013 36.340851
56.131984 0.867121 56.709884
4.774471 28.893327 52.124342
78.860182 78.882453 21.195024
68.909121 23.152366 12.355433
66.474510 95.960001 39.263043
38.271944 1.423527 48.593724
23.953032 83.459088 76.387081
36.894327 17.872980 85.965673
82.213686 67.618285 16.120291
66.070253 79.513372 86.944178
65.796394 95.316897 36.131803
97.616459 58.998723 62.026404
2.204587 61.874655 58.307861
25.198493 21.843168 82.990993
49.479224 63.879581 98.014260
89.866934 21.996608 61.095992
84.233775 19.243430 30.573031
56.947453 97.926543 37.734280
11.786195 47.140839 17.988656
17.965398 48.059316 11.707330
42.659090 76.466841 8.281656
44.012522 2.888113 65.539625
93.841592 49.065133 73.872830
54.369248 46.230878 0.410906
80.434053 69.237779 84.621313
13.757746 72.037276 23.621509
19.140931 48.836328 89.272479
93.735787 34.502011 68.425423
60.392242 98.558299 55.804264
73.198453 19.400135 81.959693
58.287765 0.743262 51.823540
68.915978 89.543061 26.026442
65.370530 42.804863 96.976897
44.270011 73.144495 93.869333
72.506948 14.670161 77.212676
9.171468 68.789595 71.827471
6.407491 43.720958 73.622424
15.052030 22.823115 26.876012
62.918324 96.938847 38.782320
85.723554 41.131551 83.750338
38.619715 25.552337 92.077500
8.863956 78.312104 48.266235
68.003696 67.410148 6.752097
33.697877 97.026304 54.378820
42.860698 54.232966 0.776171
90.163368 49.185433 79.654696
29.260108 59.607728 5.563063
4.321760 59.575023 32.215150
45.544445 68.303472 3.717982
93.311812 72.791597 59.914188
44.681056 49.430227 0.333559
19.964919 60.056792 11.342110
72.908042 20.325133 82.991523
88.714076 53.490149 18.646008
35.520102 7.052710 28.983745
50.835919 15.895661 13.508536
46.784616 14.588560 14.907269
47.875065 73.415512 94.048649
45.068580 31.273085 96.054573
2.990926 66.641476 47.422442
37.501157 57.347281 2.203167
32.065719 60.987152 4.713177
16.416991 56.387086 13.554798
10.546439 60.879004 78.615630
42.820138 51.485715 99.398883
29.289204 84.367627 20.213561
8.304808 23.267441 56.448232
3.606468 57.663819 33.210314
25.891445 12.433148 72.483559
21.635054 48.796025 8.899839
65.589752 37.224862 95.686793
8.266280 29.318652 31.896482
60.050477 97.916125 59.948197
59.449238 69.618848 5.061948
39.040237 84.771467 84.175402
14.175253 73.200676 75.911371
16.945629 74.677292 78.182474
54.735273 31.982175 3.651786
54.637347 92.098392 76.533585
23.913253 92.434350 45.848415
55.462110 9.385698 78.565438
55.224679 0.397639 47.135669
68.661022 16.112030 81.604396
87.885636 17.671340 53.841966
79.463797 10.729421 40.760641
38.843644 13.325252 82.036966
72.877644 68.372829 90.412757
49.735291 92.649030 23.962243
32.913030 82.763292 16.407988
49.381024 94.622993 72.483661
43.669918 14.128647 15.807564
64.816857 2.492519 54.701366
41.455371 31.551967 4.350493
19.670648 29.588322 15.982248
14.782162 27.517123 22.619708
17.570058 36.731482 14.396889
88.414004 32.138586 76.524360
80.756055 57.721781 88.554121
64.045100 61.323869 3.430127
85.906869 53.690373 15.482929
84.479030 13.872707 50.985924
37.867242 6.977066 27.695850
0.090982 50.468781 48.764610
82.193820 52.698772 88.102926
18.603028 48.017618 11.154821
53.476943 95.868554 69.550443
82.805672 13.720303 60.126371
10.949539 48.202342 81.111751
15.350384 58.044112 14.968647
7.309674 35.785007 71.715122
37.642197 97.162525 60.971247
76.688210 11.360215 67.000278
45.776325 80.578191 10.719335
47.494342 93.885812 26.228076
18.712530 43.965155 11.490020
90.280559 35.237349 75.554207
45.023661 38.911231 1.533948
84.135739 67.574838 81.973937
37.177124 21.519138 10.994218
56.552161 99.524229 49.164300
9.833128 67.001772 25.672478
75.267961 8.339346 61.024009
80.627420 13.046730 63.877934
93.957334 27.348824 56.916197
65.916067 30.074198 7.077059
46.814444 0.683212 42.455660
27.835567 10.537471 71.153000
48.219037 94.399247 27.115515
89.917537 70.868191 71.578960
74.568945 47.695206 6.573360
89.745914 34.921396 23.808809
9.309857 75.422546 36.014991
77.146972 42.885955 8.703659
11.365727 71.816491 27.052647
44.337794 8.679887 77.490139
85.679443 84.601933 44.737035
20.285750 16.369198 28.069911
76.528346 65.799306 89.228298
99.451170 49.071879 56.916631
66.451690 91.796942 28.111431
1.976674 59.870313 40.411511
69.399720 4.366636 43.835948
14.232516 84.647456 45.753027
5.180824 29.648431 41.578065
95.521613 55.041787 30.118248
8.830788 70.624605 69.331408
68.719499 7.700551 68.954180
44.885543 87.449567 82.704156
70.926623 74.010444 88.462877
68.659591 78.176497 86.835487
16.969929 34.910086 15.707531
77.658531 87.597212 67.850329
86.254298 25.720300 74.311720
70.513666 23.494464 87.009322
84.244129 86.167489 46.233199
64.804610 67.484035 5.594214
73.029200 8.823766 33.577807
77.670365 54.190688 8.664194
14.545374 19.231316 32.955356
28.752590 14.028176 22.624001
0.694540 51.110973 58.037152
6.327257 59.314838 72.384904
75.514740 88.844506 31.687075
43.242833 37.679035 2.096569
43.802468 79.925954 10.508381
67.875950 5.080002 62.600336
95.380428 50.333409 29.175957
6.810444 73.735695 58.066912
37.756658 7.856640 26.082139
46.198740 20.460143 9.895868
14.545293 83.878056 59.522089
55.556972 63.453536 2.218920
35.985013 82.841092 15.088288
57.259622 27.543180 94.013235
43.330920 48.383046 99.472323
23.176855 8.546877 57.566407
95.670749 30.278006 54.235380
78.880652 50.352803 90.734238
34.556027 4.060436 62.249904
44.537993 16.865474 13.041756
77.473825 81.238460 77.680470
83.568756 41.969776 86.064140
23.968576 28.572281 13.115872
46.226524 9.752987 79.376207
86.100315 52.973250 84.389131
35.739676 41.233631 97.038531
26.122236 52.615130 93.806619
10.734976 75.025325 31.855349
72.282668 87.961331 73.621419
38.602400 6.210710 28.810110
1.134722 60.196076 48.132344
83.213810 70.280811 18.702550
81.511110 28.386473 17.804472
98.514082 40.117057 56.761172
55.741847 68.940353 95.850411
15.299318 85.540561 55.309877
10.195796 30.497341 27.025942
12.101068 23.638562 69.035679
43.870351 78.219653 90.773623
26.274904 88.492629 28.759464
22.161786 91.030396 56.018517
21.310010 10.065274 58.980339
64.013003 26.902739 92.000661
87.847714 52.054571 17.435675
15.848117 30.066309 80.521701
45.170409 80.592714 89.182534
86.133987 77.253525 28.837024
11.151273 60.706778 20.448828
20.859897 90.530591 52.154450
89.173313 79.131728 39.426631
46.643967 43.984069 99.482392
44.534833 76.247250 92.128211
65.406653 95.881565 37.503713
73.497173 92.903249 60.128051
27.082628 40.759635 6.600076
49.123577 67.670757 96.759354
0.521729 53.497302 44.348047
89.226021 80.600988 45.468935
28.646414 86.853938 76.119124
4.861644 41.918155 30.197027
63.743154 97.542788 43.000687
36.611512 85.592873 17.623750
33.331593 37.524534 95.407718
84.371728 71.956895 21.126684
89.986555 70.209012 72.046150
47.744606 22.263395 91.475857
32.177060 88.514562 23.641565
0.319878 54.484795 51.954983
1.903706 37.297600 54.480874
72.473174 38.575646 6.886116
84.964820 36.144501 17.100203
94.036273 43.757747 27.255290
48.312817 99.234247 58.428613
96.047933 31.138589 54.117920
33.405145 3.032003 53.841751
86.652831 83.662596 45.570135
73.929214 93.101438 58.040850
94.870082 66.008927 35.076420
26.091276 14.523817 75.801482
69.285748 19.669090 84.663910
13.669592 16.211741 55.914373
25.586785 92.269437 60.805472
28.905458 6.766705 36.519396
26.138437 90.825991 66.092828
94.721993 29.799693 59.373334
33.474369 27.250704 91.260081
93.505194 39.696302 72.285012
74.066162 93.723518 52.224729
97.353979 64.385318 56.788148
50.608760 4.756951 28.834247
80.374197 82.273974 73.035883
66.969175 24.982040 89.801415
18.574958 86.761955 62.503215
68.648130 40.506704 95.385981
90.165013 43.499682 21.007011
10.202063 48.589410 19.811891
90.136837 75.405716 65.541921
10.147377 53.649233 20.119490
77.194335 21.656690 19.082186
98.123171 39.056633 42.411074
35.534796 88.587429 21.784913
41.770090 17.794105 12.715122
96.655379 62.860581 62.296512
46.737285 23.436880 7.843029
23.331296 89.544013 64.887933
93.118804 50.158005 24.770771
47.731853 79.541302 9.803010
49.301796 15.375335 13.937918
81.585447 12.895802 61.056146
98.355272 39.118567 56.273264
82.126144 83.921075 32.326970
89.182593 73.677197 30.055292
66.197010 17.225618 15.975579
78.501802 16.667525 73.919089
24.685729 87.682012 70.880781
39.669573 95.530809 67.792624
2.901732 35.866564 58.835943
80.111109 10.133892 48.393400
6.363210 74.034493 46.222345
4.519408 31.061840 58.194854
12.932552 83.401109 47.871661
11.520768 81.787429 52.564676
43.235428 33.942859 3.216507
8.280428 68.150472 29.383928
80.734016 10.617768 50.573756
8.220044 67.077864 28.595461
72.865451 29.239905 89.255121
52.263148 93.006233 24.690135
11.369233 36.232737 78.549762
56.555161 5.955753 27.312615
18.256825 24.872228 79.307269
22.243176 11.182795 64.790686
42.993363 45.530711 0.776352
41.604890 37.605092 2.350467
71.546767 85.844730 22.706681
59.442455 9.416274 22.441918
32.345420 5.088231 62.917301
69.015991 73.736362 89.607630
64.457661 2.281312 46.753600
1.677237 48.901572 62.609554
32.237608 21.134620 86.702741
42.480994 99.217027 54.331219
8.952383 28.748988 31.030703
67.957558 40.784386 95.693079
74.192849 90.323504 66.926549
87.100367 49.181860 16.602962
96.117350 62.724612 64.332802
40.457900 37.933111 2.492135
17.715206 88.021600 52.914538
55.483695 67.149874 3.410719
4.512819 30.450968 56.476703
2.531048 37.868172 59.573278
88.253766 52.189399 82.098363
6.159722 51.818691 73.920839
2.272134 47.187565 64.406787
92.009860 34.464141 72.049545
11.114706 26.027003 29.788692
79.584630 12.416718 64.515907
1.236845 43.239282 41.495242
49.430357 32.739012 96.889811
41.728929 81.525405 87.879986
76.551110 90.320971 37.081433
14.859791 84.779522 57.253611
42.988145 83.969179 14.038080
51.104664 48.511977 0.094277
57.832694 75.336744 92.333966
20.283230 32.822307 13.697135
23.633726 31.695869 88.287287
95.880831 53.279217 30.590965
69.774869 67.392243 92.445600
46.774467 1.131283 40.131557
12.993281 75.543746 71.743371
53.139330 3.869761 31.017929
53.823259 36.344806 2.091387
90.549412 41.620665 22.070547
92.701315 74.246604 40.790202
30.198712 5.815019 37.569902
27.094621 93.791849 57.353129
40.132103 2.648284 37.372654
31.106950 19.526190 84.775569
51.884708 7.638222 76.469724
70.399671 4.417134 51.551036
20.397152 70.836950 15.592278
42.557949 49.044618 99.361185
82.735317 25.717218 21.134303
1.697091 56.440557 60.986108
82.624452 51.999575 87.830229
73.021871 91.453649 34.277291
86.760106 43.501166 16.823553
4.674730 33.828865 63.284593
47.674310 82.843276 12.454757
41.675939 87.643779 81.806645
67.502689 69.140776 7.300803
46.292579 68.790042 96.120336
31.011280 26.070336 10.489809
5.289400 35.173188 66.574726
13.355848 49.648319 16.073671
75.979185 26.253211 85.460660
97.082040 36.607143 60.047687
75.205623 53.785000 7.066296
9.322355 26.105346 66.375785
16.933682 17.158224 67.979336
19.485157 89.552394 49.109262
78.458416 57.932360 9.744868
51.118958 60.323232 98.856819
25.527742 49.736263 6.449265
74.051634 21.189162 83.004733
63.728713 97.964197 52.586506
51.227122 28.447427 4.942580
29.385204 26.443126 11.094983
1.307182 38.873655 50.475549
0.565553 44.555730 54.721951
91.913362 69.089599 69.306364
24.309609 29.853203 87.810068
8.830960 46.042431 22.038291
33.640417 4.903370 36.074989
65.056001 83.808985 83.538705
65.758368 2.589218 48.079361
59.717547 98.936975 52.557367
42.530741 72.651014 6.119292
99.337440 48.404555 57.607314
20.581585 11.723424 62.865190
73.348851 58.056538 6.612532
10.753910 21.375458 38.313607
17.295069 87.763422 50.915378
7.884574 70.180119 32.281144
91.201287 76.409105 40.089191
55.983433 62.422369 97.992707
86.043557 59.836491 83.161345
25.518628 6.511304 47.742846
21.572565 70.420267 14.339951
70.122937 95.363511 55.764604
74.237489 57.670408 7.037756
66.188589 70.311875 92.649695
13.266968 82.128066 60.666875
67.456594 24.539147 10.728822
90.730339 39.096888 76.749976
6.818612 75.040338 52.311797
94.285387 66.037473 66.621154
79.249531 80.931589 76.123763
42.643304 62.055318 97.883326
63.094745 2.500981 58.425517
42.250832 94.981762 70.300982
99.665528 48.763614 44.876607
85.932457 16.022594 42.871076
60.247027 98.255449 57.938181
22.754202 90.029796 62.402026
66.144182 92.304936 28.823188
96.422102 40.590114 65.823759
8.394395 31.036186 29.945288
3.246405 65.933654 57.431867
92.674890 42.927749 75.012917
96.521875 31.969388 47.338203
32.017721 7.452169 30.913771
36.919781 44.577182 2.071038
62.012144 87.167875 81.169433
38.816050 1.684235 43.859289
92.987299 44.779826 25.074026
83.145839 35.030485 84.215916
61.968485 53.429474 98.357242
66.472403 62.514505 95.436049
49.750960 75.497137 7.034854
46.776827 98.343757 62.247064
1.851517 58.851795 40.200119
10.265203 72.921942 69.717637
69.714982 41.595212 95.093076
98.752839 60.287959 53.527801
14.292710 38.958587 16.868234
38.202781 14.900642 83.553130
4.411006 40.742539 68.160509
56.430393 1.333465 59.379032
4.034862 54.573897 31.029698
99.917877 51.806466 51.356969
29.574662 81.233622 83.211634
58.206252 3.761316 67.085456
24.843088 6.935043 47.228165
66.175395 9.783429 74.862895
7.948169 52.755019 23.147821
66.935336 4.178520 60.559418
5.929046 71.124431 60.414642
54.232754 98.782674 59.943000
83.310158 87.203729 51.962384
55.930713 70.362722 95.222406
32.255822 86.315485 79.334971
39.802095 59.925693 2.107444
65.589610 88.261808 21.933764
72.792025 7.684071 63.742082
74.311917 6.831596 43.641650
48.414431 17.161834 87.595129
84.757546 71.612801 78.696427
11.530446 51.630688 18.189545
31.218502 52.708835 3.810646
11.120844 78.105746 63.970862
96.948428 43.168878 65.574890
89.269533 61.178551 78.750883
29.457773 4.642472 54.030068
18.502029 75.049434 20.371754
63.882714 97.970081 51.346124
83.360552 75.220644 22.630383
70.992797 29.340708 9.648226
3.641655 67.684900 44.139639
78.639117 75.579937 81.955853
50.845351 92.676544 24.032519
48.061798 99.846920 53.263850
85.550455 26.307072 24.136420
8.211770 75.888056 58.798239
77.245181 66.292637 88.548420
26.854476 15.566037 22.144146
3.044822 67.072642 50.371729
76.546635 50.305789 7.697600
94.975371 38.301285 31.734926
66.252727 87.205304 79.130430
54.954927 97.655501 35.807802
17.962097 67.453759 84.169744
68.091048 32.739283 93.262807
52.055684 50.868493 0.113680
23.054580 10.175994 63.635928
87.684635 17.922334 43.162031
95.278508 56.093761 29.783476
89.925048 22.231910 38.523209
32.644257 87.861539 77.592244
99.055535 51.466716 59.319317
50.629450 1.427051 38.181121
23.773361 60.634116 8.847024
82.790060 32.386702 16.660146
19.438743 63.501649 12.853632
68.831261 45.632914 96.068328
96.253424 68.807239 48.177442
65.399803 3.156623 58.009629
95.992561 69.420016 49.041774
74.771398 6.625483 49.019545
54.001948 97.796944 36.016576
79.454068 89.418868 41.297873
6.647720 26.581977 41.897362
51.766882 17.910649 88.256478
65.759543 93.256968 69.376200
56.001942 0.454744 47.684996
76.406090 36.818780 90.285827
46.683499 49.371365 99.808279
56.892850 50.936717 99.473159
62.717659 96.281625 36.101306
41.622552 21.784534 9.618111
51.017565 6.131515 73.900752
71.436150 95.020755 53.019147
95.579990 69.970952 54.044938
61.699362 27.024619 92.755245
91.923847 77.123006 51.215215
30.074737 56.364978 95.374030
67.584774 66.586415 93.719394
95.070843 39.569077 68.831110
2.365467 64.448273 45.671210
14.186018 23.367170 27.583069
63.600330 9.511254 75.923889
12.514936 30.308774 23.550204
47.823504 0.116562 51.902700
69.718730 20.800889 14.604589
46.524070 62.938916 98.102765
6.070477 70.846577 38.516780
96.184032 66.178452 59.995141
71.770506 38.694091 93.516142
86.553581 83.858743 46.486685
83.383128 20.999762 26.725716
5.023863 71.529253 46.405798
93.441274 49.047645 74.624076
40.014251 1.322972 55.349340
57.345219 11.936861 81.525185
58.211853 97.198843 64.221832
57.291020 84.459735 85.451042
44.363586 99.472240 54.204117
21.175838 24.105768 18.475784
39.360608 75.108584 8.120864
52.549688 29.105940 95.322471
83.442066 48.901790 12.925651
39.073978 46.533194 98.587556
16.927695 51.570936 87.393497
9.745022 76.243138 36.327869
47.350791 74.901530 6.764214
31.909344 39.081051 4.758875
4.313604 67.780091 59.633547
81.275562 83.246698 29.747332
91.638217 29.011712 67.905756
4.673584 67.426921 61.793843
68.908594 50.393369 96.241734
40.662595 59.974879 1.919233
15.852868 83.716214 63.854269
40.060261 34.724559 96.484418
38.597040 63.759050 96.655685
57.303912 50.208576 0.585080
0.886970 41.647953 46.459578
14.811807 33.271873 81.265359
0.117516 51.498042 48.114628
9.060316 78.144618 55.282464
58.314575 97.780349 62.003838
4.113445 34.396898 37.954420
49.761539 2.004683 36.133069
46.183663 59.399430 1.095366
78.540700 27.624691 84.338342
73.497633 92.453862 38.033458
6.630567 73.037657 59.004321
8.431665 23.263170 42.786021
26.228820 16.288286 21.840333
22.299436 70.166819 13.673541
5.095474 40.333604 30.304491
43.612779 51.868887 99.512848
57.535434 20.011001 10.792460
29.474890 15.524440 79.804068
0.159516 51.089026 52.914196
57.849529 16.593047 86.295170
69.181774 54.076087 95.934059
66.729746 11.204741 76.651810
49.948658 20.494225 9.703434
11.734617 80.097713 38.899670
0.472944 45.474137 54.575868
74.401078 61.383689 92.046977
50.534819 3.662667 31.316447
81.703185 88.321202 45.380646
4.641736 29.058555 50.597255
45.766223 2.705654 34.381264
94.597839 66.779173 35.073497
24.187857 36.724228 9.355919
71.615121 49.773070 4.994296
77.374945 91.521241 54.668544
77.256921 16.130501 74.588543
30.553719 12.134088 76.152963
25.030418 91.417215 37.500137
84.110686 79.476825 28.519688
59.510988 2.180818 39.085281
36.777260 61.799741 96.691542
41.514788 50.692478 99.211200
8.831843 21.698137 51.105752
45.297375 42.863597 99.218486
33.432070 92.161160 71.138316
21.915954 23.901349 18.005372
17.601311 12.057137 52.777840
19.645633 33.268519 85.947333
90.038024 40.778267 78.431553
24.065327 84.790326 25.216216
40.765527 53.013345 0.988845
32.170303 53.629785 96.497693
59.899471 98.967249 49.957818
47.997944 89.828396 19.878036
89.598719 29.807053 27.211487
36.973103 61.412741 3.146635
98.966059 53.339450 40.795667
4.219558 69.984896 50.238902
7.638542 24.111428 44.600309
9.391499 57.081916 21.828427
17.983580 66.598699 84.565764
85.929594 80.499141 66.535693
28.886866 46.145937 4.903868
27.194732 46.307214 94.252875
10.632910 25.781462 31.085918
18.888118 59.986292 12.186884
73.293603 40.776566 6.798740
22.897276 89.476108 35.709478
48.167545 97.425162 65.723868
36.948223 88.278640 20.673096
53.995433 99.468484 44.179393
75.309999 6.936704 49.607737
87.722312 79.437859 35.630244
68.665748 84.128333 81.357963
37.604801 5.273744 68.512622
18.235397 33.554303 15.148504
36.708944 91.773181 73.987498
59.615961 19.649434 11.522349
72.054068 46.422130 94.666505
46.629008 78.207816 91.109212
39.439151 6.933368 73.016257
24.656374 93.044283 49.500481
73.940621 30.842233 89.435297
78.552870 73.995497 83.241915
77.281044 36.140053 10.503412
87.782259 24.177276 30.007841
33.904467 63.397374 95.371341
73.588829 14.426952 75.938545
6.894408 69.871231 34.489101
58.293640 93.035225 73.966501
78.334277 73.030672 15.936617
54.722183 88.274832 18.239112
55.830267 69.167416 4.255807
51.801925 0.346669 44.762144
8.846547 77.856738 44.965514
78.377372 12.934015 32.187807
29.654971 4.636810 54.924431
77.640090 17.936188 76.549272
47.290686 18.552120 11.264238
31.001177 39.230730 94.910181
14.409274 31.669961 20.141070
20.429885 89.794796 43.720320
51.536925 19.724090 10.314197
79.992204 14.908217 30.901982
57.317969 99.423826 48.729904
24.525519 31.115713 11.403787
50.683626 37.607213 1.644083
38.420160 65.783291 4.063684
45.155811 53.285512 99.611858
61.001509 88.833444 79.417678
6.823315 59.956300 73.151113
11.078284 19.214410 55.697988
80.436157 66.437848 13.973849
84.181242 83.254179 35.185642
52.611711 10.273563 80.203845
47.245837 3.416831 32.167549
64.134441 16.483845 15.755473
56.662472 92.935440 25.353330
27.097491 13.143124 25.227069
49.900323 47.115137 99.859977
87.800191 67.135056 22.205906
30.306165 4.315718 45.265284
3.962614 68.048410 57.236249
68.231624 62.370063 5.161921
4.414259 51.500671 70.389189
35.510523 2.726955 57.307937
66.378245 4.032949 39.140709
49.812880 37.368251 1.685180
42.921544 5.304360 71.177881
98.934420 59.662457 52.848648
80.554697 31.997485 14.770242
56.501512 68.164464 96.104682
13.327247 37.103836 81.340592
0.625434 47.537360 42.821472
81.106556 67.247079 85.091072
72.136405 5.705876 56.874659
87.892860 58.479590 81.435437
96.985675 37.422055 38.738487
57.809033 0.706369 47.176465
25.362076 36.542785 8.687148
28.578983 93.557885 38.186505
3.822687 66.521016 40.643637
59.462752 34.775174 96.603295
61.888768 16.062306 84.671739
1.466477 59.503626 57.036812
34.387582 15.060613 82.127207
25.237283 93.011548 55.678137
98.332728 47.408354 62.293575
66.867353 6.280746 67.323038
96.599728 39.143043 35.657711
88.734136 25.899231 70.313966
3.560221 36.853561 62.833293
79.523999 61.784059 11.498350
40.154192 53.960926 98.793224
97.121229 51.103036 33.518593
56.727572 55.210614 0.769171
30.909288 94.091049 63.760718
37.743360 98.102965 55.635147
74.296609 19.243071 19.048256
23.276870 16.172401 24.769115
32.274123 21.907000 87.330054
25.385191 91.597218 62.636025
32.416745 26.514623 9.588629
14.135354 74.543543 25.371232
12.476298 80.927320 61.415342
59.646467 19.572126 88.409221
35.084070 2.450526 53.852588
90.341535 79.317033 47.281921
18.746696 71.158579 17.237963
7.028138 67.803595 31.689626
29.506150 6.470639 63.453644
26.279864 53.189276 6.165392
86.017482 24.190125 73.035061
94.018130 43.413339 72.659837
14.924811 77.469181 72.621273
74.636466 39.258140 92.096424
57.257869 62.110134 97.909565
71.792049 30.633858 9.464525
86.387107 21.971058 30.353849
88.752662 27.634448 72.214150
34.290436 66.452419 5.528431
76.633178 22.145073 18.208143
57.307609 95.119577 70.149584
62.713390 39.038087 2.976070
55.973318 92.684520 24.716182
68.818506 28.129857 9.226309
71.083900 87.830205 25.074260
36.795688 75.206168 8.935169
92.116190 73.083698 36.347166
48.306148 0.157292 46.486317
46.590483 21.955056 8.790051
74.622485 92.806106 42.413139
12.842564 78.719835 32.945790
28.959031 10.848901 27.190907
9.555623 46.757234 79.094502
49.940787 58.916738 0.863696
25.991317 64.303606 91.414481
68.754561 66.265553 6.675271
74.939299 40.644188 7.743899
13.693740 84.296897 48.665621
81.520743 87.157072 61.075755
49.836360 59.764296 0.999222
93.247397 46.301037 25.301215
89.433697 80.409390 46.243421
20.493759 30.303947 14.865914
12.013564 40.986648 81.126599
6.568861 50.392293 25.381508
2.991889 66.744438 48.240861
61.870177 2.323135 59.101202
22.708162 50.994362 91.818933
22.088673 27.388370 84.720061
41.420613 43.035543 98.716778
29.831358 6.070218 62.676734
88.983354 22.237853 64.330529
89.016788 80.438009 56.701547
4.469424 48.562131 70.503740
34.591975 64.022656 95.416814
89.211980 79.428198 40.499866
1.289730 44.012227 59.364174
87.108591 82.746181 43.305866
86.707029 50.449894 83.832690
0.130183 47.462829 51.159687
42.627202 0.571529 49.456661
26.186592 7.823975 62.369097
8.582305 73.694811 64.743715
69.415347 62.143812 94.364857
13.647559 48.415756 84.224054
79.907566 33.843399 86.567687
28.220811 8.685398 32.290675
41.413950 1.006340 54.672716
52.200104 41.943791 0.770031
17.868529 50.287383 11.791267
62.375395 2.168367 42.577381
70.148972 63.834864 6.428016
29.585800 38.384848 94.084794
2.031478 48.848268 36.184016
98.171700 59.640175 40.916925
48.586840 6.142469 73.893791
98.209399 57.492396 60.662062
54.934314 21.742181 9.082934
21.137535 11.777544 35.827726
47.090071 53.515747 99.711773
84.527688 69.861430 19.891364
2.482204 36.613007 57.802686
88.498192 72.863788 27.863891
78.242753 37.988603 89.398901
10.686640 27.878242 71.472947
62.562097 26.875037 7.560359
23.058758 90.860191 40.024103
75.507908 32.736710 89.325571
30.765670 59.672792 95.075938
89.192274 24.636910 67.795008
88.448218 20.612486 62.343211
54.846985 1.112908 40.918794
41.471196 83.166367 13.655401
53.848676 18.597559 11.327819
54.138176 89.642875 19.849603
7.324159 64.782077 28.690779
71.360153 62.351953 93.420340
4.935783 39.543596 68.876180
69.964524 5.048235 58.723769
89.668367 32.426597 74.772588
56.138790 47.113003 0.520503
44.043379 11.968927 18.139144
3.064179 66.208935 55.198442
40.698450 36.997837 2.673487
21.687487 11.249561 36.174903
26.722569 29.925956 10.648744
29.753244 90.551272 28.978736
15.712847 33.414077 17.703561
38.272291 98.549645 52.264653
7.350501 47.406619 75.858825
81.327176 75.660209 20.758388
70.458706 90.603086 29.295066
80.032939 34.890878 86.914617
85.184044 14.900897 44.878863
15.425172 26.201250 22.925672
31.387229 85.475602 79.826799
16.288291 29.390461 80.586926
76.481919 68.587818 11.956317
27.722707 46.920112 94.575964
30.148334 28.451581 9.527255
66.778775 94.708126 64.693009
53.810971 1.404473 61.083287
99.458965 54.988884 54.704597
63.032841 40.086185 97.197032
23.391811 50.012774 92.238834
76.464404 61.957211 90.609804
77.634873 71.786827 14.544568
40.012963 7.206707 73.765444
64.905216 10.649133 76.921983
38.669124 1.609259 44.730428
16.577171 62.358306 15.000089
79.424704 47.977179 90.367778
66.186977 74.173284 90.614985
11.786096 55.071521 18.267905
57.475626 51.401514 0.616966
50.084110 48.896684 99.926544
80.754236 14.675384 67.378742
11.508636 46.238353 81.563639
89.666209 73.568550 30.841703
43.385903 17.129747 12.971066
1.081341 59.682786 46.995930
13.910863 23.900818 72.614265
48.717789 44.412493 0.355908
2.889718 55.825737 34.352638
24.108596 85.910535 26.857329
70.991567 4.728810 47.634726
31.479740 13.693498 21.130735
91.354992 77.206315 56.559240
36.272684 96.036048 63.830180
25.274998 85.563638 74.868967
17.578470 29.071853 18.290104
78.399134 85.171983 71.258854
15.631278 13.783804 48.861701
46.628548 97.880450 63.852518
87.364950 45.510059 82.805892
25.590591 82.038615 20.433714
42.070065 96.924475 65.200748
42.927089 1.873254 61.388335
78.544443 42.462236 9.725472
43.681664 23.915843 7.890352
81.107202 77.888608 22.615775
98.495893 49.650306 61.832897
88.218522 81.991709 53.430813
84.770415 23.376544 74.024715
84.416849 23.156599 25.699838
36.913578 14.415287 82.508740
5.959522 28.522960 40.199674
24.119098 82.515031 77.733222
38.214710 8.177631 25.328979
7.553572 30.858211 68.089564
91.800337 64.534819 26.847206
62.478309 27.816484 92.973985
15.344624 17.627249 65.696108
75.266576 42.202420 92.362955
24.760264 91.470929 61.759681
23.707810 41.491647 8.419888
93.824882 49.058058 26.095810
22.978688 37.821054 9.781596
25.650775 89.213754 69.109473
11.507553 33.955711 77.446555
97.185494 63.053525 59.978368
64.117868 44.842217 97.629016
32.379739 40.089507 95.693196
79.159356 9.438756 49.111763
0.291202 45.492590 51.207816
74.088812 64.800009 91.168683
70.056357 68.066832 92.035577
54.993279 90.651758 21.402648
35.461575 64.684669 95.459954
68.191309 30.852309 7.618523
56.231263 79.614682 89.735564
2.304798 36.353890 44.162131
48.284257 12.552563 83.058696
67.970059 47.516170 3.456994
57.623518 88.324733 81.117876
66.987452 19.563140 14.236954
88.591621 19.172973 42.514149
54.861621 2.104780 63.346645
1.747927 39.954350 41.676127
53.554120 68.776260 3.855445
29.517804 88.745711 26.050295
62.890428 37.146624 96.493156
97.261131 44.853468 65.279895
19.342103 58.974534 88.423887
11.037597 55.832023 19.264142
89.186827 44.476857 19.534254
5.126814 59.334761 30.115299
94.070521 64.573056 31.571369
3.445472 38.301821 63.708468
19.221969 50.894060 89.331863
75.081781 65.601296 9.720223
6.355981 35.049834 69.169552
26.201711 7.434386 39.098981
78.589045 90.203135 41.991122
83.095987 17.820768 30.868353
34.207727 36.106229 4.661056
21.886638 88.661226 64.490267
79.852104 10.491576 43.326109
72.297641 10.629303 28.813311
18.889900 12.513342 61.190864
28.045023 83.603613 79.713151
93.417771 33.553344 68.363581
37.144300 71.510031 6.769112
91.367217 66.044310 27.105107
76.761799 63.323927 9.995509
13.078700 81.471018 37.982038
42.883999 59.966270 98.434731
48.833323 33.706523 97.208193
37.021430 80.017119 12.253059
23.067645 34.748638 10.799519
3.997090 50.752320 69.447417
95.763174 68.819921 43.273275
62.679620 23.985955 9.275093
50.119073 46.188017 99.780716
66.061413 3.827555 60.382618
55.094763 65.465154 97.194002
37.178936 33.338277 95.310892
87.015116 60.073242 17.981112
64.694947 97.287356 56.802214
14.913288 82.451700 64.529434
60.694095 6.536329 72.178884
52.364408 15.506388 86.103241
85.450232 68.498959 79.952359
65.545732 22.097824 88.435975
49.235311 73.336748 94.162239
28.031056 15.693332 21.068626
26.783176 83.570469 78.805455
87.903141 38.356177 80.349232
86.002717 59.057536 83.395327
83.849837 28.890160 19.933641
26.485733 72.020264 88.165646
94.704641 56.368746 71.431602
97.099410 41.794279 35.567283
40.835290 76.955771 91.018593
78.478206 12.933946 67.655158
12.463678 81.566287 40.330503
63.062133 97.789905 56.464676
1.937636 58.477581 60.516110
37.815176 58.442823 2.313963
74.698612 44.081423 93.020111
20.991597 12.907915 33.291200
64.484044 53.825202 97.640948
72.780120 93.186259 60.552513
66.617373 50.867151 97.072233
27.580933 85.839715 76.591897
43.987622 93.636740 73.570687
23.629529 62.308580 90.580688
25.560152 76.501294 84.552832
10.086236 69.747775 72.580975
5.495867 63.030902 68.566205
48.560155 37.166496 98.253540
28.552984 20.848492 15.581256
96.238912 32.540299 57.248083
23.695559 92.465252 51.530734
42.272717 26.721435 93.511135
18.270180 86.282412 63.100372
83.204337 29.480841 18.843470
82.232071 77.698475 76.268011
38.428389 1.794727 56.233124
35.462885 68.617389 6.001100
12.879668 49.438752 83.433279
1.378559 54.522449 60.376985
17.976096 77.197650 23.014768
7.501856 44.828925 75.705902
77.125695 77.483741 81.699062
79.508655 83.061082 73.020798
67.325477 8.889620 72.462898
7.762344 37.491586 26.482651
66.682191 29.966546 7.402670
42.916400 31.438487 4.183729
42.966961 15.759001 85.710287
36.257642 72.987909 92.138014
30.586682 95.978789 52.919359
19.172681 83.989699 69.788568
79.823458 43.949478 89.644953
11.151282 24.391073 68.159259
70.985851 94.703976 42.418040
80.449573 81.265859 74.327598
66.463031 39.697353 96.018638
44.411941 0.464425 53.335172
84.165182 59.318602 85.215930
68.978233 30.918982 7.946697
51.187774 49.403033 0.095973
49.600911 33.998374 2.693495
40.612793 31.291798 95.343591
29.643999 50.475045 4.392841
92.124288 76.740157 52.228222
48.207444 13.243902 83.778525
83.010542 84.053984 34.261621
77.525702 11.390991 34.289449
3.323514 44.273417 66.861946
44.485388 24.186693 92.398102
74.294361 7.985924 38.057935
55.799413 32.470368 3.570374
47.581284 11.714375 18.012048
75.074527 31.340066 88.952288
5.804830 68.554308 35.957804
21.242518 11.483348 63.560501
45.074355 9.924324 79.461120
65.005876 45.981008 97.482612
81.257340 26.125140 19.193775
53.494718 29.193260 95.281732
39.524545 12.666194 18.466903
47.015388 29.483164 95.428142
73.377709 13.411442 25.313129
29.737104 58.957751 94.781438
65.002036 27.609824 92.037489
68.912856 95.895999 55.877511
0.825253 54.001231 42.213588
1.183504 60.539101 50.991529
98.380485 37.691187 48.125746
56.372338 80.285288 89.197253
51.824542 6.019570 26.340007
60.925396 98.515343 55.133240
67.963205 12.788792 78.111091
4.483209 57.443310 30.831218
44.786604 18.750566 88.629197
20.694851 40.452111 10.698998
96.482093 34.128022 59.030912
51.876838 10.501260 80.559165
24.262932 91.874312 40.982546
76.956524 90.627170 60.888049
24.889658 9.129871 36.060033
33.455997 96.307949 58.889594
81.402492 82.590232 28.870014
71.237320 47.016009 95.092164
35.447556 87.073505 19.824418
19.313094 27.657454 17.508111
28.489639 74.419297 87.920040
10.639874 71.964495 28.443775
69.117720 35.878931 6.054718
31.971561 63.404615 94.605327
62.129900 89.020151 21.265111
19.507501 56.062069 89.132661
81.341404 76.174054 78.741378
71.224832 30.175953 90.629394
3.110078 40.466366 64.319073
2.078099 52.929924 36.287674
68.624150 59.554135 4.613932
98.669279 38.863841 50.806847
77.269222 25.213961 16.264655
94.374812 71.302053 41.345259
18.170911 58.348033 87.543654
86.428278 66.822148 20.239848
52.921732 88.489751 81.693429
15.444001 43.827222 85.561089
70.500127 95.299827 45.192004
32.550640 80.869945 85.173995
4.915685 29.467065 56.321071
91.964330 67.502052 29.259662
66.114098 91.138665 26.703978
65.693043 7.526391 28.836790
3.291724 50.885002 32.386397
22.059856 33.572053 12.024594
13.524934 32.529879 79.330377
2.394225 60.247422 61.202649
86.630692 82.276902 39.354919
86.357558 33.108260 20.185577
21.250907 81.719742 75.817128
58.810795 32.124429 4.188588
58.273108 36.834695 2.543259
1.241025 39.276129 51.284983
10.629320 29.450132 27.167957
51.221986 87.434601 16.900592
49.230178 57.813294 0.669982
77.281587 91.791673 52.299756
39.260772 2.944738 37.077159
58.228525 98.072517 60.823919
34.799212 49.912550 97.547446
79.212951 79.454930 77.818728
82.311325 87.953875 53.412739
95.760368 34.682450 37.124014
50.520637 50.572028 99.917638
32.573240 57.862661 96.131363
43.584046 15.715414 14.207397
18.869873 70.121193 16.512493
64.139503 4.210573 35.810605
27.530256 74.625248 87.204037
84.744913 74.427839 23.717391
78.868454 12.798660 66.766315
53.907589 0.944724 58.624763
64.116365 5.725044 68.432204
3.021834 41.587839 35.335085
60.474080 94.261066 70.762292
41.620864 99.027089 54.702153
91.188420 70.760526 69.190716
72.278647 64.663517 7.766625
34.225654 5.541126 33.485685
4.340289 52.177839 29.794998
53.725684 75.528864 92.774038
67.009158 96.004505 59.689050
44.981608 23.630850 7.885369
86.819006 72.465723 75.192515
99.654174 51.435412 44.737771
89.167505 39.730627 79.252939
30.463251 96.009421 50.833514
58.012422 89.905750 20.992621
90.882726 21.287470 50.277894
79.028643 78.796200 78.735428
14.263665 40.675038 16.374948
74.071566 85.327295 75.835444
51.878447 70.386178 95.552423
23.708137 78.944801 81.082810
25.979339 80.544635 18.623120
13.568357 18.047679 37.754520
34.329554 26.166524 9.004893
70.917398 10.969940 73.110082
79.690385 14.847253 69.450354
51.170186 49.736708 99.904386
63.494261 63.772428 96.094620
35.370634 42.282883 97.100620
71.443203 18.412474 82.245603
17.788725 65.731010 15.220101
71.365876 93.069001 63.550617
36.308205 33.074146 5.056591
32.585238 51.613186 96.807925
19.278011 10.740411 53.210297
61.034900 1.315377 47.620107
86.493938 41.803778 83.059960
12.060350 21.103235 64.857643
97.618045 38.854608 39.814226
29.608680 25.336675 88.367780
97.757753 62.941139 56.779973
24.688850 92.626410 43.682818
10.915717 79.754524 59.015997
29.356490 31.319688 91.452813
43.184192 16.622315 86.543711
17.458252 13.504992 39.802608
67.323330 95.398967 61.601304
74.069459 81.007830 80.891943
68.931964 17.930556 83.297291
63.576050 52.588637 97.990913
59.321213 3.265198 35.006841
1.733843 54.271033 37.844067
97.051382 66.712548 49.345452
94.863375 28.627857 55.489366
28.890953 88.281326 74.158498
38.023457 88.098808 19.996427
60.525293 89.695363 78.468233
9.954917 77.466723 38.344641
87.734057 40.225853 18.702956
42.698220 36.376952 97.501162
46.612192 4.631501 29.362469
22.850115 88.541784 66.491915
21.246872 15.714294 72.259443
82.861436 87.147492 56.111577
54.598342 94.410268 27.534577
70.919070 92.877141 64.840559
95.225849 60.741002 68.280047
96.579169 52.804933 32.116416
99.331462 55.357856 44.101473
79.371796 86.253153 67.828804
14.136559 73.761190 24.655387
62.520804 50.724549 1.674400
26.308634 7.616042 38.152392
50.106606 27.820111 94.751250
76.781933 20.084061 79.694485
48.644132 3.364859 32.143523
4.417810 58.658739 31.550995
29.245851 91.422362 68.698240
85.957784 15.790759 44.287949
34.365090 4.388021 63.099221
90.200556 33.931011 25.127305
46.054555 48.636720 99.769740
54.737864 94.975045 71.229933
34.697324 33.691354 94.650408
81.058303 50.896331 10.920813
86.717612 34.156477 20.080819
19.787974 47.871099 89.735069
50.726880 17.746241 88.132137
33.744032 35.480802 5.024908
69.026435 95.793346 43.783862
45.873698 94.410161 72.570087
34.057545 83.896332 16.952238
43.133034 10.588230 20.080018
56.511007 94.278158 27.722172
56.565596 56.101757 0.831003
26.671048 90.655068 32.717689
57.532444 85.683911 84.138833
98.700947 44.392038 59.688136
84.508611 62.455894 83.910817
76.817341 91.641147 43.487639
40.042930 96.788729 64.400857
39.455020 77.531837 90.330217
12.081337 77.495837 67.342757
61.724957 2.106115 58.037524
52.716238 93.183990 74.954256
17.254476 12.424667 46.357844
71.044624 30.261892 9.227884
38.332271 90.924103 76.165040
98.383528 51.660087 62.282703
34.449030 28.076194 7.874440
56.337128 96.331446 32.400031
55.496031 92.708512 75.346593
41.022574 69.895406 94.918725
68.737224 63.125718 94.408706
16.354444 37.511943 84.726939
52.743526 27.694227 94.630710
23.027114 85.993535 28.293173
22.662078 9.496293 60.381992
13.577423 17.668847 61.086098
42.070453 2.037813 61.512917
98.613525 46.893074 39.001968
10.150273 20.709627 57.036244
74.364257 30.350918 88.922198
66.629448 9.229111 26.408860
14.413490 20.036767 68.164599
76.591048 7.681172 48.824516
89.733663 19.781419 48.153688
56.789917 99.013495 56.893205
6.473723 64.625458 30.336321
38.871521 96.114168 65.745725
23.575739 7.669929 47.114067
46.483772 4.346732 70.013267
83.843259 49.824104 13.303013
90.683004 41.996273 77.834395
12.836477 62.171327 81.029521
3.121227 63.406962 39.124026
8.592163 37.496804 74.934870
33.507254 7.028863 69.409921
89.873272 66.286396 75.247823
58.455996 1.547246 58.906635
6.208759 70.042077 63.169793
94.213919 73.045333 52.741623
83.437431 30.497008 81.543876
65.907499 90.580339 74.408508
30.112811 60.154605 94.711009
47.550165 50.511737 99.861383
5.241326 35.588681 33.164200
10.494761 80.472621 52.178015
34.834694 63.020338 95.762598
74.264705 17.264238 78.885476
73.786312 83.866178 77.987129
99.607185 44.134907 51.983739
28.202183 81.163632 82.429588
75.624156 90.391265 35.558267
21.979987 91.268466 47.336130
32.967996 3.439389 43.855922
93.895273 39.181276 71.283274
87.944998 80.841436 39.806222
2.516912 36.016058 43.171506
70.614547 7.031828 64.979451
27.478577 86.270250 75.910598
5.368944 71.260922 57.420416
97.611268 65.034086 49.282082
56.047696 12.870453 82.885018
16.072832 45.016374 13.664269
72.570029 90.247593 30.808304
49.369753 53.574463 0.184831
39.780245 77.679853 9.691483
46.796475 24.056480 92.552820
85.677643 79.767803 31.703972
29.666137 12.094615 24.561055
8.539984 22.747569 55.669686
54.504689 40.079458 1.243396
35.332726 91.759344 26.823708
78.254724 49.907695 91.154782
66.518543 15.501214 17.816712
24.931835 53.488413 93.045090
81.876118 20.706792 25.099667
34.537114 12.434439 79.111340
25.701593 92.947025 57.798441
89.573855 76.103003 34.266030
91.083927 33.753542 26.716867
66.065599 66.172747 94.415157
19.996325 75.263149 80.960399
14.008456 41.491670 16.445942
65.609230 54.908807 2.811761
51.815211 87.718861 82.739369
88.724447 19.292225 57.230280
13.705397 19.616424 65.966837
56.906219 27.554377 5.915170
58.623978 60.747723 2.002849
42.279300 87.663588 18.080507
36.089624 96.446175 62.055898
17.042165 86.821592 57.317147
91.128719 21.618552 49.481156
95.797176 57.103272 31.396533
58.301540 50.444090 99.229672
92.874789 75.617957 49.768899
45.895413 2.263247 35.826996
17.913491 35.572810 85.463489
86.276942 77.397289 70.701549
57.374386 62.786199 2.281415
7.317914 56.847780 25.007712
23.419788 13.581989 28.511551
31.128739 41.310647 95.396651
44.777488 40.697542 1.184128
14.368499 14.986209 49.129771
53.556678 0.407175 54.882664
40.136224 98.459189 57.285450
19.098290 47.484657 89.191028
79.755876 57.294707 89.440438
33.496699 94.035244 66.917622
34.570965 58.569223 96.702884
52.579075 99.892642 50.658893
70.255883 85.147261 79.157304
49.015648 3.057086 32.933132
7.121892 41.528160 74.136734
4.960242 71.569399 51.519536
94.651975 33.442860 35.002439
74.710178 30.086265 11.445952
49.223276 99.855526 46.503008
65.739173 23.672157 89.423756
63.333985 51.107332 98.104745
10.427653 25.019926 32.432550
76.837185 84.083154 25.228784
47.739097 28.934973 95.238682
32.522175 95.799741 59.735702
77.921546 88.164920 33.876668
42.391816 75.456400 7.675087
70.488434 11.218575 73.911716
22.233901 91.261986 54.712329
68.988808 19.249608 15.530875
43.342769 99.416640 53.430105
38.399368 53.486566 1.568054
60.536950 40.164345 97.856254
4.892647 33.781642 36.029165
90.897145 50.617157 21.306261
54.354349 1.516956 38.626110
1.792075 61.657149 55.681771
33.626366 23.153246 11.213052
44.844564 67.311525 96.592126
19.487871 26.956102 17.855255
17.944905 64.236419 14.425092
91.257256 43.543385 77.405514
31.055326 65.709703 6.551512
22.141341 14.820268 28.034394
94.227734 40.459115 28.763308
47.191153 0.117470 49.228111
18.506842 36.634688 13.616702
2.558381 50.646015 34.389553
97.528995 34.843286 52.447765
60.737294 5.981522 28.899607
75.920826 30.595196 88.001661
71.732596 94.586255 43.925919
1.021349 55.152320 58.399521
23.325086 89.122987 65.895842
62.239333 90.300364 23.118150
70.248981 11.534461 25.402889
23.060730 77.857172 18.483608
52.807926 75.110407 93.133753
69.900763 94.429611 61.320649
8.490658 54.096458 22.542621
71.548332 88.001820 25.755887
83.975884 33.810294 82.840454
2.707674 65.573981 45.964890
98.205907 46.039913 37.654193
60.624304 75.579968 91.567325
82.685862 50.081396 87.781256
36.999953 34.107326 95.523377
28.892245 8.204915 32.571010
92.673111 33.261666 69.841101
45.256826 17.433373 12.430539
28.293947 23.620463 86.419546
91.392578 76.563399 58.742822
75.593574 44.706494 7.422720
99.917877 49.448609 50.931091
93.477298 41.889754 73.148693
5.364857 60.236818 30.004133
19.579114 84.240177 30.015576
39.653360 98.872990 50.558084
42.450868 77.802970 90.835513
3.852425 52.245124 30.980769
27.830534 80.353408 82.911432
20.343465 61.439859 88.513014
33.094936 66.895515 6.146086
48.379632 67.144000 3.103849
86.085153 15.500332 47.719266
18.946141 21.439055 23.224727
59.938695 43.864285 98.578416
34.749675 2.832168 56.319930
50.060772 38.601111 1.386555
96.413822 35.321247 61.139369
15.465828 59.070599 15.088989
93.160536 57.091233 25.905010
25.154853 44.201680 92.963414
7.354582 49.731694 75.958278
7.146913 30.913181 32.902486
0.496482 43.771362 52.428296
25.441447 12.454018 27.949871
4.029337 32.747887 40.848527
82.576396 86.814291 58.909101
41.774869 88.916681 19.769747
83.263330 24.926783 77.650122
59.805304 2.071974 39.877566
22.402476 78.209458 80.651487
92.908845 53.356035 24.636860
70.658926 5.203847 57.942387
45.898692 73.032230 94.128915
22.122410 71.880710 85.237612
95.555654 70.446325 48.642411
2.509378 40.508340 37.702532
18.473894 11.524419 45.468303
57.342004 13.892599 16.273868
97.837294 58.161590 38.296727
9.595813 50.796451 20.675619
68.690099 39.336513 95.096849
93.659890 67.894292 66.490092
98.952361 59.979161 51.143341
2.089558 36.688365 45.237188
93.129391 61.037850 27.394210
51.722931 9.807755 20.335475
25.648527 48.882260 6.379105
80.552981 87.087551 36.301907
4.491354 34.656295 36.360253
23.453371 19.223149 79.041937
75.494308 19.196314 79.951712
82.609205 31.660570 83.100385
25.119082 92.993040 44.735112
7.418570 53.731171 75.793477
23.927309 27.433389 13.885697
26.282761 49.293127 6.057574
36.386885 2.806877 40.785854
41.413582 1.678149 40.592279
98.551502 60.502390 44.658232
6.991274 38.183946 27.523217
16.383281 79.819384 71.821129
56.075467 86.138884 83.928010
98.821105 48.923508 39.468946
52.112295 98.540279 61.791861
32.305105 50.297180 96.693560
44.526490 24.461225 7.420749
66.642747 63.246114 4.817098
58.548139 63.526821 2.684883
61.602761 35.854115 96.491781
77.727325 9.243539 58.150599
33.610422 38.494279 4.232994
39.184503 65.559502 3.812659
73.119646 53.152875 94.158934
82.912873 17.778003 69.382693
31.134320 88.564081 24.480807
42.872819 16.385791 13.742107
96.717017 66.074848 57.187728
20.643849 57.840033 89.607444
72.818773 32.271672 9.240147
83.441912 60.345394 14.372293
71.299599 5.421121 57.476644
42.703532 84.898934 14.988996
63.713310 97.271154 58.682259
99.917877 50.961758 50.553567
65.198614 3.395426 59.619363
16.597426 82.544945 67.925360
76.653251 73.429853 85.136214
99.518918 46.122008 44.929180
39.252857 39.906919 2.268581
18.569316 11.191969 50.788784
43.678707 89.404342 19.946146
82.986812 38.210267 14.432552
90.249715 60.670323 22.396119
21.033939 9.577808 45.087486
74.787229 46.536864 6.802516
86.739119 75.569815 27.807276
48.744805 47.619984 0.095049
99.595191 48.160228 55.983443
98.779510 44.879028 40.547215
93.513758 74.526086 50.078446
33.843479 6.054554 67.470170
48.150242 19.117303 10.786417
40.414332 2.216649 39.000210
9.974636 21.931592 60.373132
79.515276 20.042598 76.920909
19.877510 26.114924 81.912120
0.183121 53.100100 51.343255
50.604142 55.691756 0.380834
95.725575 58.258090 68.296500
30.726314 49.318836 96.049017
62.803381 89.797934 77.380947
32.184458 27.833709 91.063699
90.181371 69.073221 27.291287
57.849646 95.860229 31.736231
66.677073 95.013348 63.844643
62.885112 13.281644 18.655994
72.803825 12.773661 74.315849
58.533771 50.766516 0.813453
5.357167 27.814300 53.319149
87.935140 78.503177 65.672968
8.608813 72.351022 66.775539
54.490592 89.489810 80.291635
89.215017 53.128092 19.253070
26.431013 56.707865 6.469361
52.534260 13.786035 15.690855
79.964393 11.363396 60.180197
15.645271 84.417225 61.574232
49.487766 99.959385 49.132816
43.505341 96.960584 65.763133
73.017175 91.441716 65.761965
84.651290 75.191300 24.287913
19.435507 54.024378 10.712763
53.082767 95.174811 71.109429
29.167094 14.362373 21.889258
89.404233 49.811304 80.647508
77.370053 81.922301 77.017847
4.312582 51.359397 29.821945
84.265934 78.735469 27.731686
5.231997 53.767498 71.761129
30.517743 84.307493 80.658957
41.480212 72.460060 6.200497
49.232402 0.082476 51.895378
56.102346 9.720245 78.939102
59.617755 20.377430 89.043567
71.756644 69.742458 9.628279
15.055590 51.230344 85.661108
66.768333 6.576427 31.881329
39.921371 6.533073 72.468846
64.488799 9.820174 75.939294
24.329266 62.661513 9.091534
28.365263 94.216998 41.306728
41.132919 36.984654 97.422347
94.575109 27.497840 51.060814
12.115807 63.009140 20.160031
15.385760 16.240253 62.532542
82.926464 85.222606 36.903420
15.496784 63.263046 16.421113
70.884221 41.733492 5.416215
1.797036 45.836056 37.598192
4.089842 30.610625 53.276746
93.096184 29.525824 35.269943
8.495472 64.758741 73.525631
72.958997 12.372579 73.546245
17.881567 79.197077 74.747727
16.975813 32.410368 16.892958
73.087421 84.631292 77.678217
9.225288 56.155472 78.196624
41.573160 38.674623 97.911077
90.799015 47.737971 21.209649
93.713182 61.417589 71.311375
47.973171 22.985108 91.946722
84.878114 14.324962 52.299431
45.824757 4.628790 70.488512
6.184541 59.997060 71.833229
74.144619 93.543097 54.036688
78.686344 59.493491 89.796593
58.568811 18.143672 87.557659
45.791741 17.622923 87.815887
22.229090 12.834253 31.430513
79.463264 66.674006 13.298750
90.859997 43.479001 21.995679
53.162620 91.115178 21.818038
11.783535 19.955809 38.590433
70.900015 4.991410 44.262428
56.908769 0.943851 56.470932
22.636776 62.077784 89.998771
49.183459 5.628613 73.002352
14.945675 30.125466 20.524351
78.096591 33.264922 87.765078
30.747999 20.190338 85.152676
34.426454 90.552697 25.330515
15.668455 13.779646 48.057044
1.956149 36.290353 50.775354
