96.477487 28.185249 30.670055
97.920529 1.858294 118.678974
141.888176 174.777873 48.561322
147.307683 12.137778 105.717600
45.530168 101.763428 183.707791
72.731070 138.709973 12.090457
42.470762 135.967417 173.397810
110.508722 4.082971 74.054911
11.181793 64.012030 71.679473
86.243222 13.999092 51.031924
93.183646 2.704869 121.891680
38.537975 167.113568 141.191093
132.651014 191.790172 122.443283
110.167564 0.983264 108.828021
99.420814 168.620380 172.664347
47.013500 67.614683 178.265968
118.436719 195.253139 124.004273
92.225584 113.177307 1.284875
199.602959 94.035310 94.995827
24.344290 66.729874 156.100773
38.340882 22.382852 87.701591
137.846920 20.203323 146.822995
139.072318 27.751352 156.832765
172.126993 69.226447 38.144149
77.785969 44.693951 19.787830
96.509853 5.788376 133.172857
149.919269 74.479397 182.692179
146.514472 106.031931 188.189252
68.866115 57.770466 185.086404
148.733008 25.410294 145.300439
168.563877 114.424643 28.848702
121.033245 178.884063 157.602018
136.456691 47.557290 176.780971
147.296182 20.842999 138.550768
75.033953 53.792741 15.055555
198.242741 102.488669 117.838994
180.594542 44.172376 119.213741
58.122927 150.348160 175.538205
186.980790 54.661094 81.072822
72.194614 180.810502 151.794960
35.154408 108.531939 24.568254
6.213104 68.110556 87.470517
91.249348 130.668434 194.664324
165.233044 47.350795 154.374279
195.055944 71.407086 88.172146
116.718517 196.464392 79.969722
109.733005 113.480038 198.477449
92.833167 49.901324 13.808852
61.573387 74.523198 188.597640
59.764264 169.503587 40.445745
87.506295 35.150930 25.039329
41.540074 82.945579 20.876855
37.885260 36.152181 54.707036
45.273559 21.809891 129.579464
83.199659 186.385894 52.692157
115.664021 35.608829 25.221929
17.907954 128.939913 148.995760
135.844646 162.195225 30.466084
182.451174 43.667039 95.678264
179.585018 43.624580 121.826812
162.670166 90.340362 22.864231
9.531402 82.779810 138.750913
91.887271 190.503514 141.547297
128.420572 151.089700 181.004693
112.988413 167.638762 27.648955
188.980350 64.075522 72.105813
92.670640 84.359432 1.658338
111.125901 61.370893 8.582824
33.487339 120.739465 171.663316
14.652227 60.180992 66.824282
14.135118 49.953604 89.527204
170.041709 127.335673 165.813398
178.894757 44.297403 74.431905
95.199166 122.406203 2.806094
17.198373 152.458046 80.784996
195.645695 73.385078 88.447512
67.332666 193.407966 86.185049
144.201005 10.590523 106.160285
189.207350 118.302342 58.947071
94.172718 106.603954 199.457642
74.663650 27.832970 35.761925
68.643662 161.551222 27.830656
121.032579 155.607303 19.718476
39.991915 49.653596 37.917548
80.906621 125.928259 5.439661
188.573468 144.872048 111.220374
101.124233 29.327248 29.404690
192.846577 92.352812 63.913160
168.781491 168.965307 77.600507
123.453277 178.327371 157.451785
186.129159 84.817337 148.204769
192.156971 115.991668 64.890028
85.776098 26.698054 166.367407
66.418656 13.145308 136.214168
117.381741 149.529521 185.032966
186.466937 49.899444 97.716071
135.625641 172.060171 159.317096
63.716304 42.826788 173.490090
173.467936 90.898523 33.005127
47.807535 41.694072 37.908971
142.813481 34.561720 37.862109
1.314955 115.496296 100.645754
111.545220 11.777415 54.440617
177.400183 154.239740 67.727828
114.398787 4.841074 73.006756
63.954638 100.527057 193.119483
178.182550 96.153676 37.886398
192.786141 116.697185 132.894007
143.465093 10.044630 98.257994
164.111511 176.478615 95.495292
119.866960 145.821882 13.460265
83.180029 4.132264 77.436074
182.278259 79.477999 47.187245
62.938575 22.230827 150.556792
49.839989 61.545402 177.334269
160.925988 29.066584 64.778027
173.085590 168.114073 99.822837
122.737874 4.994388 78.751623
43.352922 163.361502 47.374313
120.157120 41.866641 21.298182
131.778812 86.831148 6.210366
160.784419 21.270328 90.559425
76.218107 195.522582 82.824459
195.220416 112.813373 127.576169
176.560959 150.883967 139.137477
36.753081 23.519740 111.490862
145.716147 134.165978 18.030948
58.171287 185.056375 68.259118
106.535288 107.554748 0.597640
57.183490 21.982398 54.563711
93.107803 131.879003 5.626366
48.561156 153.788611 166.614623
40.598475 19.629954 101.368344
125.136168 168.643646 168.129359
68.148143 42.892627 175.570949
147.625275 187.555481 107.106982
143.311466 138.191222 181.487368
35.157792 123.931142 172.070717
24.805095 70.928676 40.977003
105.705410 191.959242 61.143033
134.149032 10.418452 71.807108
106.799338 192.129864 138.217455
76.022702 29.419130 166.568407
182.023938 63.157995 56.519199
47.781521 61.574386 175.992139
3.691531 83.455417 79.526855
174.809889 90.239975 34.570713
89.212794 40.278283 20.686832
54.182669 172.264447 48.469930
132.522872 20.047390 49.551814
136.608234 179.467480 51.673917
47.807108 169.295396 50.338653
162.871861 23.969754 84.252215
154.383467 31.067101 147.744470
25.007065 163.969312 116.371091
98.336839 146.829234 188.245520
110.487758 27.622042 168.058854
147.268164 128.130261 183.407833
13.566438 136.822577 133.906058
54.634218 10.954735 98.688935
81.520717 185.482536 51.664354
22.298118 160.569857 116.356299
174.574400 163.628815 80.587524
98.382246 64.107265 6.707791
150.212963 169.190066 151.797962
141.122278 131.815692 14.738269
83.438698 178.462118 159.618497
3.525840 100.982613 74.197282
194.361315 85.132596 129.167360
35.562209 25.518591 82.912840
10.589484 102.149890 144.435064
153.870196 183.111317 86.896858
17.745719 151.445458 123.762863
24.785250 47.513657 139.626651
49.239114 173.854126 144.206437
38.426541 40.621411 48.457198
93.611525 28.963528 30.034551
152.055383 117.241430 16.492779
138.748141 129.414171 12.773374
51.616315 186.894955 90.572633
179.142348 77.001331 156.452657
179.059808 79.446276 157.551901
60.021465 36.344712 34.152671
152.698233 137.873169 24.091924
88.132926 187.549919 146.686652
136.756876 70.814354 188.219816
112.470545 134.723856 7.117502
29.350235 65.726497 38.224514
162.421571 25.554403 123.556347
155.506895 175.555784 65.412679
135.409977 112.121851 192.658087
38.449394 104.527214 21.382335
153.664303 83.722989 182.614892
7.410940 137.004253 93.757592
182.615971 116.640443 153.533696
9.661999 67.644722 127.618195
139.790110 61.713033 16.789258
35.625670 123.148974 27.268990
146.324681 147.918207 25.561828
100.633776 106.556904 0.360549
129.085851 171.580763 36.703744
98.810471 43.775683 17.360819
39.680397 51.381760 36.887396
119.167904 1.936573 100.382973
66.519977 161.766820 28.955462
77.775746 180.665970 45.367822
188.044351 66.226288 133.030129
96.645209 26.576609 167.663716
111.456655 127.938143 195.261620
196.700590 87.850097 77.904558
117.551792 70.798541 6.114847
37.291007 177.666591 96.205795
115.683588 18.177421 44.878356
37.500258 99.295816 22.054716
102.984122 180.338383 159.405235
195.842412 76.661063 115.429734
188.079149 144.731838 85.325101
158.193310 155.197545 40.451360
190.270189 132.274434 128.014449
6.100744 113.470132 131.457448
11.145856 145.083803 92.471695
171.324013 107.919663 169.511688
20.866532 46.137534 71.499190
90.974594 118.879623 197.710786
13.470093 62.683869 66.929685
126.142789 190.226227 65.983732
159.946104 22.925372 78.932836
86.240178 198.817094 106.242369
72.334079 193.906562 120.001642
104.430878 170.001762 28.779454
177.383289 37.367820 91.043873
89.350180 183.936806 153.209136
93.645262 168.348863 27.374949
24.722234 57.275554 50.015110
170.980143 159.128567 62.054076
150.307267 14.158255 109.073088
70.434219 69.356775 9.680188
162.641365 75.995392 25.999804
160.296097 133.996398 27.966332
70.557646 91.392398 4.989583
61.398966 178.273119 148.664014
124.706644 8.963525 132.979318
123.630102 17.118847 150.522268
87.558911 21.989892 38.843908
79.888281 33.045156 28.631534
114.139165 8.771232 61.744537
80.035270 161.985105 175.799535
88.664356 82.972390 2.237551
55.891069 165.328385 161.342358
80.249852 40.647588 22.123969
115.145002 178.477618 159.945205
85.121071 119.131762 3.092184
170.364978 156.888594 57.507006
127.408335 63.879921 189.073231
21.643883 45.336355 129.111720
174.116658 120.019317 36.011216
188.491778 54.586627 109.058913
197.910234 104.339700 119.702867
158.807635 164.081329 50.747228
32.511867 67.160638 34.140092
173.992344 32.910290 97.512231
154.648045 183.658281 98.137839
134.277531 161.631577 170.762338
53.005207 73.917763 15.743976
59.045705 9.226503 108.081865
134.749724 124.369099 9.607407
8.354046 60.201818 100.184929
145.253799 60.349687 179.689194
15.718372 105.060056 46.527357
113.842120 3.589135 77.652960
180.608532 73.293447 47.406294
159.047679 122.121785 22.540858
106.981712 174.416143 166.343442
79.484138 39.352420 23.296193
157.627775 75.677635 22.101693
68.018920 106.529442 194.384173
7.135699 71.864058 124.010101
89.815761 169.000884 28.420194
81.030530 41.749037 178.902485
133.064147 91.123375 193.790143
52.365237 158.256830 165.688233
183.448805 45.122672 98.170429
2.545287 78.681149 104.897218
177.817614 121.940034 158.614395
173.747746 53.976688 149.155208
48.984497 120.962526 183.277395
135.243181 181.110937 146.508332
114.070744 63.622778 7.988900
71.861294 192.803873 124.093975
58.068323 12.525754 123.952943
103.752272 144.286786 10.531425
50.600818 134.199991 20.209148
15.796796 141.585138 134.057105
88.980611 129.726697 194.732455
81.638308 61.085809 190.127369
5.611597 102.062742 67.299415
87.659835 110.334302 1.425890
182.158681 149.435604 128.086479
53.278149 186.922039 84.332236
19.293839 93.009096 41.621811
195.000474 111.850557 71.244733
113.154500 131.942835 193.745008
81.618209 141.219832 10.883979
196.371206 74.638777 106.469172
155.334628 168.682606 52.978417
25.748183 44.285343 63.074976
33.912617 60.805962 163.769205
171.042317 153.693025 145.191718
31.753359 136.552596 36.827831
4.350798 72.473969 90.899681
3.416759 94.783138 74.909555
15.621788 133.672536 58.518661
117.121242 9.530095 61.226944
187.713427 53.315055 89.604533
50.189897 185.749005 112.321682
76.731695 149.141407 183.867160
8.192425 66.619348 79.200508
21.908722 155.585046 128.178610
75.597130 191.707154 68.569438
151.111509 60.478476 176.128768
17.561061 156.438256 102.260774
94.926534 0.604259 90.976893
178.116915 42.410918 76.141942
79.982892 197.366535 89.527424
183.285378 148.702259 74.042566
84.766475 94.692175 1.432280
151.848916 47.827894 167.573116
68.529385 169.387528 35.297261
171.166235 148.441518 150.730333
172.565374 144.081531 152.664670
25.511652 117.690367 35.875813
78.088236 185.678661 146.514062
108.650751 18.082653 156.539009
117.846410 124.864161 195.039370
99.607174 37.609546 21.938445
149.037186 45.491449 32.131427
66.293653 37.427013 29.748831
165.385199 35.808506 60.135703
81.349833 198.142471 102.214977
88.935334 57.343996 10.301023
128.901451 11.364615 136.100912
20.674017 39.847298 108.067156
120.912637 2.452585 105.794007
45.529645 124.519110 180.074210
115.986774 190.232026 60.180560
186.531054 81.294882 146.234290
194.837377 129.117897 112.077395
110.220033 43.028636 181.488997
167.969816 28.701741 116.543510
10.261437 132.326384 70.306092
40.037500 106.947663 20.460622
126.024310 183.545069 51.752831
70.703273 18.104370 149.133032
154.458145 165.067955 152.766943
75.480894 86.860516 4.038093
48.114387 150.346689 168.983356
111.195161 176.421899 163.355698
181.324647 135.401916 53.914744
67.191322 109.928622 6.164825
97.582946 191.122894 59.064564
94.610904 168.790070 27.707062
33.202260 78.786021 171.261665
65.022238 8.944308 121.697219
39.819050 133.143289 27.506910
32.962453 32.418190 130.326097
100.216489 45.404967 183.640152
180.050076 125.955132 46.195029
139.992290 70.404443 186.591929
199.446269 101.091012 91.161990
133.605467 7.563356 82.242839
84.020960 149.187672 185.545595
79.032075 86.664241 196.739752
174.473937 156.943302 65.304377
63.999898 16.233378 59.092064
21.585896 120.630022 41.582797
128.758766 4.602731 92.309642
108.455638 98.166958 0.508126
65.421439 44.808337 175.803842
45.054198 179.782131 124.702933
31.148974 124.188158 31.860923
162.945485 42.210475 151.840802
69.373761 24.510195 157.882406
185.644190 139.684847 67.242930
104.799411 57.836102 9.508942
91.556279 46.744432 15.885473
18.458441 153.813526 120.879352
196.015061 104.117848 127.545315
101.034249 33.515578 174.522544
169.898673 84.412522 169.636569
114.462231 16.118973 47.634279
177.863254 129.762092 44.895595
106.908954 4.236327 127.657319
20.926679 54.189471 59.701556
7.345208 66.372911 116.298453
143.482045 54.030268 177.247140
112.536640 5.475598 130.012093
113.528068 87.392147 198.231371
181.217850 68.874045 149.098933
193.927149 68.728937 113.184646
155.342650 125.975045 21.013572
1.345682 84.960201 96.784211
93.019231 101.989477 199.595248
33.752540 45.260363 49.015556
10.498131 111.132349 57.075619
2.849495 80.813903 86.842694
197.504748 81.107257 111.010191
142.700819 174.966703 49.487765
119.135385 197.875352 93.876764
111.655117 196.690067 122.476088
146.104849 164.300543 38.969750
177.418143 78.711869 40.598864
44.268296 92.162487 17.449301
170.338463 119.072777 168.404900
167.265101 43.618204 147.848413
171.618604 31.778259 85.700577
57.600793 19.152125 140.624290
155.365074 89.430167 182.442589
39.334926 177.225153 81.741314
188.094403 65.602209 132.233010
108.470235 135.605919 192.982718
53.641175 71.704238 183.920864
111.087446 187.429291 147.106339
58.246427 164.797684 36.429648
155.238662 59.564623 172.733361
50.985889 148.300121 172.464297
40.581089 61.234804 29.730870
135.065238 131.168555 188.187381
199.795060 95.468897 101.478678
69.526083 65.034708 11.479042
149.174981 165.388330 42.649688
196.082570 79.383006 81.902940
34.315249 97.858295 24.814538
93.180133 188.439184 146.116653
158.706219 40.833002 44.961117
116.022577 197.848225 112.336032
25.145156 52.254155 54.253024
21.054847 86.640834 40.192703
150.595200 81.507312 15.847900
59.825793 35.010280 35.659087
176.381763 137.732690 47.839490
76.859811 56.818401 187.141708
106.858227 3.525522 125.130324
5.612947 83.497130 128.048207
92.832737 195.092757 70.027753
44.758386 37.280674 154.771515
132.403972 79.800562 7.667762
19.558691 124.026263 154.073161
163.942544 66.976539 169.228932
197.598601 79.860935 92.760737
183.727872 127.151382 147.303096
122.991617 6.784965 72.343828
20.242737 149.752272 65.961221
31.438513 138.135624 161.886577
138.080779 27.487860 157.168735
69.762760 34.677002 30.734276
165.525539 24.628749 103.840034
21.496037 144.728905 142.652059
165.401641 92.612698 24.829020
1.240640 114.493034 97.180701
130.064414 5.603895 86.770138
193.268090 121.596006 128.572389
130.843053 169.047835 34.647890
107.138535 46.133369 183.796058
89.890554 63.865404 192.641070
36.881915 71.798658 172.129317
92.107409 125.332260 3.717504
11.631671 143.188700 117.604268
57.891830 189.906634 111.234869
5.546630 131.892721 105.863179
44.141944 82.857290 181.012013
67.425589 17.145232 54.678292
16.816172 151.274099 79.018578
90.347798 195.549808 127.614118
127.984399 166.718570 31.088089
87.173709 197.900649 84.697091
176.419178 44.591381 67.319684
57.172899 189.440180 87.727251
69.913303 164.523319 29.908234
6.313900 67.461225 111.574842
139.267366 42.780840 171.900318
171.004388 165.613565 125.085983
115.497068 192.488369 134.557111
131.246994 68.433507 10.573835
144.464095 15.058306 128.235057
162.564548 172.927082 127.293824
30.665066 61.930762 161.000486
85.979102 7.424781 65.064752
45.341004 169.552251 146.517586
6.231590 134.373619 97.646722
0.670124 107.419492 92.280739
75.514786 105.277027 196.711166
133.479511 135.170235 187.341122
180.882578 51.412902 132.834717
171.328786 100.606200 30.031949
9.914457 96.021534 143.033355
62.814819 20.284869 52.486227
27.396726 163.119879 127.092678
87.762052 0.915024 104.113700
56.540101 128.392315 185.354393
146.859372 80.447852 13.955361
76.232837 109.852854 196.496467
115.457942 7.280039 133.904217
14.118579 86.224860 50.922967
126.059154 56.611083 186.180033
5.718358 73.817031 119.985591
143.477594 17.702693 136.332011
128.962845 5.817171 116.687018
24.375522 38.149727 120.876978
96.076257 83.107602 198.346693
172.147608 165.522762 121.959424
83.645078 110.630627 197.972734
131.404703 194.753575 105.642046
117.114420 40.751976 178.593068
129.730211 112.420297 5.354827
129.042866 195.202862 109.126740
59.446475 160.226498 168.580188
106.563654 192.486361 137.305945
44.062616 126.767583 21.687320
84.434956 198.100999 110.868561
157.253218 20.932843 121.417511
198.971162 113.098233 104.623011
185.582905 82.723950 51.492954
151.872297 162.476531 41.745980
178.297410 94.977379 38.168882
177.722001 37.189601 100.185755
63.910188 169.348833 162.307321
58.073642 26.596134 153.285400
47.788943 168.470270 49.308477
51.079985 20.475593 135.677604
42.746036 150.267033 35.337879
34.595902 166.514495 64.253033
195.176030 82.744731 75.222225
4.942103 69.359122 98.707822
100.080014 8.019790 139.207907
189.913320 116.256296 59.742947
5.504470 88.555927 69.582349
70.580658 6.891142 78.838351
121.290138 70.314493 6.977976
17.308525 113.308982 45.515929
2.592084 87.245137 81.803765
161.639240 104.645053 21.524746
11.201234 54.234125 99.362828
61.478011 145.082737 19.623207
43.942148 47.910047 35.825473
18.822100 108.551967 157.486925
27.684214 42.085934 62.561370
152.006314 159.495564 161.119895
55.344814 70.036975 184.160999
105.559287 38.000653 178.171179
192.470319 74.126067 72.356660
163.717282 32.192535 63.584635
132.879390 175.789802 156.210420
190.800060 139.732977 112.379926
12.951186 57.920036 125.141354
120.594372 123.184672 5.050220
39.152445 159.436660 47.652292
139.500609 147.775401 178.370069
4.619974 74.257482 85.114030
26.556164 39.650872 130.702182
129.206140 195.517505 97.037168
174.796438 129.921035 40.972030
75.882251 3.343363 91.906690
38.089194 119.517479 175.995202
186.554175 53.269286 117.484481
165.039427 173.601108 118.389936
82.537862 3.258257 118.081522
28.002465 156.028845 140.752493
195.781577 126.273243 89.076672
24.169299 69.227627 42.698280
143.586219 174.403362 49.417169
41.903184 98.615513 181.198645
183.742600 146.513286 71.813160
101.829288 198.864386 85.393876
129.016471 174.179632 160.355910
175.933372 48.199860 139.084293
169.656992 135.896397 38.018310
174.809888 79.046941 162.877831
121.647671 10.809068 139.538346
52.169525 182.018151 131.110102
193.695291 76.477359 74.712282
4.323427 71.838469 106.413101
43.974005 18.359457 86.649926
119.709320 59.628024 189.234415
155.002338 156.854862 38.895428
168.221975 52.675048 44.455123
42.384238 133.996634 174.207317
137.684436 191.582829 113.546067
140.642652 189.907867 115.773645
126.855140 102.957543 196.158656
59.612485 58.190157 18.761915
22.186317 71.946441 43.944845
108.002548 155.888278 17.576406
135.616393 6.807273 105.373952
3.443792 122.560890 88.257783
12.124254 52.647404 97.152109
71.667603 74.821730 192.379215
74.757815 116.766201 195.192817
80.424992 148.189642 185.261665
150.217033 180.968577 130.142493
175.829219 46.473813 63.039298
109.057102 2.313802 118.965579
2.634454 83.964150 84.401086
95.593677 112.457962 0.961461
114.068674 114.901925 2.198990
132.622485 7.443393 118.929779
161.402397 28.227413 132.471679
189.503411 141.044776 116.817376
32.801688 136.672448 35.830797
52.011877 23.793989 143.325690
49.273750 165.714315 44.437696
58.197162 187.456310 124.234008
148.665490 166.352939 156.664498
188.750397 63.171932 127.373808
193.608314 68.986922 84.349429
83.864402 4.379482 124.116974
182.408426 118.519951 46.707876
143.498617 95.984458 189.888846
81.711669 167.772949 28.899347
8.670371 96.013796 140.449981
129.419217 161.530350 26.968275
109.064532 3.230835 123.341478
31.238579 40.353069 58.916468
61.530288 117.808217 190.421087
157.947206 165.825940 52.127213
110.592593 169.858425 29.294890
194.541953 131.620613 94.144090
82.277691 152.376598 183.170528
174.522153 127.249877 160.771412
75.370043 177.436355 158.093439
139.629718 165.473953 164.238930
168.095452 33.558281 69.604858
169.597443 131.142721 35.526225
53.499759 128.080345 183.929736
61.394857 190.332868 118.180362
132.266284 7.088571 82.389570
130.034969 103.416700 195.295027
148.793573 157.387000 165.706903
15.468035 151.366218 114.256148
33.530970 104.289972 25.522229
152.610906 37.950128 157.999074
90.583358 60.970059 8.504562
96.145275 198.939515 113.567275
173.833784 165.567498 115.296496
87.553864 2.456071 82.204863
8.858075 139.727506 90.603381
194.274857 68.212885 108.440446
33.122606 152.866060 47.921553
40.856137 102.974953 180.431374
166.632579 138.256050 36.167502
61.062060 142.957228 18.584402
54.655261 39.360505 165.148477
138.412303 16.240001 138.691035
0.135918 99.410063 101.342828
103.350417 177.023819 163.543047
180.095375 44.450385 78.063306
33.156918 79.428596 28.568235
58.265980 9.690850 90.860714
37.856308 170.732803 133.477673
126.075907 87.023554 195.544093
146.452914 169.566445 154.732339
24.484339 43.174178 132.677204
24.002138 146.566049 145.020955
114.458362 86.183059 2.092160
16.726558 44.997022 95.948224
196.874138 103.294573 75.863256
34.617481 38.341331 56.360558
166.990338 171.917234 117.807704
187.925534 119.331341 143.401155
50.721870 95.840096 13.116057
64.980113 137.591831 14.367583
139.765157 139.002806 182.887129
192.485909 94.191099 137.294937
193.345759 135.193448 94.138910
139.974170 35.836726 165.389466
72.985681 160.170173 175.052861
94.346962 5.063225 69.136685
115.980161 174.145335 165.077897
50.235225 63.773646 21.309762
62.818317 188.447521 128.146232
88.022938 154.905240 17.432936
145.618301 74.833901 185.197985
164.995538 24.906231 111.251928
49.696935 161.544256 39.489025
171.442613 57.754976 44.382861
76.733448 105.871658 3.059880
66.505490 193.237269 87.082872
17.695808 97.288204 43.482342
159.988755 156.499510 156.552525
187.779293 52.381419 103.549247
177.605968 162.964943 98.940389
9.436009 142.156209 102.078583
110.718747 193.371753 133.920912
32.128754 56.457854 40.987219
123.948649 11.497038 139.892840
8.784023 64.393907 119.928620
77.467451 146.311798 185.596698
187.446615 57.968032 123.876801
157.590798 72.776033 22.986194
181.370645 153.343086 122.584139
96.643611 39.187562 179.165043
76.801068 191.944666 68.307238
47.421169 28.431219 54.261591
23.930330 145.778679 54.285293
181.248359 141.255458 140.941069
173.647072 125.781133 162.391456
51.161665 153.044315 30.896722
72.396837 41.982372 176.561751
125.271295 177.059538 158.327303
42.253697 173.357749 64.421762
198.553518 110.758997 87.390624
117.689848 181.106893 155.641286
181.672368 157.417740 104.543516
61.297977 47.235625 24.563801
15.718639 82.259876 150.532695
179.916337 54.648694 60.787855
109.278595 176.924727 163.085732
12.221314 92.608486 52.862176
151.488754 14.375403 98.848385
43.729578 70.256086 176.951870
0.402993 99.009061 92.114877
50.324945 82.839511 15.080255
101.521929 139.864396 8.462956
66.505714 191.777220 121.223444
112.516417 143.030348 10.624551
128.158799 63.201874 11.444384
57.388252 48.693790 174.407969
36.704024 36.439580 144.052872
137.224392 192.267072 109.656671
6.431758 134.057332 91.615882
30.496930 63.629418 38.070636
74.669340 157.432473 177.740441
163.459212 24.041181 113.757248
10.465290 135.505707 73.390936
148.524316 105.990700 12.931159
133.157991 41.932840 174.215739
175.158699 137.264465 45.752203
83.095472 2.877890 116.718164
158.282515 35.481014 50.743718
25.611873 96.844783 166.689192
161.906543 177.320863 86.904711
56.146726 188.829108 113.345163
27.952717 36.845923 128.466614
189.664406 82.892091 59.515629
195.140041 107.501426 129.437065
32.644575 173.732537 102.972910
151.203357 37.684396 40.950898
51.426547 147.166672 173.458505
134.967264 192.288895 84.120740
94.951673 145.466261 11.234605
97.788838 14.197080 48.859345
22.402529 149.090478 60.601154
103.200503 94.620510 199.682075
56.811103 36.652932 35.809131
177.937060 155.090760 129.602959
84.553160 36.914197 175.983013
49.745567 14.646108 113.269560
140.740895 89.465326 9.428850
164.349273 151.450590 156.483227
30.611037 40.516542 59.743904
78.561871 31.868071 30.143273
22.268365 158.516606 122.584992
135.908508 58.770699 16.393596
31.423622 159.634706 141.417210
189.694719 86.497110 58.110390
152.104083 157.668579 37.203551
10.374241 103.551400 56.011889
123.904727 100.776449 3.040026
2.424260 120.098037 91.577934
178.901026 131.533579 152.452482
133.851721 11.921144 66.998724
182.979698 69.376595 53.631187
123.769802 24.236861 39.325971
15.601513 125.047448 52.849211
133.347065 73.261726 9.720877
81.806959 191.713570 64.642484
135.477403 8.491096 81.108301
68.582842 5.753427 110.910916
141.870292 77.742776 187.891281
153.288056 96.617488 15.526072
179.275254 45.301704 73.576897
36.465089 106.144483 23.177733
154.420750 53.011669 169.297563
19.109630 47.824416 126.770477
38.318632 22.647131 113.787282
114.735603 146.629991 12.929153
182.674342 140.096320 139.221795
107.847909 0.363031 97.114026
115.227398 2.764185 117.552638
167.330007 43.349119 52.516380
182.563619 156.278305 97.804855
0.902373 94.322751 88.972676
1.908011 90.628877 116.519671
25.998638 105.783427 33.077577
147.147548 164.420406 39.936983
175.083575 90.169380 165.117663
155.836917 171.958962 58.990832
55.209438 16.304069 68.786319
126.783557 95.529077 3.859044
145.101886 172.930624 48.718930
117.094864 2.441242 113.266024
182.612780 147.508233 129.897258
106.310004 186.678916 50.722229
41.833226 161.282608 153.327414
37.263683 170.977753 68.279970
69.816269 162.705664 171.711827
52.210293 175.339286 54.956154
33.839849 65.287172 33.677683
185.218709 94.300019 151.809315
61.886135 7.987446 91.105072
66.196382 192.297512 81.782916
191.786624 72.903164 128.723798
38.949220 161.008058 49.742229
81.562344 57.897914 188.718024
154.854983 91.184849 182.955821
109.972343 1.805338 84.381493
113.263984 72.428486 195.177607
89.119030 141.389584 190.270058
38.018099 139.909035 167.403980
61.567327 29.510735 159.476115
195.162103 83.572145 74.612107
79.724529 125.783032 5.672780
158.603983 36.511961 49.737997
76.085148 195.558542 116.770205
48.903726 175.391055 58.852767
50.316016 126.098923 182.610722
59.346184 63.620786 16.304959
120.698612 51.027625 15.398125
18.888297 55.713871 137.908139
48.237866 23.235973 137.508332
195.537513 129.123913 99.499624
125.864911 151.776464 18.533076
148.784300 110.094726 186.544109
172.037869 165.675849 78.139027
194.114235 66.609300 99.471758
22.960312 43.453588 129.220553
146.947066 13.172124 115.400568
30.964958 155.122890 146.628637
159.255197 25.008736 70.673289
198.157670 101.494599 81.644374
8.549447 113.271093 137.984245
104.868401 41.580292 180.936173
71.382269 195.651189 96.022108
65.149260 12.896372 134.343935
121.897542 145.973803 185.905683
169.159590 28.464294 90.981830
37.340929 117.673280 175.743073
63.063068 26.352732 43.460466
21.554510 121.235710 158.112844
135.391843 30.077514 38.004168
14.171411 142.782483 128.235548
155.778303 24.127971 66.550830
34.685495 175.094333 90.715908
119.882732 180.783616 155.346347
11.962206 134.057074 132.654529
104.540265 164.492257 176.214809
137.410434 7.336446 99.883188
7.002834 109.695130 64.956080
158.513045 124.920945 22.996222
153.722908 175.425424 137.658334
164.723254 159.920532 146.881643
73.253769 9.530467 132.904236
177.733502 162.257475 91.874538
173.805272 38.528503 127.503899
28.585665 89.687842 169.040826
44.207977 178.086319 127.728731
95.209511 124.266653 196.735506
181.492898 72.851256 151.016184
44.887530 174.475783 137.489419
107.497920 195.121094 70.205726
64.248585 86.973559 7.630484
132.730476 173.377087 40.633127
17.067432 140.049167 138.606487
134.990631 16.645051 57.445015
168.399061 38.432774 138.896123
192.398043 121.701358 68.938268
95.007142 128.963901 4.535766
32.518611 57.975760 160.596328
140.396617 160.831897 31.839391
114.898774 23.992438 163.144328
158.237625 177.156484 125.149211
133.261242 60.235600 185.368868
140.695005 96.603721 191.169213
154.928562 28.992914 143.827302
147.497018 40.864168 165.047155
35.699867 133.479544 31.224616
91.382301 9.292662 59.008200
59.375255 100.520934 191.249946
115.656166 182.040667 45.198030
97.584362 5.467266 67.601175
114.166314 88.195375 198.273718
83.993987 160.447273 22.112585
185.905515 101.750077 49.009720
183.566804 71.161250 146.532922
150.618541 58.471861 24.569152
114.964819 124.681096 4.379692
78.946346 158.705839 178.076472
9.266264 134.535154 123.689473
105.180739 199.783946 101.364329
94.876830 124.617760 3.371513
54.794716 57.272630 21.757158
110.049606 182.631913 44.772786
55.546399 10.583986 96.070287
12.054196 101.247456 147.389385
137.234249 35.681991 166.765123
42.620742 40.834211 156.402144
194.424499 119.342318 126.387895
168.213151 52.069366 155.033506
48.011191 14.875041 106.172105
123.712176 102.360760 2.987730
131.321434 13.416342 138.755668
47.674734 51.520978 169.921584
164.891453 84.895524 174.454031
123.371306 64.967041 9.391587
46.032150 32.360562 149.949364
143.821386 63.013488 181.789764
98.895557 152.608648 184.922432
8.388272 113.736384 62.645239
3.490965 121.512379 85.759371
31.140492 166.225139 129.215809
115.531049 184.948305 49.651375
134.766201 68.952497 188.338387
70.269728 121.160465 7.024725
166.887005 49.530303 45.507284
144.351171 73.385803 185.498135
88.331839 191.714728 138.011171
25.961180 137.546124 44.412848
30.575069 85.414021 29.717033
75.119622 195.050812 118.443218
94.540254 29.230516 29.699388
196.606092 107.215300 124.148508
120.861470 58.070674 188.288722
97.676897 138.660974 192.091669
106.987144 119.460115 197.782383
154.842105 20.548522 74.073809
32.952141 66.669923 166.075370
142.089330 147.923916 23.148041
11.897143 113.246301 54.788160
117.650319 115.261016 197.076630
58.429947 171.733274 44.299033
175.786499 82.485072 37.278719
82.074419 105.592295 198.157479
126.153641 183.740842 147.850117
99.057532 8.957539 141.195482
141.773827 42.477153 29.762957
97.606222 167.809709 173.345915
165.381985 160.441264 145.312856
163.502437 24.581347 83.688316
114.301836 56.481636 188.811037
68.820381 150.183603 19.390735
68.107269 80.555021 192.686115
189.964431 142.949984 106.900347
131.055277 140.851270 185.674145
15.147211 152.672985 101.456423
26.289067 42.455575 135.181234
82.102732 14.129926 147.848829
15.266398 49.628209 116.382925
160.156313 168.919990 140.258695
125.577016 118.420481 5.236443
146.450244 134.656496 18.629050
155.484499 73.373681 21.302108
33.434020 172.596273 116.799723
46.498153 62.875709 24.261506
171.324431 67.627947 38.050920
72.249155 19.377089 152.127053
46.255367 149.408631 31.722893
121.712589 126.517476 6.115652
104.770168 81.364306 1.957426
15.304914 149.601417 81.239588
42.192599 181.413707 96.619879
83.404596 176.738159 38.195516
34.934539 29.205294 127.155004
113.986753 103.981478 1.074266
160.154369 175.633953 125.410814
117.162211 118.953483 196.557430
63.966131 171.850641 159.287501
32.892995 115.131185 27.564891
27.394253 75.266309 163.978761
75.433300 146.165121 14.906219
27.167278 111.572755 32.552087
175.673486 35.466528 90.231700
100.299988 153.850945 184.108689
130.011981 83.492027 6.148355
178.028268 39.942061 83.138086
8.806920 106.541842 59.734063
70.435834 19.162328 150.766011
152.253600 32.901883 47.579266
134.764555 168.376295 164.030436
99.749719 44.450229 16.953692
20.331183 94.700825 160.093626
39.557375 112.630113 21.439096
87.430665 194.326302 69.455158
182.790521 92.479136 44.684018
14.878564 131.823134 58.640158
26.770688 33.116673 87.836429
54.047502 23.087678 144.168342
28.813808 119.663898 167.307232
156.675846 33.723181 148.713877
49.937485 186.381928 96.144203
133.049749 6.895941 114.902644
155.130568 160.575647 42.851332
187.087382 148.522495 106.228388
34.015900 165.221033 137.021273
50.586668 184.589513 80.053559
126.623743 188.381015 138.396152
0.951292 112.644289 103.091289
173.253244 49.676625 145.689494
103.815722 72.390477 4.033726
24.832679 136.552110 154.715927
18.093525 157.017700 105.712096
90.671641 120.411237 2.591295
164.016604 42.036733 49.774801
119.512858 43.253309 20.051710
46.872887 169.315244 148.678368
169.599259 164.908856 69.664072
57.816041 172.469439 45.698290
90.521602 90.693787 0.984462
2.217543 89.626138 117.616638
97.623064 4.253874 128.469725
57.026334 10.182278 108.255034
159.895289 84.575343 21.598462
16.559539 106.528656 154.547512
87.738259 77.175006 196.439021
138.432056 95.804882 192.187724
146.172954 37.536590 37.078310
110.538376 0.913638 107.438507
166.648958 139.193697 36.781279
105.591287 149.198266 13.167112
53.598065 183.824013 71.571010
126.343447 195.891568 109.691788
196.568486 119.796981 83.717116
0.305978 103.095480 105.508646
22.404607 92.569360 37.597947
166.146135 137.551934 35.182097
58.981805 9.809211 112.823151
103.763108 2.015604 119.190205
177.327191 81.257579 160.378191
190.833995 125.448095 67.195624
11.685901 55.392175 86.037306
111.284923 197.990781 115.938803
152.524220 88.584423 184.269087
187.438196 107.734200 52.430510
37.132223 170.028070 133.692138
125.979499 5.364664 80.939089
151.970113 122.287915 182.346312
109.362622 192.885363 135.617273
105.930328 14.258347 49.052871
199.712154 96.890290 94.413115
148.986869 15.231527 79.825978
16.904729 129.843278 146.689424
0.945422 89.752975 108.358281
56.677116 184.722618 130.617519
94.631958 129.744123 195.180502
52.304537 108.017221 12.608345
177.509219 144.949922 144.176991
121.437926 140.273008 188.862809
40.234109 56.102160 33.057023
7.536824 83.363808 66.170450
91.805340 172.470453 168.262101
135.012571 15.984389 141.314287
96.958955 11.611532 146.606839
145.523688 18.434377 135.418856
189.350227 93.401856 144.176188
151.828357 122.990012 17.766760
60.670260 102.197496 191.778633
42.620995 115.667875 19.805631
126.735711 62.343757 188.578269
11.174816 142.769302 116.432855
37.283661 26.984663 73.172231
175.356995 36.158549 115.460552
185.903214 117.818112 52.281219
189.714719 93.415914 56.505410
163.223192 41.623851 150.752483
114.012318 19.752379 42.062033
191.842655 111.552749 62.384606
74.243899 94.723598 3.578856
35.569909 175.281647 113.012062
160.830406 23.095520 80.895801
86.909522 49.900709 14.525227
193.103237 81.432612 131.010110
6.612010 135.244031 104.553868
168.178962 37.269362 137.451691
55.863899 183.586894 132.420853
174.645735 33.960802 93.560445
193.415753 68.444375 115.706125
6.329386 99.189867 134.566701
199.348288 106.356739 92.269797
51.511400 96.896020 187.350450
193.059262 135.926540 105.837376
2.937445 101.582999 76.376312
155.019937 131.329256 177.245788
109.177443 32.282499 172.880955
113.633204 128.626848 194.807752
61.915433 191.119966 84.771481
1.482579 110.161897 87.218881
76.065376 68.640979 191.766772
154.760895 67.535919 23.036226
22.688944 163.353211 101.302313
125.352770 187.144580 141.801043
9.745558 142.932162 101.410630
10.699157 74.247358 136.583848
120.378216 140.126784 189.215126
131.517376 61.958493 186.778988
106.237667 112.491296 198.996604
39.293329 22.106030 84.788114
175.000342 47.404804 139.767032
30.084469 143.936868 43.769828
9.438618 90.845991 141.092057
57.757723 10.008285 109.981917
120.850019 169.374323 31.101936
101.614773 198.082211 119.010389
146.265329 11.587770 93.759799
26.972615 32.720678 88.996465
117.985112 12.168950 144.188022
24.773416 41.681976 130.315277
188.574043 145.287427 108.863284
179.804572 142.167969 57.175525
23.142013 39.057132 119.053052
143.140228 21.919049 55.042727
84.459274 1.455434 93.570068
112.601348 196.910532 121.075418
172.535015 31.914666 109.477232
17.174558 76.930644 49.203921
135.711544 185.849727 63.438588
35.775311 36.451875 57.251336
197.380987 111.700239 80.737206
137.245138 126.992094 188.721610
97.210062 121.907979 197.440060
133.351349 5.926898 95.145981
189.351368 62.539173 124.281136
168.777037 150.330582 152.165601
153.522419 19.596538 125.782642
70.800270 11.143624 135.272919
161.797906 77.661796 24.802260
38.505468 102.245950 178.708815
45.035595 183.363114 103.840551
134.600036 94.870458 6.443559
123.306066 38.502715 24.770646
43.332758 135.145684 174.427203
38.371093 43.706920 155.004292
166.113132 141.063435 162.624450
55.051278 172.937167 48.643233
24.455020 95.905950 165.289237
51.804155 170.414610 152.015268
36.303568 169.600442 133.028458
43.982287 26.512500 62.010831
180.549078 41.393799 92.668769
199.835754 99.685611 101.235066
165.025086 42.493761 50.528783
131.937556 147.483315 181.869035
25.152710 91.014977 165.511326
147.047142 73.621554 15.943352
83.703332 136.932169 191.408458
157.975409 91.303418 180.870815
35.920569 130.240067 29.603546
119.991768 189.904814 138.742180
188.716750 55.142487 109.884231
137.444174 151.457534 22.985693
112.827219 112.180201 198.372912
75.574549 42.261813 177.785696
192.770170 64.377945 89.037468
105.321834 196.233720 73.648883
193.189271 71.725523 122.321735
164.165921 163.799369 142.403569
43.788933 128.032901 22.297050
77.463209 126.097026 193.731770
121.961914 107.770980 2.842932
82.768528 157.843847 20.387297
111.463277 56.467464 10.781486
51.199800 16.591330 74.551013
163.711571 157.224038 48.462105
35.820784 51.877635 159.545007
178.727048 135.192148 150.465895
101.524992 159.115116 180.482151
190.801352 115.112936 138.670555
9.064391 64.244352 120.969586
13.405089 67.756021 137.976594
118.222835 24.788019 163.250399
62.367375 162.910924 167.976244
17.017154 46.957873 116.517376
126.632279 195.294689 114.067422
36.643942 109.441138 176.625397
86.591961 31.852260 171.874255
193.215630 110.038234 65.516113
90.495375 38.905244 21.543939
185.230887 151.911182 95.391554
107.997809 199.071494 110.265195
101.148905 110.398362 0.680978
11.095755 97.579506 54.513648
70.764182 4.446481 100.360842
110.566676 116.804762 2.150574
176.393259 159.449795 75.407207
105.818437 28.866663 169.895266
104.255514 191.960923 60.988561
91.892189 12.965988 51.611726
49.330850 135.843555 21.673985
176.317999 103.336539 35.550960
16.866000 147.504175 71.456233
71.326830 150.331915 181.467533
62.362031 170.178378 39.656258
143.043889 28.259985 154.558967
160.312445 137.107707 29.500933
99.275094 198.490100 82.932684
158.113705 179.990515 114.755608
7.639612 132.870483 81.032663
176.517793 117.402918 161.794828
48.796692 27.014181 145.087153
26.998071 113.485382 166.887614
89.491815 39.289527 21.396733
53.231839 162.003612 37.164378
27.941474 71.637676 163.165319
71.913978 102.213075 195.826427
15.812384 47.330051 110.530670
135.959324 55.196741 181.700752
40.017174 173.211094 132.066166
43.073806 45.323353 38.740469
159.752478 169.210462 59.588509
143.507297 72.503005 14.278953
81.840743 190.273574 61.225754
58.523135 77.611307 188.073221
181.848534 89.373427 156.318396
181.344043 144.934729 136.594375
96.044496 177.148948 36.678342
133.611674 48.190975 178.520406
165.077316 73.810600 171.095554
38.041811 102.698906 21.630948
86.231956 186.063730 148.850519
98.447524 191.893978 139.361694
55.590951 136.744611 18.383102
118.197113 188.299358 56.795217
186.537917 140.365498 129.213176
10.988348 117.867445 58.404759
140.104637 143.643999 19.524027
36.199598 139.795832 165.737273
173.183829 111.632966 32.995159
176.030797 78.848194 38.729193
182.572556 148.369860 128.606878
72.849959 176.158242 41.272423
105.919161 81.993947 198.121398
135.950960 154.845465 24.657041
49.888327 132.956198 20.159859
131.393830 67.097432 188.899209
43.008274 78.484833 179.143719
33.447564 64.397929 165.479470
154.552215 64.579693 175.915963
21.650522 38.966207 110.586957
63.619086 108.229809 192.616294
37.104773 53.146541 38.193752
160.986903 24.873320 74.950653
165.197268 100.659462 175.701636
46.834169 50.233163 168.468370
105.284754 196.892491 75.953304
170.601566 29.529225 105.484189
170.459372 167.095454 77.395056
189.218503 55.771295 107.794473
167.996838 27.299250 91.379598
54.305086 59.464065 20.963068
63.741855 8.720449 81.540452
140.936819 17.379162 61.552729
22.697009 56.318713 54.214110
183.092848 154.347600 88.953731
141.640041 9.177910 99.229055
128.161179 96.179333 195.803941
10.665654 57.636067 85.176529
95.526070 159.370643 19.818871
69.948647 141.643038 185.721073
169.163394 131.136346 164.957689
58.144240 111.948621 189.996621
190.029892 56.673157 99.991179
6.929034 132.290282 83.512110
76.794277 121.487577 5.256531
196.320505 79.544614 83.102958
54.287573 75.284244 14.716567
117.821261 12.739753 54.702393
7.551293 118.663631 132.950137
147.615234 152.661109 170.230226
99.872528 45.653882 16.195528
134.639111 12.861649 65.491481
12.893995 51.089923 98.320323
176.922330 79.985636 39.433987
56.334062 167.873736 41.126326
32.196171 167.220932 70.528871
86.837832 56.321302 188.876846
1.448148 103.532111 83.575257
41.201934 111.724925 20.085053
3.747491 84.739241 78.227335
22.262419 112.926904 38.574050
115.501990 194.530067 71.440397
45.392691 103.829486 183.623351
103.834671 57.252988 190.262456
74.275472 170.887458 34.482682
2.769085 118.247115 113.752459
38.718829 34.499395 56.066023
72.851785 36.888980 172.622344
106.369842 190.238494 57.581082
168.180504 163.742806 64.309563
119.574778 197.980299 100.303894
152.299541 129.816994 179.681283
98.057208 91.249713 0.484936
54.793237 31.277599 43.186768
186.615730 126.680147 142.130458
0.315699 94.350777 97.462039
16.434344 45.589116 106.065491
118.719928 198.107090 102.973089
95.923101 199.766104 104.125515
30.571445 170.673763 112.901112
92.970865 0.500778 93.610668
114.706762 70.965951 194.470250
4.590701 118.820220 122.995537
160.836124 114.020245 22.057064
81.309600 165.863034 27.257011
104.435469 107.726281 0.532455
138.952818 190.415431 83.010681
111.071918 190.802175 59.815145
61.864778 120.392168 190.069140
36.379594 34.263936 59.849435
165.437466 26.734868 81.761401
39.442843 124.541338 175.584887
98.689567 137.081433 7.220199
137.032785 131.100062 187.391774
74.821463 168.729810 168.073659
6.201979 126.718122 78.327238
80.704831 71.774790 6.102070
1.919240 81.303473 102.708244
49.188539 66.200680 179.080273
180.696638 54.907928 62.115851
193.332245 97.582417 64.348279
154.425911 21.732679 129.864385
3.293274 76.500913 91.373778
98.835492 191.181819 140.887880
129.354134 124.860583 7.786113
85.743692 10.106427 141.215156
196.952035 119.278786 85.528516
173.706977 32.659685 96.211616
155.680589 179.900227 122.602333
86.398096 122.389225 3.645244
59.211402 8.780262 101.178114
8.748258 138.387641 86.824400
129.920990 9.229504 70.841497
42.123311 82.201713 179.400795
90.631137 136.378047 192.633614
19.064913 80.043398 155.107499
8.067897 61.170536 96.714281
100.221096 35.823813 23.417228
198.618713 84.438722 98.610423
149.195713 64.868773 179.631034
52.935512 102.748744 11.927579
16.690278 99.458038 44.914928
85.893319 191.134355 61.492867
194.261665 69.186804 112.093156
120.033936 6.051323 127.530824
2.541349 93.516032 120.730626
155.798392 19.579908 120.219474
160.242256 142.366217 32.442527
157.671387 19.865574 115.666681
166.270473 174.694467 95.460329
45.340780 39.232556 157.459944
144.010289 51.628053 24.491754
198.545184 115.784013 104.481240
109.908148 32.661432 26.856662
84.932468 128.745107 194.481217
25.172834 34.001445 104.739578
54.901269 36.321356 162.427478
29.579684 151.628131 51.501466
23.424720 139.449763 150.562850
117.057529 4.366345 123.416637
5.255196 95.761135 68.368417
151.869058 61.154426 24.033540
165.886237 37.791093 142.073370
1.573564 107.944304 85.014218
57.460492 72.139471 13.980132
23.407759 121.908789 160.272064
38.430884 32.765218 59.148247
61.251675 86.473943 191.058405
130.287888 5.385894 88.826035
115.397152 54.226296 12.595279
198.604906 101.162242 84.360429
64.935418 142.372270 183.416058
120.792002 13.129873 55.261109
71.842995 176.567902 42.344979
141.748596 12.690584 75.118693
26.411251 167.308111 106.231412
20.417417 160.325424 101.751072
28.206962 164.800313 74.897637
50.440369 177.070373 139.780949
49.365091 17.407465 75.637996
168.298599 169.803831 78.745891
103.128301 16.781905 44.767094
116.690423 4.204448 77.009527
45.286064 154.732537 163.129736
196.472947 75.361524 92.591167
140.367367 190.925891 90.684972
65.542276 169.104252 163.489536
38.412899 30.078317 136.094679
151.534922 185.463588 95.043888
198.810611 85.639561 104.071655
101.129152 77.182941 197.201589
176.396694 145.805373 54.755240
131.100997 11.921245 64.397817
152.892268 150.689643 167.939116
6.886170 119.702281 69.459617
112.788018 4.412129 126.159342
149.367872 127.064516 17.435063
102.694025 195.792675 71.726120
8.982396 123.675768 133.545327
143.075287 25.928272 48.568472
20.551246 43.883278 122.841463
156.555816 128.636669 22.704068
37.012964 177.038514 91.282298
194.731494 76.827849 121.495879
28.195129 57.106435 45.196743
101.258645 191.542695 59.894679
139.956599 42.936040 28.351691
31.188591 145.715136 156.099537
40.576016 160.253801 46.899719
120.136081 93.576728 197.606678
182.293408 90.413057 44.218743
81.276874 194.565219 126.448231
37.446152 115.836623 23.771130
156.061464 56.400448 29.737883
119.302479 195.731664 121.123789
87.032686 61.883990 8.622004
174.366067 78.140167 36.963837
89.359239 29.514009 169.995953
161.829535 167.961311 139.224746
7.805358 108.692444 137.355609
80.919523 148.033785 14.541627
19.022008 45.417392 78.926127
180.034759 103.511800 40.308757
193.763316 71.088576 80.975961
188.711420 123.227387 60.497199
159.311544 57.886702 31.428278
164.712529 24.865339 87.337363
148.106960 31.419090 45.480872
103.390595 14.286070 48.744689
76.292222 95.070261 196.917344
51.058356 171.433386 149.801780
131.447295 123.141537 191.907563
181.922932 43.547225 109.852162
103.711578 0.478780 91.458589
35.948074 49.842465 158.125788
84.301288 133.968761 192.630090
118.514146 8.161405 134.902994
32.171605 105.678239 173.151709
38.706739 59.150665 32.528976
193.399142 96.298000 64.545904
14.059681 50.018011 110.177019
132.111491 194.587090 95.950672
71.855342 103.749667 195.807902
92.274303 31.920435 172.757223
35.171229 51.076251 41.742127
78.021061 88.067379 196.732550
129.599266 148.766699 18.001517
93.735864 167.561081 173.329250
10.148207 99.922303 56.481254
48.416436 15.823391 115.630674
190.266946 133.490168 73.240750
125.913848 65.349532 190.050079
19.011250 114.341945 156.617995
25.649031 45.271382 138.155038
40.338126 150.752895 37.931183
185.357740 149.655609 84.689930
147.479664 18.727533 66.440586
6.752916 129.339365 79.504582
59.615953 189.204626 80.038032
151.013632 45.355156 33.759112
198.574262 87.928853 88.477676
37.141068 174.745211 121.444603
141.722005 114.949180 10.528488
145.936564 53.506737 24.440392
173.698500 124.365522 37.145277
137.202873 21.916448 49.981943
33.556010 156.912129 51.669545
19.773218 84.565883 42.605121
48.467600 148.707620 170.353974
54.624105 136.441882 18.728764
45.695274 19.624154 75.863024
172.782802 160.031526 67.235948
72.824355 13.248143 58.555606
85.019630 168.883653 29.152791
55.306434 80.715594 12.767935
51.097165 24.515217 56.393951
186.231783 150.264895 105.131286
84.028886 57.716790 10.846129
125.151833 8.591952 68.376470
31.795853 171.761827 86.767343
143.066381 18.128782 137.707841
133.665353 33.476231 33.480557
149.847971 142.203610 24.397850
125.224929 6.066238 77.107567
147.636042 29.824958 47.167303
186.315897 58.295353 71.908936
117.934463 36.085420 174.714258
91.792554 2.223677 81.129238
165.664506 174.569811 110.818042
81.999214 41.344015 178.811658
71.557578 160.158726 174.488249
46.563063 155.476105 36.385388
199.727430 101.712665 94.599912
134.258349 13.799047 137.093806
30.185886 151.624694 50.634023
35.408691 69.992910 29.944260
198.303817 107.122877 115.930917
178.223624 54.182166 141.868504
139.493314 8.995642 112.001351
9.113563 131.914800 73.728075
76.586251 16.988460 49.550812
177.641567 126.878587 43.157696
105.084597 5.969142 133.441923
129.804520 5.872459 84.582747
199.296839 94.725344 90.569874
90.123865 124.616930 3.663823
149.213532 68.219519 19.075475
84.895825 186.767808 147.150562
27.694358 154.773905 141.794526
92.235521 1.119199 87.656902
143.337859 28.031573 45.979383
50.079664 63.741466 178.578615
87.723596 178.914591 160.058354
25.763272 97.757427 33.128708
149.066656 65.577212 20.003235
121.592897 6.023378 126.205252
40.613993 20.081618 109.125764
20.909917 39.046736 97.741658
3.308467 120.146950 84.488744
89.267151 111.189974 198.735481
112.878890 191.349571 61.559548
66.880328 193.784508 90.490639
79.618288 46.108904 181.582012
9.735321 100.603452 57.338622
80.498049 159.937839 177.481832
158.044697 19.461797 111.639039
